# This PCD file was generated using the MATLAB® pcwrite function
# from Computer Vision Toolbox®.
# .PCD v.7 - Point Cloud Data file format
VERSION .7
FIELDS x y z
SIZE 4 4 4
TYPE F F F
COUNT 1 1 1
WIDTH 1619
HEIGHT 1
VIEWPOINT 0 0 0 1 0 0 0
POINTS 1619
DATA ascii
-2.369240 -8.732297 2.088896
-0.661239 -2.435447 -0.044050
-2.369456 -8.721050 2.421511
-0.696157 -2.548216 0.046109
-2.407440 -8.800120 0.478141
-2.413624 -8.816679 0.799741
-0.668572 -2.440539 -0.400785
-2.414147 -8.806520 1.121198
-0.289882 -1.056732 -0.134544
-2.414281 -8.794964 1.444516
-0.663488 -2.417014 -0.219284
-2.414511 -8.789793 1.771852
-0.658014 -2.393801 -0.130107
-2.401774 -8.731490 2.090695
-0.666553 -2.421555 -0.043840
-2.402449 -8.722038 2.424099
-0.700778 -2.530353 0.045830
-2.444918 -8.810121 0.799915
-0.668629 -2.407737 -0.395779
-2.448064 -8.809517 1.122661
-0.296760 -1.067189 -0.136006
-2.446025 -8.790289 1.445142
-0.667647 -2.399327 -0.217889
-2.446759 -8.786986 1.772997
-0.666902 -2.393414 -0.130212
-2.436424 -8.738070 2.094294
-0.672314 -2.409583 -0.043666
-2.431321 -8.708016 2.422546
-0.706904 -2.518265 0.045655
-0.751779 -2.674538 0.145599
-0.682917 -2.426304 -0.399221
-2.480951 -8.808559 1.123635
-0.309099 -1.096717 -0.139906
-2.478840 -8.789302 1.446393
-0.672233 -2.383559 -0.216669
-2.475816 -8.772723 1.771852
-0.673624 -2.385305 -0.129898
-2.467442 -8.731388 2.094744
-0.680721 -2.407222 -0.043666
-2.465910 -8.714348 2.426687
-0.711860 -2.502319 0.045411
-0.745789 -2.618114 0.142668
-0.750981 -2.634594 0.239678
-0.682171 -2.391612 -0.393902
-2.508415 -8.788393 1.122173
-0.799760 -2.800159 -0.357565
-2.510590 -8.784394 1.447019
-0.718327 -2.513381 -0.228697
-2.510203 -8.777241 1.774524
-0.677551 -2.367578 -0.129060
-2.500051 -8.730216 2.096544
-0.687467 -2.399064 -0.043561
-2.498978 -8.714972 2.429276
-0.719482 -2.495976 0.045341
-0.746062 -2.584792 0.140993
-0.759620 -2.630042 0.239504
-0.693806 -2.400603 -0.395779
-2.540180 -8.783398 1.122661
-0.791871 -2.736331 -0.349765
-2.545084 -8.788860 1.449209
-0.693844 -2.396032 -0.218238
-2.541919 -8.772198 1.775287
-0.686923 -2.369035 -0.129270
-2.531597 -8.725178 2.097444
-0.695837 -2.396650 -0.043561
-2.535311 -8.726602 2.434970
-0.725948 -2.485771 0.045202
-0.753959 -2.578338 0.140784
-0.767677 -2.623550 0.239155
-0.701072 -2.394375 -0.395153
-2.573056 -8.782097 1.123635
-0.782429 -2.668783 -0.341478
-2.577416 -8.785607 1.450148
-0.761656 -2.596248 -0.236715
-2.574183 -8.768921 1.776432
-0.692937 -2.358958 -0.128851
-2.559839 -8.708809 2.095644
-0.698556 -2.375021 -0.043212
-2.569576 -8.730673 2.438593
-0.734621 -2.483222 0.045202
-0.765223 -2.583350 0.141202
-0.764940 -2.580739 0.235495
-0.709425 -2.391913 -0.395153
-2.608214 -8.788286 1.125585
-0.790610 -2.662229 -0.340990
-2.606379 -8.770878 1.449209
-0.749147 -2.520999 -0.230091
-2.608133 -8.771173 1.778722
-0.700028 -2.352696 -0.128642
-2.594671 -8.714764 2.099243
-0.706843 -2.372569 -0.043212
-2.596173 -8.708690 2.434970
-0.737545 -2.461487 0.044853
-0.774933 -2.584625 0.141412
-0.775089 -2.581870 0.235843
-0.718907 -2.393206 -0.395779
-2.642304 -8.790535 1.127048
-0.798755 -2.655652 -0.340503
-2.638864 -8.773536 1.451086
-0.728085 -2.419160 -0.221027
-2.635904 -8.752616 1.776813
-0.703049 -2.333027 -0.127700
-2.626201 -8.709385 2.100143
-0.717593 -2.379785 -0.043387
-2.625597 -8.701883 2.435488
-0.747444 -2.464768 0.044957
-0.788012 -2.595282 0.142144
-0.783517 -2.577242 0.235669
-0.726839 -2.390809 -0.395779
-2.664508 -8.758934 1.124123
-0.759000 -2.493467 -0.320029
-2.671775 -8.771830 1.452338
-0.724907 -2.378487 -0.217541
-2.666632 -8.749461 1.777958
-0.702626 -2.303937 -0.126234
-2.663032 -8.726721 2.106442
-0.721808 -2.363878 -0.043142
-2.659906 -8.705597 2.439111
-0.755456 -2.460233 0.044922
-0.787088 -2.560061 0.140365
-0.787958 -2.561300 0.234449
-0.736342 -2.392032 -0.396405
-2.702662 -8.774242 1.127291
-0.733202 -2.378878 -0.305648
-2.704708 -8.770000 1.453589
-0.732030 -2.372135 -0.217192
-2.702366 -8.756983 1.781393
-0.711842 -2.305287 -0.126444
-2.689449 -8.704339 2.103292
-0.727692 -2.353702 -0.043003
-2.694846 -8.711024 2.443252
-0.764633 -2.459490 0.044957
-0.799582 -2.568740 0.140993
-0.798526 -2.562199 0.234798
-0.745693 -2.391203 -0.396718
-2.733865 -8.766650 1.127535
-0.707205 -2.266395 -0.291512
-2.733537 -8.754849 1.452651
-0.739118 -2.365762 -0.216843
-2.737374 -8.756389 1.783301
-0.719094 -2.298850 -0.126234
-2.720752 -8.692564 2.102843
-0.732320 -2.339697 -0.042793
-2.725237 -8.701564 2.443252
-0.771240 -2.449042 0.044818
-0.808543 -2.565934 0.140993
-0.802670 -2.544195 0.233403
-0.755224 -2.392354 -0.397344
-2.770761 -8.771715 1.129485
-0.717901 -2.271359 -0.292486
-2.767059 -8.754672 1.454215
-0.730550 -2.309977 -0.211963
-2.765553 -8.739294 1.781775
-0.726512 -2.294422 -0.126130
-2.752844 -8.688587 2.104192
-0.744106 -2.348564 -0.043003
-2.756761 -8.695681 2.444287
-0.779964 -2.448376 0.044853
-0.815067 -2.555484 0.140574
-0.814576 -2.550868 0.234275
-0.763154 -2.389836 -0.397344
-2.799230 -8.760588 1.129241
-0.759282 -2.374851 -0.306136
-2.803018 -8.761892 1.457031
-0.726460 -2.269462 -0.208477
-2.800504 -8.748773 1.785591
-0.734116 -2.292000 -0.126130
-2.783426 -8.684978 2.105542
-0.752910 -2.347857 -0.043038
-2.785328 -8.680487 2.442734
-0.787892 -2.443735 0.044818
-0.827664 -2.564028 0.141202
-0.824255 -2.551944 0.234623
-0.767846 -2.375880 -0.395466
-2.826739 -8.741320 1.128023
-0.784678 -2.425069 -0.312961
-2.832368 -8.748297 1.456405
-0.733368 -2.265145 -0.208302
-2.829211 -8.733340 1.784446
-0.739033 -2.279924 -0.125606
-2.816731 -8.684478 2.107791
-0.760484 -2.343312 -0.043003
-2.819191 -8.681736 2.445840
-0.805101 -2.467585 0.045306
-0.839090 -2.568717 0.141621
-0.833777 -2.550946 0.234798
-0.750960 -2.296206 -0.382639
-2.861556 -8.744605 1.129729
-0.773372 -2.361946 -0.305161
-2.866579 -8.749619 1.458282
-0.759880 -2.319372 -0.213532
-2.862736 -8.732739 1.786354
-0.751344 -2.290615 -0.126339
-2.848244 -8.678295 2.108691
-0.768659 -2.340643 -0.043003
-2.850684 -8.675512 2.446875
-0.824367 -2.497041 0.045900
-0.851185 -2.575254 0.142144
-0.842051 -2.546128 0.234623
-0.754005 -2.278568 -0.380136
-2.895807 -8.745870 1.131191
-0.731669 -2.208483 -0.285662
-2.893995 -8.730185 1.456718
-0.818125 -2.468001 -0.227476
-2.896910 -8.733874 1.788644
-0.759336 -2.287978 -0.126339
-2.878519 -8.668301 2.108691
-0.774933 -2.332253 -0.042898
-2.882170 -8.669175 2.447911
-0.844482 -2.528288 0.046528
-0.850668 -2.543855 0.140574
-0.849037 -2.537505 0.234100
-0.750666 -2.242205 -0.374504
-2.930732 -8.748884 1.132897
-0.759561 -2.266145 -0.293461
-2.928220 -8.731267 1.458595
-0.814698 -2.429239 -0.224165
-2.933625 -8.742321 1.792460
-0.768589 -2.289101 -0.126548
-2.913725 -8.672977 2.112290
-0.784981 -2.335220 -0.043003
-2.909334 -8.649907 2.445323
-0.850741 -2.517747 0.046388
-0.865943 -2.559789 0.141621
-0.860444 -2.542074 0.234798
-0.351680 -1.038398 -0.173642
-2.965076 -8.749881 1.134360
-0.803163 -2.368758 -0.307111
-2.959949 -8.724732 1.459221
-0.799489 -2.356570 -0.217715
-2.959706 -8.719013 1.789788
-0.777859 -2.290186 -0.126758
-2.946489 -8.670135 2.114090
-0.793128 -2.332466 -0.043003
-2.942622 -8.648843 2.447911
-0.862112 -2.522331 0.046528
-0.876813 -2.562420 0.141935
-0.873830 -2.552250 0.236018
-0.357223 -1.042770 -0.174581
-2.990451 -8.724456 1.132410
-0.861658 -2.512403 -0.326122
-2.995515 -8.729296 1.461724
-0.836811 -2.438568 -0.225559
-2.997774 -8.730911 1.794368
-0.787147 -2.291235 -0.126967
-2.980537 -8.670855 2.116790
-0.802565 -2.333465 -0.043073
-2.976566 -8.649479 2.451016
-0.886405 -2.561232 0.142040
-0.882734 -2.549184 0.236018
-3.022837 -8.719590 1.133141
-0.902949 -2.603153 -0.338309
-3.025969 -8.718786 1.461724
-0.821148 -2.365989 -0.219110
-3.030164 -8.725959 1.795513
-0.793173 -2.282813 -0.126653
-3.008226 -8.653034 2.114990
-0.814648 -2.341981 -0.043282
-3.009279 -8.646335 2.453087
-0.903457 -2.584207 0.047785
-0.894021 -2.554351 0.141830
-0.895578 -2.557370 0.237064
-0.806721 -2.302347 -0.386393
-3.056540 -8.718352 1.134360
-0.915315 -2.609351 -0.339528
-3.059655 -8.717490 1.463288
-0.841938 -2.398828 -0.222421
-3.059954 -8.713475 1.795131
-0.807758 -2.298874 -0.127700
-3.042937 -8.655351 2.118139
-0.821490 -2.335351 -0.043212
-3.045216 -8.652178 2.457746
-0.917805 -2.596120 0.048064
-0.903598 -2.553098 0.141935
-0.904500 -2.554228 0.237064
-3.090270 -8.716985 1.135579
-0.837485 -2.361055 -0.307598
-3.093370 -8.716064 1.464852
-0.850306 -2.395874 -0.222421
-3.094950 -8.715692 1.797803
-0.819789 -2.307332 -0.128328
-3.073784 -8.646512 2.118589
-0.834328 -2.345657 -0.043456
-3.076693 -8.645135 2.458781
-0.928881 -2.598550 0.048169
-0.921925 -2.576255 0.143401
-0.915425 -2.556683 0.237587
-3.121350 -8.708013 1.135822
-0.847061 -2.361854 -0.308086
-3.125778 -8.710792 1.465791
-0.886928 -2.471654 -0.229743
-3.124028 -8.701138 1.797039
-0.833240 -2.319494 -0.129165
-3.107243 -8.644899 2.120839
-0.846572 -2.354021 -0.043666
-3.109468 -8.641614 2.460852
-3.145516 -8.703630 0.161539
-0.936349 -2.588046 0.144238
-0.931803 -2.574080 0.239504
-0.351823 -0.971371 -0.163630
-3.153080 -8.700797 1.136310
-0.948004 -2.614553 -0.341478
-3.162227 -8.716540 1.468607
-0.937677 -2.584666 -0.240550
-3.158400 -8.701254 1.799329
-0.842695 -2.320326 -0.129375
-3.142725 -8.648652 2.124438
-0.862299 -2.371724 -0.044050
-3.143577 -8.641599 2.463957
-3.182055 -8.709501 0.161854
-0.938516 -2.566005 0.143191
-0.944891 -2.582037 0.240550
-0.364720 -0.996106 -0.168011
-3.188212 -8.702785 1.138016
-3.193315 -8.707303 1.468920
-0.978936 -2.669294 -0.248742
-3.194165 -8.704921 1.802382
-0.862491 -2.349243 -0.131154
-3.172222 -8.635801 2.123988
-0.876782 -2.385592 -0.044364
-3.176389 -8.637827 2.466028
-3.215208 -8.705845 0.161993
-3.212249 -8.688496 0.485468
-3.222518 -8.711600 0.812640
-0.380537 -1.028173 -0.173642
-3.219260 -8.693465 1.138260
-3.219570 -8.684990 1.467043
-1.006946 -2.716300 -0.253449
-3.226579 -8.699241 1.803527
-0.890838 -2.400520 -0.134189
-3.203026 -8.626502 2.124438
-3.232612 -8.701530 -0.162028
-3.213926 -8.646605 2.471722
-3.246977 -8.698315 0.162063
-3.253044 -8.705295 0.487038
-3.252211 -8.698432 0.812466
-0.414576 -1.108246 -0.187409
-3.255153 -8.697048 1.140210
-0.426055 -1.137718 -0.149168
-3.256798 -8.692197 1.470171
-0.980770 -2.617617 -0.244559
-3.259681 -8.695278 1.805053
-0.910435 -2.427317 -0.135864
-3.239281 -8.631689 2.128487
-3.265075 -8.695811 -0.162133
-3.240691 -8.626292 2.469134
-3.280849 -8.696283 0.162238
-3.289762 -8.710702 0.487980
-3.286075 -8.696346 0.813337
-3.289706 -8.696772 1.141672
-0.430023 -1.136224 -0.149168
-3.290616 -8.690012 1.471736
-3.286538 -8.674667 1.803145
-2.838826 -7.489011 -0.419734
-3.273538 -8.631262 2.131186
-3.296829 -8.688099 -0.162203
-3.274897 -8.625763 2.472239
-3.314034 -8.692252 0.162377
-3.322285 -8.704763 0.488295
-3.322096 -8.699713 0.814732
-0.855887 -2.240174 -0.379823
-3.320043 -8.685235 1.141672
-0.426895 -1.116175 -0.146731
-3.326578 -8.693233 1.474239
-3.321761 -8.680644 -0.813163
-3.321009 -8.674144 1.805435
-2.903532 -7.579772 -0.425387
-3.309924 -8.636159 2.135236
-3.331431 -8.687741 -0.162412
-3.307755 -8.621493 2.474310
-3.344356 -8.680631 0.162377
-3.349774 -8.685659 0.487876
-3.353879 -8.691780 0.815080
-0.871527 -2.257443 -0.383264
-3.354631 -8.684706 1.143134
-0.436514 -1.129491 -0.148681
-3.361177 -8.692622 1.476116
-3.357072 -8.682004 -0.814383
-3.354099 -8.669821 1.806961
-3.365431 -8.694598 -0.488609
-3.336530 -8.615467 2.132986
-3.363183 -8.679787 -0.162482
-3.338527 -8.611696 2.474828
-3.381890 -8.687538 0.162726
-3.385150 -8.686940 0.488609
-3.392159 -8.700440 0.816998
-3.387092 -8.678491 1.143866
-3.408101 -8.727825 -1.150447
-3.390781 -8.678996 1.475803
-3.418534 -8.750031 -0.821879
-3.390777 -8.674519 1.810396
-3.395033 -8.680938 -0.488504
-3.370134 -8.612842 2.135236
-3.397105 -8.677306 -0.162656
-3.373499 -8.612581 2.478451
-3.414391 -8.681264 0.162831
-3.421305 -8.689939 0.489446
-3.420318 -8.682985 0.816475
-3.423190 -8.681388 1.145816
-0.437103 -1.107950 -0.146243
-3.423957 -8.674458 1.477054
-3.467345 -8.784377 -0.826236
-3.418150 -8.655325 1.808869
-3.428250 -8.676463 -0.488923
-3.404477 -8.611899 2.137935
-3.427373 -8.665396 -0.162656
-3.402121 -8.597160 2.477416
-3.448365 -8.678584 0.163005
-3.453094 -8.681655 0.489655
-3.452817 -8.676547 0.816998
-0.434772 -1.091979 -0.186157
-3.461555 -8.689672 1.148497
-0.446848 -1.121170 -0.148193
-3.455678 -8.666122 1.477680
-3.512007 -8.807384 -0.829548
-3.452709 -8.654282 1.811159
-3.457034 -8.660735 -0.488713
-3.440299 -8.614441 2.141534
-3.460568 -8.660805 -0.162796
-3.433544 -8.588820 2.478451
-3.479382 -8.668349 0.163040
-3.488591 -8.682521 0.490388
-3.488284 -8.677382 0.818218
-0.438581 -1.090455 -0.186157
-3.485937 -8.662802 1.146547
-0.453724 -1.126969 -0.149168
-3.493289 -8.672330 1.480809
-3.493598 -8.673097 -0.818044
-3.488033 -8.654923 1.813830
-3.488739 -8.652319 -0.488923
-3.473265 -8.609609 2.143334
-3.495270 -8.659800 -0.163005
-3.469290 -8.591113 2.482592
-3.514128 -8.667270 0.163250
-3.520379 -8.673992 0.490597
-3.521552 -8.672537 0.818915
-0.455768 -1.121860 -0.191789
-3.519891 -8.659776 1.147766
-0.457655 -1.125378 -0.149168
-3.525773 -8.665572 1.481747
-3.526103 -8.666385 -0.818567
-3.517482 -8.640877 1.813449
-3.523440 -8.651187 -0.489551
-3.503296 -8.597432 2.143334
-3.533027 -8.666062 -0.163355
-3.510932 -8.607571 2.490875
-3.548150 -8.664205 0.163424
-3.549879 -8.659802 0.490493
-3.557851 -8.674938 0.820310
-0.990602 -2.414137 -0.413300
-3.553869 -8.656618 1.148984
-0.478173 -1.164171 -0.154530
-3.557501 -8.656868 1.482373
-3.563148 -8.670609 -0.820136
-3.557329 -8.652151 1.818410
-3.558936 -8.651764 -0.490283
-3.537735 -8.595963 2.146033
-3.558686 -8.642583 -0.163145
-3.545372 -8.605981 2.493980
-3.584487 -8.666549 0.163704
-3.586961 -8.663966 0.491435
-0.968024 -2.338171 -0.491906
-3.587348 -8.660625 0.820136
-0.963478 -2.324895 -0.398595
-3.588626 -8.655164 1.150447
-0.468543 -1.129490 -0.150143
-3.589213 -8.648045 1.482999
-3.593394 -8.658118 -0.820136
-3.592778 -8.652372 1.821081
-3.594477 -8.652199 -0.491016
-3.572208 -8.594358 2.148732
-3.598814 -8.654113 -0.163599
-3.573164 -8.588201 2.492427
-3.612405 -8.648448 0.163599
-3.621033 -8.660606 0.491958
-0.511188 -1.222634 -0.257592
-3.618327 -8.649888 0.820310
-3.067289 -7.328999 -1.258359
-3.623416 -8.653570 1.151909
-0.474017 -1.131510 -0.150631
-3.625487 -8.650038 1.485502
-3.636686 -8.676760 -0.823099
-3.622200 -8.637968 1.820700
-3.632384 -8.658018 -0.492063
-3.604448 -8.587228 2.150082
-3.631325 -8.647028 -0.163704
-3.609856 -8.591706 2.497086
-3.648788 -8.650526 0.163878
-3.654351 -8.655272 0.492377
-0.489489 -1.159348 -0.244617
-3.651598 -8.644547 0.821007
-3.084394 -7.298232 -1.254917
-3.655920 -8.646354 1.152640
-0.477964 -1.129848 -0.150631
-3.660278 -8.648246 1.487379
-3.686365 -8.709884 -0.827457
-3.650034 -8.619848 1.819555
-3.662585 -8.645286 -0.492063
-3.640486 -8.588946 2.153681
-3.669293 -8.652710 -0.164053
-3.643597 -8.587945 2.499674
-3.680529 -8.641416 0.163948
-3.685381 -8.648620 0.492691
-0.997845 -2.340548 -0.494577
-3.684878 -8.639078 0.821704
-3.109077 -7.285604 -1.254605
-3.688417 -8.639017 1.153372
-0.477226 -1.117220 -0.149168
-3.695144 -8.650592 1.489882
-3.694824 -8.645664 -0.822576
-3.687046 -8.623302 1.822989
-3.695096 -8.637957 -0.492377
-3.674278 -8.585145 2.155931
-3.700327 -8.646009 -0.164157
-3.675858 -8.584694 2.502263
-0.350932 -0.816424 -0.238114
-3.718641 -8.651210 0.164367
-0.429592 -0.998941 -0.251045
-3.717127 -8.639372 0.492900
-1.003681 -2.331640 -0.493432
-3.724469 -8.648122 0.823796
-3.121498 -7.248040 -1.249912
-3.722544 -8.639501 1.155078
-0.474642 -1.101048 -0.147218
-3.721407 -8.628572 1.488318
-3.728137 -8.640031 -0.823273
-3.720289 -8.621842 1.825279
-3.730846 -8.642159 -0.493319
-3.705818 -8.580069 2.157730
-3.732863 -8.638548 -0.164262
-3.708102 -8.577131 2.503816
-0.359788 -0.829434 -0.242255
-3.750410 -8.641845 0.164437
-0.422211 -0.972410 -0.244747
-3.750443 -8.633672 0.493319
-1.009842 -2.324698 -0.492669
-3.753921 -8.637549 0.823970
-3.160958 -7.269707 -1.255543
-3.758221 -8.639195 1.156784
-3.802508 -8.736828 -1.169946
-3.759390 -8.633640 1.491446
-3.802107 -8.731744 -0.833209
-3.753500 -8.616002 1.826805
-3.765777 -8.640069 -0.493947
-3.741976 -8.581372 2.161330
-3.766194 -8.632795 -0.164402
-3.738018 -8.564136 2.503816
-0.356481 -0.814017 -0.238114
-3.782959 -8.634195 0.164541
-0.441249 -1.006626 -0.253745
-3.788581 -8.638819 0.494365
-1.019528 -2.324755 -0.493432
-3.785649 -8.628042 0.824319
-3.218074 -7.330980 -1.268058
-3.793943 -8.638747 1.158490
-0.490302 -1.115881 -0.149656
-3.795863 -8.634931 1.493949
-3.852609 -8.764017 -0.837567
-3.788294 -8.613631 1.829095
-3.799936 -8.636012 -0.494470
-3.773478 -8.571824 2.162230
-3.801141 -8.630577 -0.164611
-3.769448 -8.554570 2.504851
-0.370257 -0.837504 -0.245360
-3.815502 -8.626425 0.164646
-0.433720 -0.980131 -0.247446
-3.822754 -8.634672 0.494889
-0.509447 -1.150717 -0.244617
-3.821392 -8.627528 0.825539
-3.168416 -7.149939 -1.238648
-3.820051 -8.616377 1.157271
-0.482926 -1.088759 -0.146243
-3.828386 -8.627046 1.494888
-3.874288 -8.730483 -0.835649
-3.819931 -8.603944 1.829858
-3.833301 -8.629995 -0.494889
-3.810499 -8.574627 2.166279
-3.839368 -8.635530 -0.164960
-3.803212 -8.550186 2.507439
-0.359006 -0.804452 -0.236043
-3.852113 -8.627662 0.164925
-0.437139 -0.978611 -0.247446
-3.852871 -8.621277 0.494889
-0.513461 -1.148932 -0.244617
-3.863683 -8.641420 0.828154
-3.136892 -7.012612 -1.216747
-3.854971 -8.613861 1.158734
-3.867830 -8.638553 -1.162146
-3.866551 -8.631658 1.498017
-3.909626 -8.727817 -0.836695
-3.854759 -8.601306 1.832148
-3.868304 -8.627498 -0.495517
-3.834025 -8.547050 2.162679
-3.872763 -8.629371 -0.165100
-3.833826 -8.538620 2.507957
-0.366573 -0.813762 -0.239149
-3.887135 -8.625102 0.165135
-0.438950 -0.973526 -0.246546
-3.887870 -8.618698 0.495517
-1.045431 -2.317530 -0.494195
-3.898742 -8.638776 0.829200
-3.223945 -7.140247 -1.240838
-3.894821 -8.622062 1.161659
-3.962545 -8.767905 -1.181401
-3.892589 -8.609108 1.496452
-3.905457 -8.633554 -0.829025
-3.892042 -8.603898 1.835583
-3.904161 -8.626679 -0.496250
-3.868661 -8.544266 2.165379
-3.906987 -8.624908 -0.165274
-3.870784 -8.541022 2.512615
-0.372753 -0.819447 -0.241219
-3.921358 -8.620581 0.165309
-0.447189 -0.982630 -0.249246
-3.924551 -8.619617 0.496354
-1.051477 -2.308323 -0.493050
-3.928726 -8.620802 0.828851
-3.333681 -7.311716 -1.272751
-3.928188 -8.615639 1.162634
-4.012076 -8.795560 -1.187008
-3.929178 -8.609845 1.498955
-3.950465 -8.652493 -0.832163
-3.932523 -8.609219 1.839780
-3.939904 -8.621394 -0.496773
-3.912106 -8.556614 2.172127
-3.943723 -8.625766 -0.165554
-3.905396 -8.537999 2.515721
-0.383671 -0.835697 -0.246396
-3.959606 -8.620688 0.165588
-0.455670 -0.991609 -0.251945
-3.967125 -8.633088 0.497924
-1.057068 -2.299287 -0.491906
-3.962124 -8.614277 0.829548
-3.968873 -8.621017 1.165315
-4.043455 -8.778993 -1.186764
-3.968297 -8.615813 1.502397
-4.047349 -8.783413 -0.846108
-3.955155 -8.579392 1.836346
-3.973319 -8.614843 -0.497192
-3.948481 -8.557063 2.175727
-3.973806 -8.611948 -0.165554
-3.946512 -8.548870 2.522968
-0.368718 -0.795790 -0.235008
-3.988172 -8.607511 0.165588
-0.458956 -0.990093 -0.251945
-3.999757 -8.624621 0.498238
-0.551135 -1.187862 -0.254539
-4.001397 -8.620273 0.831466
-3.505633 -7.552242 -1.318743
-3.996602 -8.606009 1.165071
-4.075055 -8.770937 -1.187495
-4.005842 -8.618032 1.505213
-4.120831 -8.861368 -0.854998
-3.994344 -8.589373 1.841307
-4.001865 -8.601621 -0.497192
-3.982592 -8.556289 2.178876
-4.006379 -8.603462 -0.165658
-3.983670 -8.550804 2.527627
-0.389351 -0.833066 -0.246396
-4.021581 -8.600782 0.165728
-0.465712 -0.995545 -0.253745
-4.027299 -8.605182 0.497924
-0.560064 -1.196697 -0.256829
-4.035030 -8.617782 0.832512
-3.213552 -6.860200 -1.199852
-4.032515 -8.604588 1.166777
-4.108174 -8.762051 -1.188226
-4.040934 -8.614726 1.507090
-4.030046 -8.591514 -0.830246
-4.024302 -8.575377 1.841307
-4.035262 -8.594830 -0.497610
-4.011606 -8.540570 2.178426
-4.040637 -8.598475 -0.165833
-4.014316 -8.538593 2.528145
-0.398849 -0.845680 -0.250537
-4.060110 -8.604776 0.166077
-0.469184 -0.993913 -0.253745
-4.061576 -8.600100 0.498448
-0.562561 -1.191184 -0.256066
-4.069343 -8.612652 0.833383
-3.255208 -6.886445 -1.206423
-4.068467 -8.603022 1.168483
-4.154865 -8.781751 -1.192857
-4.065064 -8.588070 1.504900
-4.063455 -8.580795 1.845505
-4.068660 -8.587913 -0.498029
-4.043898 -8.531798 2.179776
-4.070627 -8.584319 -0.165833
-4.054034 -8.545474 2.534356
-0.396817 -0.833817 -0.247431
-4.097001 -8.604996 0.166356
-0.469299 -0.985232 -0.251945
-4.097584 -8.598492 0.499180
-3.007563 -6.311159 -1.358942
-4.099382 -8.598394 0.833383
-3.298786 -6.916048 -1.213619
-4.109586 -8.612058 1.171652
-4.176087 -8.747489 -1.190176
-4.100126 -8.584523 1.506777
-4.021232 -8.419340 -0.816301
-4.101000 -8.582501 1.848939
-4.106365 -8.589875 -0.498971
-4.080381 -8.531694 2.183375
-4.105745 -8.580880 -0.166042
-4.085506 -8.534756 2.535392
-0.406415 -0.846358 -0.251572
-4.125279 -8.587037 0.166287
-0.479488 -0.997639 -0.255544
-4.133635 -8.596735 0.499913
-0.569162 -1.183689 -0.255302
-4.136279 -8.598397 0.834778
-3.457400 -7.183945 -1.262739
-4.136178 -8.590506 1.170677
-4.220379 -8.761472 -1.194076
-4.138643 -8.587954 1.509906
-4.017729 -8.337049 -0.809677
-4.128376 -8.562828 1.847794
-4.138928 -8.580886 -0.499285
-4.106750 -8.510379 2.181576
-4.146976 -8.589907 -0.166496
-4.117794 -8.525661 2.536944
-0.397575 -0.820595 -0.244325
-4.156976 -8.576183 0.166356
-0.476165 -0.981932 -0.251945
-4.170590 -8.596630 0.500750
-0.583574 -1.202891 -0.259882
-4.169750 -8.591075 0.835475
-4.148572 -8.543651 -1.504274
-4.166138 -8.576016 1.170677
-4.263085 -8.771683 -1.197488
-4.173778 -8.584114 1.511783
-4.164421 -8.564869 -0.833209
-4.161674 -8.555429 1.849321
-4.173225 -8.575365 -0.499808
-4.146669 -8.517016 2.186974
-4.185691 -8.593355 -0.166845
-4.150068 -8.516445 2.538497
-0.395346 -0.808788 -0.241219
-4.193913 -8.575992 0.166636
-0.483016 -0.987266 -0.253745
-4.202329 -8.585608 0.500960
-0.586043 -1.197320 -0.259119
-4.205845 -8.588994 0.836695
-4.202167 -8.573898 1.172383
-4.281441 -8.731795 -1.194076
-4.210674 -8.583680 1.514286
-4.270630 -8.705903 -0.848374
-4.197570 -8.553185 1.851992
-4.206653 -8.567918 -0.500227
-4.178092 -8.505988 2.187874
-4.217426 -8.582282 -0.166915
-4.183181 -8.508842 2.540568
-0.403294 -0.817799 -0.244325
-4.230901 -8.575647 0.166915
-0.483009 -0.978584 -0.251945
-4.234926 -8.576259 0.501274
-0.585003 -1.184705 -0.256829
-4.241978 -8.586764 0.837915
-3.673350 -7.432461 -1.313111
-4.240865 -8.576973 1.174821
-3.552319 -7.181261 -0.983729
-4.244117 -8.576012 1.515537
-4.238723 -8.561354 1.856953
-4.249835 -8.580026 -0.501797
-4.216411 -8.508813 2.192373
-4.249133 -8.571093 -0.166985
-4.220582 -8.509763 2.545227
-0.409588 -0.823305 -0.246396
-4.266156 -8.571568 0.167124
-0.488159 -0.980381 -0.252845
-4.269289 -8.570362 0.501797
-0.590886 -1.186170 -0.257592
-4.268371 -8.564773 0.837218
-3.697510 -7.416059 -1.312485
-4.276096 -8.572776 1.176283
-3.669546 -7.353544 -1.009078
-4.277556 -8.568214 1.516789
-3.696782 -7.404888 -0.724090
-4.274724 -8.558799 1.859625
-3.720014 -7.444920 -0.436168
-4.256541 -8.514961 2.197772
-4.286184 -8.570515 -0.167264
-4.248530 -8.491525 2.544191
-0.405527 -0.808057 -0.242255
-4.303229 -8.570920 0.167403
-0.496826 -0.989119 -0.255544
-4.309045 -8.575038 0.502949
-0.596786 -1.187609 -0.258355
-4.305401 -8.564061 0.838613
-3.710948 -7.378399 -1.308105
-4.312240 -8.570210 1.177989
-3.729110 -7.408067 -1.018340
-4.314547 -8.567345 1.519292
-3.713646 -7.374144 -0.722347
-4.315173 -8.564866 1.864204
-3.725303 -7.390867 -0.433760
-4.296767 -8.520932 2.203171
-4.320576 -8.564429 -0.167438
-4.285979 -8.492165 2.548850
-0.420561 -0.830767 -0.249502
-4.336735 -8.562983 0.167543
-0.491468 -0.969995 -0.251045
-4.345273 -8.572414 0.503681
-0.600928 -1.185519 -0.258355
-4.344280 -8.566750 0.840356
-3.740256 -7.372448 -1.309357
-4.342129 -8.555104 1.177989
-3.751352 -7.387926 -1.017365
-4.349794 -8.562799 1.521169
-3.751095 -7.384228 -0.724613
-4.359275 -8.577754 1.870310
-3.751079 -7.377819 -0.433760
-4.330903 -8.514565 2.205420
-4.358607 -8.565334 -0.167753
-4.326114 -8.497811 2.555062
-0.418187 -0.818971 -0.246396
-4.374786 -8.563819 0.167857
-0.494851 -0.968274 -0.251045
-4.376077 -8.558974 0.503786
-0.615787 -1.204390 -0.262935
-4.380509 -8.563950 0.841576
-3.785765 -7.398034 -1.316240
-4.377394 -8.550497 1.179452
-3.786166 -7.392454 -1.019803
-4.384161 -8.556353 1.522733
-3.780483 -7.378182 -0.725310
-4.423222 -8.628874 1.884811
-3.774987 -7.361125 -0.433551
-4.364156 -8.506331 2.207220
-4.393045 -8.558963 -0.167927
-4.359281 -8.489532 2.557132
-0.422812 -0.820941 -0.247431
-4.408315 -8.555608 0.167997
-0.500014 -0.970005 -0.251945
-4.405929 -8.543645 0.503786
-0.625387 -1.212703 -0.265225
-4.419511 -8.566314 0.843319
-4.391409 -8.508200 -1.516476
-4.416322 -8.552804 1.181889
-3.831992 -7.417993 -1.025165
-4.415816 -8.544507 1.523359
-3.815361 -7.382640 -0.727053
-4.435283 -8.578504 1.877179
-3.812588 -7.370965 -0.434912
-4.397404 -8.497969 2.209019
-4.426572 -8.550679 -0.168067
-4.398661 -8.493134 2.562826
-0.429237 -0.826317 -0.249502
-4.446452 -8.556137 0.168311
-0.510588 -0.982086 -0.255544
-4.444369 -8.548482 0.504937
-0.611497 -1.175678 -0.257592
-4.445708 -8.543764 0.842622
-4.433852 -8.517349 -1.520856
-4.451649 -8.547899 1.183351
-4.537840 -8.713401 -1.206263
-4.452342 -8.545584 1.526175
-4.453513 -8.544193 -0.842970
-4.472463 -8.576895 1.880232
-3.873398 -7.424902 -0.438889
-4.430969 -8.493707 2.211719
-4.462306 -8.550137 -0.168346
-4.427695 -8.480212 2.563344
-0.440937 -0.842003 -0.254678
-4.476657 -8.544888 0.168381
-0.517461 -0.987292 -0.257344
-4.481964 -8.551386 0.505984
-0.626333 -1.194508 -0.262172
-4.482346 -8.544855 0.844191
-4.460235 -8.499103 -1.520230
-4.489199 -8.550667 1.185789
-4.575015 -8.714122 -1.208457
-4.486167 -8.541265 1.528052
-4.487381 -8.539960 -0.844016
-4.504532 -8.568969 1.881758
-4.504128 -8.564565 -0.507135
-4.470903 -8.501389 2.217567
-4.497152 -8.547679 -0.168590
-4.461190 -8.475741 2.566450
-0.422082 -0.799535 -0.242255
-4.512440 -8.544141 0.168660
-0.513449 -0.971786 -0.253745
-4.519254 -8.549814 0.506821
-0.643135 -1.216724 -0.267514
-4.521832 -8.551079 0.846282
-4.497632 -8.501725 -1.523359
-4.520315 -8.540997 1.186520
-4.610050 -8.706872 -1.209675
-4.522425 -8.537772 1.530242
-4.601126 -8.682687 -0.859704
-4.529246 -8.547045 1.880232
-4.525956 -8.537229 -0.506403
-4.500549 -8.485731 2.217567
-4.534458 -8.546062 -0.168869
-4.500714 -8.478886 2.572144
-0.428642 -0.804803 -0.244325
-4.549757 -8.542457 0.168939
-0.516838 -0.969988 -0.253745
-4.549071 -8.533987 0.506821
-0.647590 -1.214359 -0.267514
-4.555018 -8.537965 0.846631
-4.552906 -8.530419 1.187251
-4.644155 -8.697730 -1.210650
-4.558715 -8.534131 1.532432
-4.566612 -8.545326 -0.847677
-4.562394 -8.533850 1.880995
-4.563807 -8.532912 -0.507135
-4.531621 -8.469178 2.217567
-4.571809 -8.544286 -0.169149
-4.533017 -8.468234 2.573697
-0.446074 -0.830532 -0.252607
-4.583876 -8.531009 0.169044
-0.529616 -0.985252 -0.258244
-4.586398 -8.532129 0.507659
-0.631368 -1.174051 -0.259119
-4.599897 -8.550085 0.849420
-0.650658 -1.208909 -0.217444
-4.598258 -8.539892 1.190907
-4.685417 -8.698127 -1.213088
-4.592225 -8.525123 1.533684
-4.603974 -8.543365 -0.849071
-4.594018 -8.521328 1.881758
-4.599254 -8.527476 -0.507764
-4.563932 -8.458453 2.218917
-4.603506 -8.531796 -0.169219
-4.568057 -8.462557 2.576802
-0.437930 -0.808585 -0.246396
-4.621662 -8.533345 0.169393
-0.531024 -0.980063 -0.257344
-4.627574 -8.537140 0.508915
-0.617681 -1.139049 -0.251868
-4.626865 -8.528723 0.848897
-0.633941 -1.168546 -0.210561
-4.636021 -8.542044 1.193345
-4.725602 -8.703477 -1.216012
-4.624784 -8.514248 1.534622
-4.635671 -8.530743 -0.849420
-4.629750 -8.519847 1.884811
-4.635139 -8.526216 -0.508601
-4.601268 -8.460392 2.223416
-4.634215 -8.517430 -0.169253
-4.601262 -8.453349 2.578873
-0.451717 -0.827476 -0.252607
-4.656216 -8.525934 0.169568
-0.536310 -0.981624 -0.258244
-4.663518 -8.535769 0.509752
-0.613922 -1.123213 -0.248815
-4.665636 -8.532561 0.850814
-0.629484 -1.150729 -0.207745
-4.670575 -8.534515 1.194563
-4.766440 -8.706081 -1.218693
-4.669119 -8.528321 1.539941
-4.669677 -8.525807 -0.850466
-4.638708 -8.465756 1.876416
-4.670633 -8.520492 -0.509229
-4.646701 -8.473326 2.231065
-4.672050 -8.519549 -0.169602
-4.629269 -8.438044 2.578873
-0.445287 -0.808971 -0.247431
-4.690248 -8.520961 0.169777
-0.535803 -0.973012 -0.256444
-4.699070 -8.529934 0.510380
-0.622577 -1.129660 -0.250723
-4.697314 -8.519713 0.851163
-0.608498 -1.103658 -0.199610
-4.699811 -8.520719 1.194807
-4.805834 -8.709345 -1.221375
-4.701723 -8.517159 1.540880
-4.709042 -8.526897 -0.852209
-4.661061 -8.440015 1.874126
-4.700794 -8.508452 -0.509438
-4.683259 -8.473221 2.235114
-4.708534 -8.515438 -0.169847
-4.670852 -8.443810 2.585603
-0.448249 -0.807333 -0.247431
-4.734583 -8.523866 0.170196
-0.547107 -0.984575 -0.260043
-4.732240 -8.516146 0.510590
-0.626714 -1.127370 -0.250723
-4.738193 -8.519853 0.852906
-0.626177 -1.125481 -0.203991
-4.740216 -8.516486 1.196757
-4.835378 -8.683891 -1.220400
-4.744442 -8.520579 1.544634
-4.746081 -8.520023 -0.853255
-4.705858 -8.444349 1.879087
-4.741210 -8.504295 -0.510276
-4.718606 -8.460280 2.236463
-4.747505 -8.512094 -0.170126
-4.719653 -8.458687 2.595438
-0.449177 -0.802392 -0.246396
-4.765754 -8.513352 0.170301
-0.542752 -0.969153 -0.256444
-4.766820 -8.508288 0.511113
-0.620086 -1.106338 -0.246525
-4.774725 -8.515427 0.854126
-0.632804 -1.128567 -0.204929
-4.775230 -8.512839 1.198463
-4.871918 -8.681659 -1.222350
-4.772222 -8.500521 1.544008
-4.816770 -8.576365 -0.860576
-4.749217 -8.456086 1.885193
-4.781123 -8.509422 -0.511532
-4.753321 -8.456478 2.239613
-4.783070 -8.505929 -0.170335
-4.754834 -8.452262 2.598543
-0.453734 -0.804263 -0.247431
-4.807237 -8.517562 0.170719
-0.551880 -0.977434 -0.259144
-4.804349 -8.505508 0.511950
-0.623751 -1.104275 -0.246525
-4.807838 -8.508219 0.854998
-0.637712 -1.128071 -0.205242
-4.813709 -8.511670 1.200657
-4.902195 -8.664598 -1.222350
-4.815485 -8.507880 1.548389
-4.814758 -8.506595 -0.855172
-4.785475 -8.451416 1.887864
-4.818676 -8.506583 -0.512369
-4.791458 -8.455093 2.243662
-4.821607 -8.504840 -0.170650
-4.787169 -8.440655 2.600096
-0.452718 -0.795958 -0.245360
-4.839906 -8.505944 0.170824
-0.559145 -0.982276 -0.260943
-4.844881 -8.507778 0.513102
-0.631488 -1.108915 -0.248052
-4.840467 -8.496578 0.855521
-0.633821 -1.112108 -0.202739
-4.851257 -8.508611 1.202607
-4.946177 -8.671575 -1.225762
-4.850050 -8.499597 1.549953
-4.849360 -8.498387 -0.856044
-4.822734 -8.448301 1.890917
-4.852300 -8.496649 -0.512788
-4.823841 -8.443394 2.245012
-4.859205 -8.501844 -0.170929
-4.824272 -8.437309 2.604237
-0.455494 -0.794372 -0.245360
-4.877528 -8.502874 0.171103
-0.556750 -0.970177 -0.258244
-4.879521 -8.499474 0.513625
-0.632423 -1.101596 -0.246907
-4.877043 -8.491723 0.856741
-0.627858 -1.092761 -0.199610
-4.879939 -8.489904 1.202363
-4.986312 -8.671465 -1.228199
-4.887569 -8.496313 1.552456
-4.886943 -8.495225 -0.857438
-4.859049 -8.443326 1.893589
-4.891894 -8.496969 -0.513834
-4.861065 -8.440013 2.248611
-4.896837 -8.498693 -0.171208
-4.859485 -8.430459 2.607343
-0.456330 -0.789433 -0.244325
-4.914187 -8.497914 0.171348
-0.562085 -0.971601 -0.259144
-4.912162 -8.487576 0.513939
-0.640198 -1.106179 -0.248433
-4.920631 -8.498787 0.859181
-0.638599 -1.102528 -0.201800
-4.919498 -8.489995 1.204800
-5.020534 -8.660876 -1.229174
-4.930080 -8.501416 1.556523
-4.923563 -8.490179 -0.858658
-4.894404 -8.436502 1.895878
-4.925535 -8.486750 -0.514253
-4.899303 -8.438161 2.252660
-4.933505 -8.493651 -0.171452
-4.894705 -8.423469 2.610449
-0.476591 -0.817879 -0.253643
-4.952884 -8.496256 0.171662
-0.563510 -0.966266 -0.258244
-4.946792 -8.479003 0.514463
-0.644055 -1.103937 -0.248433
-4.963324 -8.503929 0.861447
-0.646428 -1.107116 -0.203052
-4.953108 -8.479626 1.205775
-5.062754 -8.663866 -1.232099
-4.961720 -8.487565 1.557149
-4.962220 -8.488420 -0.860227
-4.931752 -8.432923 1.898931
-4.966224 -8.488468 -0.515405
-4.932666 -8.427734 2.254459
-4.965144 -8.479831 -0.171522
-4.926032 -8.409665 2.611484
-0.465744 -0.792890 -0.246396
-4.991627 -8.494433 0.171976
-0.573793 -0.976053 -0.261393
-4.990533 -8.485785 0.515928
-0.647905 -1.101682 -0.248433
-4.990955 -8.483118 0.861099
-0.652293 -1.108257 -0.203678
-4.998794 -8.489655 1.209675
-5.088935 -8.639297 -1.231124
-4.998337 -8.482106 1.559339
-4.996878 -8.479630 -0.861099
-4.972126 -8.434261 1.903129
-5.007999 -8.491725 -0.516661
-4.969975 -8.423892 2.258059
-5.006911 -8.483112 -0.171941
-4.965179 -8.409054 2.616661
-0.466541 -0.787935 -0.245360
-5.026346 -8.485559 0.172151
-0.583157 -0.984103 -0.264093
-5.029289 -8.483778 0.516870
-0.651746 -1.099414 -0.248433
-5.031718 -8.484494 0.863016
-0.650110 -1.095780 -0.201800
-5.033462 -8.480691 1.210894
-5.035985 -8.478194 1.561842
-4.999529 -8.413479 1.902366
-5.028425 -8.458740 -0.515719
-5.011304 -8.426591 2.263458
-5.046717 -8.482769 -0.172290
-4.993515 -8.390011 2.616143
-0.491213 -0.822711 -0.256748
-5.056959 -8.469681 0.172185
-0.579593 -0.970351 -0.260943
-5.066046 -8.478170 0.517603
-0.659801 -1.103759 -0.249960
-5.075050 -8.486515 0.865108
-0.656150 -1.096780 -0.202426
-5.068132 -8.471584 1.212113
-4.817810 -8.049977 -1.151909
-5.074679 -8.475818 1.564658
-4.820938 -8.048821 -0.820833
-5.038407 -8.408569 1.905419
-4.831429 -8.059955 -0.492481
-5.055184 -8.429894 2.269306
-5.082468 -8.475390 -0.172500
-5.044634 -8.408974 2.627531
-0.484121 -0.804439 -0.251572
-5.101376 -8.473360 0.172639
-0.581135 -0.964881 -0.260043
-5.105330 -8.473231 0.518440
-0.663650 -1.101449 -0.249960
-5.106700 -8.472160 0.865457
-0.664054 -1.101250 -0.203678
-5.107349 -8.466552 1.214063
-4.847284 -8.032264 -1.151909
-5.116941 -8.475762 1.568099
-4.841794 -8.020005 -0.819613
-5.083967 -8.417819 1.911525
-4.839911 -8.010561 -0.490493
-5.081554 -8.407195 2.267956
-5.125914 -8.477240 -0.172918
-5.084420 -8.405304 2.632190
-0.490933 -0.809352 -0.253643
-5.139223 -8.469178 0.172918
-0.589556 -0.971176 -0.262293
-5.137987 -8.460482 0.518754
-0.667491 -1.099125 -0.249960
-5.144518 -8.467905 0.866851
-0.674050 -1.109053 -0.205555
-5.151310 -8.472419 1.217475
-4.871164 -8.008511 -1.150934
-5.149579 -8.462912 1.569038
-4.867691 -7.999651 -0.819264
-5.125568 -8.420147 1.916104
-4.876152 -8.007265 -0.491330
-5.121009 -8.406046 2.272455
-5.157555 -8.462710 -0.172988
-5.126801 -8.408950 2.638919
-0.487709 -0.797744 -0.250537
-5.180231 -8.469952 0.173302
-0.593959 -0.970774 -0.262743
-5.179565 -8.465544 0.520115
-0.671323 -1.096789 -0.249960
-5.179248 -8.458392 0.867723
-0.677917 -1.106694 -0.205555
-5.190187 -8.469618 1.219669
-4.924663 -8.036321 -1.157271
-5.184840 -8.457579 1.571228
-4.904958 -7.997897 -0.820833
-5.167249 -8.422284 1.920684
-4.915566 -8.008919 -0.492481
-5.154974 -8.398983 2.275155
-5.193959 -8.459194 -0.173267
-5.159714 -8.400133 2.641507
-0.482247 -0.782963 -0.246396
-5.211438 -8.457834 0.173407
-0.597175 -0.968799 -0.262743
-5.214946 -8.460222 0.520847
-0.683200 -1.107925 -0.253013
-5.217730 -8.458128 0.869466
-0.681583 -1.104440 -0.205555
-5.225545 -8.464185 1.221375
-5.329826 -8.633096 -1.245749
-5.223238 -8.457144 1.574357
-5.214208 -8.439228 -0.867897
-5.193085 -8.401762 1.919920
-5.202594 -8.413861 -0.518440
-5.194070 -8.400077 2.280104
-5.236710 -8.465733 -0.173756
-5.190592 -8.387905 2.643060
-0.501138 -0.807624 -0.254678
-5.246837 -8.452400 0.173651
-0.606553 -0.976747 -0.265442
-5.254986 -8.458933 0.521894
-0.684991 -1.102198 -0.252250
-5.252059 -8.450932 0.870512
-0.686285 -1.103851 -0.205868
-5.257779 -8.453551 1.222350
-5.372514 -8.634665 -1.248673
-5.262123 -8.453955 1.577173
-5.261538 -8.449728 -0.870860
-5.228611 -8.393582 1.922210
-5.269960 -8.456673 -0.522208
-5.235728 -8.401741 2.285503
-5.268345 -8.450795 -0.173826
-5.228018 -8.382849 2.647201
-0.495898 -0.792679 -0.250537
-5.294757 -8.460233 0.174210
-0.603924 -0.964607 -0.262743
-5.289135 -8.444694 0.522208
-0.695281 -1.109663 -0.254539
-5.291461 -8.445131 0.871906
-0.689277 -1.099655 -0.205555
-5.296110 -8.445996 1.224056
-5.387248 -8.588010 -1.244774
-5.308823 -8.459708 1.581866
-5.305185 -8.450636 -0.872952
-5.269781 -8.390988 1.926026
-5.304107 -8.442373 -0.522522
-5.258193 -8.369293 2.281904
-5.313117 -8.453438 -0.174280
-5.262820 -8.370172 2.649272
-0.507045 -0.803928 -0.254678
-5.332132 -8.450916 0.174419
-0.611616 -0.968978 -0.264542
-5.329238 -8.443069 0.523255
-0.694957 -1.100589 -0.253013
-5.333020 -8.442525 0.873649
-0.698579 -1.105471 -0.207119
-5.338699 -8.444986 1.226737
-5.438408 -8.602710 -1.249648
-5.333041 -8.432777 1.580301
-5.347434 -8.452271 -0.875044
-5.313738 -8.395766 1.931369
-5.342092 -8.437306 -0.523360
-5.299885 -8.370646 2.287302
-5.337243 -8.426394 -0.174105
-5.301312 -8.366437 2.653931
-0.503492 -0.792459 -0.251572
-5.371925 -8.451755 0.174803
-0.621100 -0.976812 -0.267242
-5.366853 -8.440519 0.524197
-0.698603 -1.098278 -0.253013
-5.367402 -8.434880 0.874695
-0.710727 -1.116479 -0.209622
-5.376271 -8.442305 1.228931
-5.370529 -8.430040 1.583117
-5.347883 -8.388032 1.933658
-5.385078 -8.443120 -0.524825
-5.342285 -8.376025 2.293601
-5.370534 -8.417077 -0.174280
-5.331106 -8.352068 2.654966
-0.516531 -0.807056 -0.256748
-5.402079 -8.437262 0.174873
-0.615927 -0.961619 -0.263643
-5.407059 -8.438551 0.525244
-0.706478 -1.102568 -0.254539
-5.408247 -8.437162 0.876787
-0.714426 -1.114116 -0.209622
-5.417099 -8.444480 1.231856
-4.691663 -7.310826 -1.066601
-5.410592 -8.427867 1.586246
-4.677899 -7.286580 -0.757558
-5.369304 -8.360339 1.931369
-5.420603 -8.436980 -0.525558
-5.382025 -8.373721 2.298100
-5.411779 -8.416781 -0.174664
-5.377995 -8.361029 2.663766
-0.513063 -0.795507 -0.253643
-5.438003 -8.428434 0.175083
-0.617166 -0.956188 -0.262743
-5.448400 -8.438082 0.526395
-0.712452 -1.103393 -0.255302
-5.451719 -8.439990 0.879053
-0.720455 -1.114933 -0.210248
-5.443308 -8.420519 1.231124
-4.753805 -7.351079 -1.074888
-5.453927 -8.430490 1.590313
-4.705470 -7.273551 -0.757906
-5.415519 -8.367918 1.937475
-5.459791 -8.433094 -0.526500
-5.428174 -8.381053 2.305298
-5.453086 -8.416301 -0.175048
-5.419757 -8.361658 2.669977
-0.524258 -0.806670 -0.257784
-5.477200 -8.424489 0.175397
-0.618375 -0.950761 -0.261843
-5.474553 -8.413989 0.526081
-0.716299 -1.100900 -0.255302
-5.489842 -8.434267 0.880447
-0.734043 -1.127310 -0.213064
-5.483503 -8.418100 1.233562
-4.731750 -7.261262 -1.064163
-5.495188 -8.429604 1.593755
-4.739536 -7.270435 -0.759301
-5.459712 -8.371984 1.942817
-5.496832 -8.425695 -0.527232
-5.462719 -8.370214 2.307548
-5.493365 -8.413958 -0.175397
-5.461586 -8.362099 2.676189
-0.520721 -0.795139 -0.254678
-5.514245 -8.417027 0.175641
-0.628100 -0.958376 -0.264542
-5.519222 -8.418212 0.527547
-0.715832 -1.091825 -0.253776
-5.525806 -8.425049 0.881493
-0.736890 -1.123089 -0.212751
-5.524836 -8.417162 1.236243
-4.765785 -7.257975 -1.066113
-5.525664 -8.412021 1.594067
-4.761604 -7.248850 -0.758778
-5.501838 -8.372566 1.947397
-5.545958 -8.436497 -0.529117
-5.500470 -8.364120 2.311147
-5.524899 -8.398074 -0.175467
-5.504549 -8.363961 2.682918
-0.532005 -0.806215 -0.258819
-5.557914 -8.419423 0.176095
-0.637884 -0.965935 -0.267242
-5.555178 -8.408893 0.528175
-0.721803 -1.092596 -0.254539
-5.561773 -8.415682 0.882539
-0.747343 -1.130397 -0.214628
-5.570611 -8.422662 1.239899
-4.856812 -7.340627 -1.080737
-5.569168 -8.414096 1.598135
-4.804473 -7.258768 -0.761567
-5.539702 -8.366405 1.950450
-5.579785 -8.423747 -0.529535
-5.535015 -8.352991 2.313397
-5.563019 -8.392071 -0.175746
-5.534779 -8.346306 2.683436
-0.532677 -0.801136 -0.257784
-5.591700 -8.406631 0.176234
-0.640173 -0.962080 -0.266792
-5.603310 -8.417716 0.529954
-0.729964 -1.096607 -0.256066
-5.606575 -8.419433 0.884979
-0.745808 -1.119562 -0.213064
-5.613188 -8.422989 1.242824
-5.721467 -8.582223 -1.266466
-5.609465 -8.411037 1.601263
-5.610241 -8.412202 -0.884631
-5.571052 -8.350284 1.951213
-5.612482 -8.409203 -0.529849
-5.578206 -8.354689 2.319245
-5.607828 -8.395881 -0.176234
-5.568172 -8.333361 2.685507
-0.533458 -0.795969 -0.256748
-5.633608 -8.402690 0.176583
-0.642609 -0.958108 -0.266342
-5.655270 -8.428634 0.531943
-0.740542 -1.103706 -0.258355
-5.648499 -8.415371 0.886723
-0.747704 -1.113541 -0.212438
-5.648450 -8.408949 1.243799
-5.770599 -8.587558 -1.270366
-5.653480 -8.410095 1.605018
-5.653262 -8.409771 -0.886548
-5.616958 -8.352615 1.956556
-5.649955 -8.398518 -0.530477
-5.618583 -8.348738 2.323294
-5.649731 -8.391858 -0.176583
-5.609470 -8.328919 2.690683
-0.531909 -0.787698 -0.254678
-5.677458 -8.404514 0.177037
-0.644858 -0.954245 -0.265892
-5.682420 -8.405532 0.531733
-0.744390 -1.101114 -0.258355
-5.687887 -8.410456 0.888291
-0.756014 -1.117468 -0.213690
-5.687782 -8.403977 1.245992
-5.794976 -8.559143 -1.269147
-5.693880 -8.406665 1.608147
-5.697109 -8.411432 -0.888814
-5.654890 -8.345961 1.959608
-5.692684 -8.398583 -0.531733
-5.646597 -8.327460 2.322845
-5.691338 -8.390290 -0.176967
-5.648272 -8.323674 2.695342
-0.536829 -0.789031 -0.255713
-5.718011 -8.401178 0.177386
-0.652573 -0.958431 -0.267692
-5.715882 -8.394897 0.532257
-0.744913 -1.093641 -0.257211
-5.725062 -8.402076 0.889511
-0.757685 -1.111558 -0.213064
-5.727148 -8.398832 1.248186
-5.831528 -8.548703 -1.270610
-5.725064 -8.392633 1.609085
-5.736543 -8.406305 -0.890383
-5.695058 -8.342385 1.963425
-5.739986 -8.405051 -0.533408
-5.688823 -8.327009 2.328243
-5.723642 -8.377975 -0.177107
-5.693285 -8.330418 2.703624
-0.535211 -0.780778 -0.253643
-5.759407 -8.401962 0.177805
-0.664564 -0.969119 -0.271291
-5.757578 -8.393010 0.533408
-0.750948 -1.094272 -0.257974
-5.757739 -8.386969 0.890034
-0.765839 -1.115554 -0.214315
-5.766204 -8.396159 1.250623
-5.875582 -8.552224 -1.274022
-5.761040 -8.382364 1.610962
-5.772623 -8.396082 -0.891429
-5.727139 -8.329926 1.964951
-5.776881 -8.399136 -0.534245
-5.734080 -8.333785 2.335442
-5.764190 -8.374416 -0.177456
-5.731093 -8.323222 2.707765
-0.533407 -0.772640 -0.251572
-5.794383 -8.390035 0.177980
-0.670158 -0.970000 -0.272191
-5.798196 -8.389293 0.534455
-0.756805 -1.095006 -0.258737
-5.797984 -8.385856 0.891952
-0.771976 -1.116123 -0.214941
-5.807902 -8.393936 1.253304
-5.916697 -8.547985 -1.276460
-5.809381 -8.389813 1.616281
-5.809507 -8.389997 -0.892823
-5.767360 -8.326022 1.968767
-5.820954 -8.400261 -0.535606
-5.788668 -8.350555 2.345790
-5.821876 -8.395326 -0.178329
-5.774427 -8.323801 2.714494
-0.551544 -0.792977 -0.258819
-5.833913 -8.384530 0.178294
-0.666860 -0.958058 -0.269491
-5.838858 -8.385392 0.535502
-0.765110 -1.098802 -0.260263
-5.838609 -8.381914 0.893695
-0.772479 -1.108559 -0.214002
-5.837167 -8.373611 1.253304
-5.955583 -8.540305 -1.278410
-5.856715 -8.395405 1.621287
-5.855858 -8.394176 -0.895438
-5.798635 -8.309059 1.969531
-5.857101 -8.389717 -0.536234
-5.822248 -8.336688 2.347589
-5.860306 -8.388068 -0.178608
-5.807872 -8.309929 2.716565
-0.549874 -0.784718 -0.256748
-5.882658 -8.391952 0.178887
-0.670201 -0.955725 -0.269491
-5.873828 -8.373136 0.536025
-0.771196 -1.099339 -0.261027
-5.883855 -8.384315 0.896135
-0.785424 -1.118790 -0.216505
-5.876629 -8.367805 1.255498
-6.001334 -8.542205 -1.281822
-5.887120 -8.376526 1.621600
-5.894289 -8.386726 -0.896833
-5.850187 -8.320889 1.977163
-5.893245 -8.379023 -0.536862
-5.851311 -8.316315 2.347589
-5.905663 -8.390453 -0.179097
-5.852415 -8.311719 2.723812
-0.543697 -0.770169 -0.252607
-5.925758 -8.390966 0.179306
-0.679155 -0.961338 -0.271741
-5.914547 -8.368891 0.537072
-0.770496 -1.090227 -0.259500
-5.937240 -8.397889 0.899796
-0.792746 -1.120880 -0.217444
-5.925293 -8.374789 1.259642
-6.018500 -8.503380 -1.279141
-5.924314 -8.367210 1.623790
-5.943101 -8.393743 -0.899796
-5.895083 -8.322845 1.982506
-5.936314 -8.377955 -0.538118
-5.885939 -8.303788 2.349839
-5.937230 -8.373051 -0.179166
-5.889217 -8.302269 2.727435
-0.559817 -0.787158 -0.258819
-5.961967 -8.380007 0.179515
-0.688156 -0.966900 -0.273990
-5.963417 -8.375853 0.538851
-0.776575 -1.090729 -0.260263
-5.961895 -8.370623 0.899099
-0.794361 -1.114888 -0.216818
-5.967166 -8.371838 1.262323
-6.033164 -8.461308 -1.275972
-5.963810 -8.360953 1.626606
-5.978454 -8.378390 -0.900493
-5.942346 -8.327787 1.988612
-5.985250 -8.384818 -0.539898
-5.935274 -8.311738 2.357937
-5.979207 -8.370173 -0.179550
-5.914792 -8.276945 2.725882
-0.564949 -0.788241 -0.259854
-5.997006 -8.367273 0.179690
-0.691527 -0.964491 -0.273990
-6.003092 -8.369594 0.539793
-0.792012 -1.103827 -0.264080
-6.001829 -8.361663 0.900493
-0.780008 -1.086296 -0.211812
-6.011404 -8.371919 1.265491
-6.024444 -8.386992 -1.267929
-6.006792 -8.359335 1.630360
-6.021620 -8.376884 -0.902585
-5.977414 -8.312327 1.990138
-6.027604 -8.379038 -0.540945
-5.967974 -8.293092 2.358837
-6.025909 -8.373597 -0.180074
-5.961707 -8.281334 2.734164
-0.545080 -0.754939 -0.249502
-6.034659 -8.354962 0.179899
-0.690492 -0.955632 -0.272191
-6.043969 -8.364777 0.540840
-0.801611 -1.109011 -0.265988
-6.053159 -8.371339 0.903805
-5.909145 -8.169165 -1.596883
-6.046703 -8.356262 1.266466
-6.115672 -8.448472 -1.280603
-6.053308 -8.362320 1.635053
-6.115095 -8.444568 -0.912172
-6.013304 -8.300951 1.992428
-6.103695 -8.422636 -0.545131
-6.006037 -8.284831 2.362436
-6.079750 -8.386512 -0.180807
-6.010993 -8.288623 2.743482
-0.561348 -0.771779 -0.255713
-6.089386 -8.372100 0.180702
-0.698243 -0.959640 -0.273990
-6.079008 -8.351703 0.541363
-0.811255 -1.114142 -0.267896
-6.090558 -8.361431 0.905025
-5.951322 -8.170280 -1.600950
-6.084900 -8.350605 1.268660
-6.157687 -8.447395 -1.283528
-6.094102 -8.357098 1.638182
-6.157451 -8.440878 -0.914089
-6.047740 -8.290481 1.994717
-6.161024 -8.442684 -0.547748
-6.051862 -8.290052 2.369634
-6.173850 -8.454058 -0.182727
-6.053563 -8.286310 2.749694
-0.563904 -0.769913 -0.255713
-6.185939 -8.442737 0.182692
-0.706197 -0.963484 -0.275790
-6.158622 -8.402376 0.545969
-0.810302 -1.105113 -0.266369
-6.160672 -8.399024 0.911300
-5.987985 -8.160607 -1.603141
-6.143378 -8.369319 1.274753
-6.215336 -8.464249 -1.289378
-6.131135 -8.349581 1.640685
-6.220792 -8.468584 -0.919319
-6.090591 -8.288305 1.999297
-6.214118 -8.453309 -0.549842
-6.098078 -8.292427 2.376383
-6.207773 -8.441594 -0.182901
-6.098179 -8.289533 2.757458
-0.573470 -0.777268 -0.258819
-6.230525 -8.444705 0.183180
-0.707074 -0.958001 -0.274890
-6.227063 -8.433850 0.549423
-0.822320 -1.113332 -0.269041
-6.236129 -8.439962 0.918099
-6.020883 -8.148648 -1.604705
-6.259892 -8.465940 -1.292790
-6.255055 -8.453224 -0.920016
-6.127385 -8.280687 2.002350
-6.265881 -8.464764 -0.551935
-6.145259 -8.298782 2.384031
-6.259818 -8.450403 -0.183564
-6.133981 -8.277507 2.760564
-0.580653 -0.781565 -0.260890
-6.273085 -8.440559 0.183564
-0.719715 -0.968038 -0.278489
-6.283880 -8.448922 0.551830
-0.816634 -1.097996 -0.265988
-6.323548 -8.499161 0.926814
-6.062264 -8.145013 -1.608147
-18.476135 -24.814747 3.798668
-6.298892 -8.456772 -1.294740
-16.732521 -22.456583 4.435544
-6.291386 -8.443619 -0.921236
-6.170332 -8.278137 2.006929
-6.306136 -8.457251 -0.552877
-6.187007 -8.294464 2.388980
-6.306020 -8.450939 -0.184053
-6.162836 -8.256045 2.760564
-0.569487 -0.760973 -0.254678
-6.315693 -8.436220 0.183948
-0.724258 -0.967080 -0.278939
-6.328902 -8.447716 0.553191
-0.822816 -1.098282 -0.266751
-6.096584 -8.131704 -1.609711
-18.426861 -24.569059 3.770881
-6.349818 -8.463315 -1.299127
-16.832151 -22.426476 4.441175
-15.221399 -20.280375 -2.218462
-6.218051 -8.281669 2.013035
-6.371603 -8.483096 -0.556017
-6.219434 -8.277491 2.390330
-6.372727 -8.478429 -0.185135
-6.199745 -8.245291 2.764188
-0.574466 -0.762065 -0.255713
-6.357143 -8.430089 0.184297
-0.721762 -0.956767 -0.276690
-6.366773 -8.436731 0.553924
-0.802992 -1.064061 -0.259119
-6.132074 -8.119831 -1.611588
-18.421572 -24.384211 3.752357
-6.391290 -8.456935 -1.301565
-16.915098 -22.373884 4.442426
-15.322069 -20.259409 -2.222297
-6.263502 -8.281835 2.018378
-17.024815 -22.502676 -1.478805
