# This PCD file was generated using the MATLAB® pcwrite function
# from Computer Vision Toolbox®.
# .PCD v.7 - Point Cloud Data file format
VERSION .7
FIELDS x y z
SIZE 4 4 4
TYPE F F F
COUNT 1 1 1
WIDTH 1665
HEIGHT 1
VIEWPOINT 0 0 0 1 0 0 0
POINTS 1665
DATA ascii
-5.787424 5.651655 -1.867544
-8.057775 7.868746 0.590245
-7.114533 6.950058 -1.933277
-7.793145 7.615639 0.953310
-7.762010 7.587862 -1.719215
-7.800272 7.627932 1.339588
-7.797433 7.625155 -1.339100
-7.796073 7.626485 1.727350
-7.742259 7.576485 -0.947732
-7.782060 7.618097 2.116835
-7.741406 7.580943 -0.567845
-7.794217 7.632659 2.518552
-24.231373 23.737392 -0.592090
-10.249030 10.043604 3.845016
-5.225872 5.133655 -1.962884
-14.220049 13.974003 0.348001
-5.761703 5.663986 -1.865294
-7.988908 7.853419 0.587105
-7.085849 6.968104 -1.931750
-7.742281 7.616290 0.950172
-7.714276 7.591391 -1.714209
-7.749473 7.628686 1.335201
-7.760790 7.639827 -1.337150
-7.745406 7.627348 1.721718
-7.687284 7.572756 -0.944071
-7.725990 7.613544 2.108439
-7.689199 7.579932 -0.565856
-7.741107 7.631103 2.509554
-24.175301 23.840078 -0.592649
-10.265178 10.126377 3.863651
-5.186841 5.129222 -1.954602
-14.224810 14.071710 0.349258
-5.749813 5.689915 -1.867544
-7.930220 7.850343 0.584802
-7.051540 6.980514 -1.928697
-7.692914 7.618091 0.947209
-7.663799 7.591907 -1.708578
-7.710032 7.640370 1.332763
-7.705877 7.638922 -1.332276
-7.682265 7.618174 1.713583
-7.645153 7.581371 -0.941979
-7.693735 7.632207 2.106531
-7.639920 7.581472 -0.564077
-7.685380 7.629247 2.500106
-23.981262 23.814419 -0.589926
-10.261292 10.193460 3.875557
-5.138790 5.117308 -1.943213
-14.220938 14.166438 0.350374
-5.720256 5.700321 -1.864394
-7.885796 7.861057 0.583546
-7.020179 6.998156 -1.926789
-7.621130 7.599878 0.941631
-7.610682 7.592104 -1.702633
-7.658020 7.641998 1.328376
-7.639829 7.626506 -1.325451
-7.629070 7.618421 1.707639
-7.586218 7.575629 -0.937970
-7.642043 7.634044 2.099662
-7.587979 7.582683 -0.562193
-7.640785 7.638118 2.494257
-23.832943 23.832939 -0.588321
-10.243403 10.246979 3.882286
-5.103160 5.117432 -1.936484
-14.216581 14.261309 0.351491
-5.698947 5.718873 -1.863944
-7.842799 7.872972 0.582395
-6.997091 7.024011 -1.927171
-7.574874 7.606668 0.939190
-7.538144 7.572425 -1.692308
-7.614496 7.651798 1.325451
-7.571160 7.610908 -1.318139
-7.575964 7.618392 1.701694
-7.541464 7.583698 -0.935704
-7.572441 7.617510 2.087832
-7.538939 7.586456 -0.560518
-7.583861 7.634327 2.484360
-10.248403 10.323803 3.897815
-5.073033 5.122859 -1.931825
-14.224392 14.369113 0.352923
-5.669355 5.729036 -1.860795
-7.782965 7.867642 0.579987
-6.971151 7.046996 -1.926789
-7.528662 7.613229 0.936750
-7.488054 7.574812 -1.686989
-7.566809 7.657152 1.321795
-7.522228 7.614692 -1.314239
-7.534055 7.629332 1.698253
-7.486946 7.581625 -0.932218
-7.522357 7.620145 2.081345
-7.474535 7.574341 -0.557692
-7.538007 7.641331 2.478061
-10.252992 10.400784 3.913344
-5.037511 5.122630 -1.925096
-14.221811 14.467165 0.354109
-5.649323 5.748791 -1.860795
-7.721863 7.860567 0.577475
-6.941007 7.065684 -1.925263
-7.478310 7.615296 0.933787
-7.421437 7.560024 -1.677916
-7.509448 7.652346 1.316433
-7.470578 7.615395 -1.309852
-7.496313 7.644300 1.695750
-7.426955 7.573573 -0.928034
-7.465478 7.615511 2.072949
-7.424284 7.576138 -0.555913
-7.489468 7.645324 2.470862
-10.251758 10.472406 3.926803
-5.002053 5.122215 -1.918367
-14.228492 14.575392 0.355540
-5.623776 5.762897 -1.858995
-7.680430 7.873177 0.576428
-6.909446 7.082844 -1.923355
-7.429423 7.618533 0.930998
-7.381215 7.571737 -1.674788
-7.466065 7.661453 1.313508
-7.463341 7.661336 -1.313264
-7.433753 7.633624 1.687615
-7.385184 7.583749 -0.926117
-7.432002 7.634490 2.071041
-7.374113 7.577673 -0.554133
-7.440996 7.649069 2.463664
-10.251497 10.545528 3.940779
-4.965315 5.120227 -1.911120
-14.224854 14.673782 0.356727
-5.598201 5.776895 -1.857196
-7.661242 7.908545 0.577056
-6.876486 7.098457 -1.921065
-7.361206 7.601481 0.925768
-7.330008 7.571910 -1.669156
-7.417187 7.664645 1.309608
-7.400669 7.650244 -1.306927
-7.380971 7.632547 1.681671
-7.330967 7.580837 -0.922631
-7.380744 7.634982 2.064172
-7.326799 7.581823 -0.552563
-7.393941 7.653974 2.456916
-10.252194 10.620163 3.955273
-4.932671 5.122223 -1.905426
-14.217925 14.769450 0.357844
-5.580706 5.799208 -1.858096
-8.611151 8.951435 0.650955
-6.848941 7.119588 -1.920302
-7.312530 7.604153 0.922979
-7.273415 7.566120 -1.662273
-7.358753 7.657567 1.304002
-7.305158 7.604452 -1.294740
-7.332392 7.635468 1.676665
-7.283759 7.584825 -0.920016
-7.332296 7.638036 2.058066
-7.280930 7.587178 -0.551098
-7.336147 7.647394 2.446568
-10.261852 10.704696 3.973390
-4.902744 5.126844 -1.900767
-14.218796 14.873915 0.359171
-5.549657 5.807382 -1.854496
-8.555019 8.955444 0.649071
-6.826760 7.146293 -1.921065
-7.272181 7.615222 0.921236
-7.216952 7.560029 -1.655390
-7.308680 7.658794 1.299858
-7.286791 7.638525 -1.296202
-7.278429 7.632425 1.670407
-7.231113 7.582809 -0.916704
-7.271723 7.628059 2.048525
-7.226843 7.583629 -0.549004
-7.285216 7.647555 2.438469
-10.256391 10.774033 3.985813
-4.875505 5.134120 -1.897144
-14.220483 14.980018 0.360532
-5.523984 5.821065 -1.852697
-8.504462 8.964966 0.647605
-6.799070 7.167230 -1.920302
-7.227734 7.621765 0.918970
-7.168774 7.562237 -1.650384
-7.260055 7.661205 1.295959
-7.251893 7.655265 -1.294740
-7.220502 7.624796 1.663211
-7.185421 7.587751 -0.914264
-7.219409 7.626307 2.041275
-7.175617 7.582697 -0.547120
-7.223657 7.636131 2.426772
-10.253223 10.846270 3.999272
-4.839000 5.131431 -1.889897
-14.232570 15.097958 0.362172
-5.500959 5.837476 -1.851797
-8.436333 8.952419 0.644674
-6.759204 7.175199 -1.916104
-7.175131 7.619391 0.915658
-7.126086 7.569956 -1.646629
-7.216944 7.669152 1.293034
-7.206083 7.660292 -1.291328
-7.161340 7.612729 1.655390
-7.132957 7.585209 -0.910952
-7.169886 7.627142 2.034787
-7.127221 7.584412 -0.545445
-7.172942 7.635736 2.418674
-10.278034 10.944988 4.023083
-4.801251 5.127139 -1.882132
-14.238470 15.204914 0.363603
-5.478907 5.852841 -1.850897
-10.162735 10.860131 0.779492
-6.736799 7.201617 -1.916867
-7.114469 7.608010 0.911300
-7.079355 7.570460 -1.641623
-7.168427 7.668390 1.288890
-7.150822 7.652237 -1.285965
-7.121238 7.623245 1.652261
-7.077883 7.579480 -0.907291
-7.117754 7.622178 2.027155
-7.084313 7.589025 -0.544085
-7.120990 7.630985 2.409676
-9.624699 10.317610 -0.246288
-10.254256 10.996344 4.028778
-4.768433 5.126059 -1.875920
-14.228879 15.301387 0.364720
-5.457118 5.870502 -1.850447
-10.154675 10.927728 0.781795
-6.710208 7.221042 -1.916104
-7.064793 7.605285 0.908163
-7.026004 7.566173 -1.635366
-7.114604 7.664268 1.284016
-7.141621 7.696068 -1.289134
-7.069061 7.620538 1.646316
-7.032384 7.581000 -0.904677
-7.069746 7.623945 2.021049
-7.034697 7.588808 -0.542305
-7.074442 7.634352 2.402927
-7.095807 7.662774 2.798352
-4.734780 5.125644 -1.869709
-14.228293 15.408256 0.366082
-5.422053 5.873764 -1.845498
-10.146266 10.995400 0.784097
-6.675641 7.234321 -1.913433
-7.024695 7.615253 0.906420
-6.972768 7.561609 -1.629109
-7.056861 7.655488 1.278410
-7.070323 7.672775 -1.281091
-7.026357 7.627733 1.642562
-6.985630 7.583519 -0.902062
-7.011171 7.613917 2.011890
-6.982465 7.585395 -0.540316
-7.029276 7.638924 2.396628
-7.032403 7.647678 2.783858
-4.711636 5.136446 -1.867638
-14.227129 15.515307 0.367443
-5.396249 5.886909 -1.843699
-10.144254 11.070508 0.786923
-6.649020 7.256131 -1.913051
-6.984612 7.625036 0.904677
-6.922318 7.559679 -1.623477
-7.009992 7.658108 1.274753
-7.004635 7.654938 -1.274022
-6.971689 7.621604 1.635992
-6.938945 7.585807 -0.899447
-6.964679 7.616610 2.006166
-6.935731 7.587610 -0.538746
-6.972333 7.630329 2.386281
-6.983520 7.647928 2.775058
-4.687173 5.145720 -1.865050
-14.230776 15.628454 0.368944
-5.373043 5.902827 -1.842799
-10.141842 11.145738 0.789750
-6.618366 7.273489 -1.911525
-6.933821 7.622841 0.901539
-6.879940 7.566257 -1.619723
-6.967195 7.664905 1.271829
-6.956512 7.655836 -1.270122
-6.919806 7.618112 1.630047
-6.890988 7.586385 -0.896658
-6.928812 7.630701 2.003495
-6.890410 7.591070 -0.537281
-6.940419 7.648847 2.384481
-6.933423 7.646498 2.765740
-4.656223 5.147723 -1.859874
-14.233809 15.741811 0.370445
-5.352406 5.921546 -1.842799
-10.156434 11.240349 0.793937
-6.582406 7.284894 -1.908472
-6.876455 7.612990 0.897530
-6.837601 7.572634 -1.615968
-6.924435 7.671494 1.268904
-6.885861 7.631436 -1.262079
-6.870681 7.617284 1.624729
-6.837776 7.580803 -0.893172
-6.886357 7.637344 1.998915
-6.850498 7.600240 -0.536234
-6.882369 7.638281 2.373683
-6.883420 7.644813 2.756423
-4.612409 5.135200 -1.849521
-14.226863 15.844968 0.371701
-5.326496 5.934393 -1.840999
-10.150484 11.312894 0.796553
-6.553006 7.303441 -1.907327
-6.825891 7.610251 0.894392
-6.787389 7.569983 -1.610337
-6.873767 7.669010 1.264516
-6.925415 7.729349 -1.274266
-6.821644 7.616207 1.619410
-6.816589 7.610562 -0.893869
-6.832156 7.630619 1.990901
-6.802614 7.600296 -0.534560
-6.836174 7.640474 2.366935
-6.836091 7.645751 2.748141
-4.586740 5.142619 -1.846415
-6.985260 7.834577 0.183215
-5.301860 5.948585 -1.839650
-10.158764 11.401942 0.800322
-6.522248 7.320407 -1.905800
-6.778083 7.610227 0.891603
-6.739907 7.570021 -1.605331
-6.816599 7.658853 1.258910
-6.841653 7.689705 -1.263785
-6.777953 7.620782 1.615342
-6.740992 7.579226 -0.887420
-6.784604 7.630946 1.984795
-6.740218 7.583688 -0.531733
-6.787460 7.639524 2.359287
-6.788839 7.646452 2.739859
-4.555951 5.144137 -1.841239
-6.955220 7.855916 0.183146
-5.278481 5.964137 -1.838750
-10.142721 11.464262 0.802206
-6.486246 7.331368 -1.902747
-6.735639 7.615930 0.889511
-6.685965 7.562423 -1.598760
-6.766161 7.655827 1.254523
-6.751682 7.642129 -1.252086
-6.734310 7.625147 1.611275
-6.696029 7.581802 -0.884979
-6.728041 7.620733 1.976018
-6.697847 7.589199 -0.530477
-6.737544 7.636867 2.351188
-6.750609 7.657062 2.735200
-4.523935 5.144051 -1.835545
-6.911911 7.862124 0.182727
-5.252482 5.976672 -1.836950
-6.913930 7.869960 0.549004
-6.439885 7.330365 -1.896641
-6.693237 7.621431 0.887420
-6.646492 7.570873 -1.595632
-6.722375 7.660002 1.251355
-6.713183 7.652221 -1.249892
-6.682904 7.620391 1.605331
-6.662952 7.597641 -0.884108
-6.683281 7.623502 1.970675
-6.656835 7.596010 -0.529326
-6.682594 7.628091 2.341291
-6.879676 7.855824 -0.182273
-6.692029 7.644239 2.722259
-4.484349 5.135074 -1.826745
-6.866014 7.865114 0.182238
-5.229026 5.992032 -1.836051
-10.155660 11.641648 0.809637
-6.415548 7.354279 -1.897023
-6.644330 7.619221 0.884456
-6.603152 7.574668 -1.591565
-6.682553 7.668454 1.248917
-6.647312 7.630705 -1.242580
-6.635507 7.619838 1.600325
-6.603681 7.583291 -0.879750
-6.639871 7.627534 1.965714
-6.614544 7.601121 -0.528070
-6.650810 7.645491 2.339491
-6.642489 7.641310 2.712941
-4.455006 5.137560 -1.822086
-6.817561 7.864857 0.181680
-5.210630 6.013195 -1.836950
-10.158114 11.726846 0.813092
-6.382124 7.367725 -1.894733
-6.604651 7.627306 0.882713
-6.550814 7.567801 -1.585307
-6.641457 7.675222 1.246236
-6.610246 7.641852 -1.240630
-6.594656 7.626515 1.596883
-6.557622 7.583687 -0.877135
-6.587528 7.620959 1.958082
-6.572301 7.606031 -0.526814
-6.599879 7.640638 2.330943
-6.600627 7.646901 2.706730
-4.426961 5.141369 -1.817945
-6.767889 7.862842 0.181086
-5.171814 6.010665 -1.830652
-10.153585 11.804630 0.816022
-6.348687 7.381028 -1.892444
-6.559802 7.629164 0.880273
-6.508905 7.572645 -1.581553
-6.586163 7.665234 1.240874
-6.588706 7.670901 -1.241605
-6.543544 7.621013 1.590939
-6.514238 7.586881 -0.874869
-6.545543 7.626032 1.953503
-6.522303 7.601640 -0.524930
-6.551600 7.638483 2.323294
-6.560067 7.653759 2.701036
-4.403964 5.150918 -1.815874
-6.719615 7.862095 0.180528
-5.148271 6.025718 -1.829752
-10.152010 11.882270 0.819058
-6.315231 7.394188 -1.890154
-6.529251 7.647469 0.879750
-6.461915 7.571277 -1.576547
-6.537462 7.662507 1.236730
-6.543857 7.672707 -1.238193
-6.507983 7.630645 1.588436
-6.476083 7.595927 -0.873301
-6.511240 7.639870 1.951213
-6.477596 7.603075 -0.523464
-6.505942 7.639054 2.316546
-6.514611 7.651937 2.692753
-4.377207 5.155950 -1.812251
-6.671503 7.858422 0.179934
-5.126997 6.041272 -1.829302
-8.777049 10.345880 0.711036
-6.277956 7.402710 -1.886719
-6.497361 7.664136 0.879053
-6.423997 7.577598 -1.573418
-6.494050 7.662941 1.233318
-6.464483 7.630752 -1.227956
-6.451944 7.618647 1.581240
-6.430217 7.595678 -0.870686
-6.464305 7.635945 1.944725
-6.422670 7.589449 -0.521057
-6.457921 7.633804 2.308448
-6.472896 7.656926 2.686542
-4.342650 5.149760 -1.805004
-6.627278 7.861784 0.179481
-5.098346 6.050190 -1.826603
-8.753752 10.391728 0.712083
-6.247049 7.415979 -1.884811
-6.471911 7.685638 0.879053
-6.372066 7.569750 -1.567161
-6.454482 7.670372 1.230880
-6.412251 7.622886 -1.223081
-6.408782 7.621469 1.577173
-6.379346 7.586463 -0.867200
-6.409822 7.625400 1.936330
-6.389716 7.604176 -0.520533
-6.412432 7.633920 2.301699
-6.411355 7.638041 2.672048
-4.311004 5.148595 -1.799310
-6.583107 7.864937 0.179027
-5.080945 6.072435 -1.827952
-8.728954 10.436011 0.713025
-6.222383 7.439248 -1.885193
-6.448876 7.712770 0.879576
-6.322799 7.564666 -1.561529
-6.404755 7.665437 1.226493
-6.385601 7.645225 -1.223081
-6.365682 7.624079 1.573105
-6.338780 7.591860 -0.865282
-6.363035 7.623613 1.930224
-6.347778 7.608033 -0.519277
-6.368272 7.635304 2.295401
-6.362388 7.633665 2.662730
-4.284361 5.153213 -1.795687
-6.535165 7.863261 0.178468
-5.049757 6.078141 -1.824353
-8.711615 10.489462 0.714595
-6.187597 7.450349 -1.882522
-6.432098 7.747497 0.880970
-6.287526 7.576049 -1.559339
-6.361484 7.667885 1.223325
-6.363947 7.673580 -1.224056
-6.320119 7.623441 1.568412
-6.299527 7.598602 -0.863539
-6.311332 7.615544 1.922591
-6.304620 7.610149 -0.517917
-6.324182 7.636474 2.289102
-6.328310 7.646899 2.659625
-4.258969 5.159197 -1.792581
-6.491129 7.865975 0.178015
-5.026027 6.092726 -1.823453
-8.707988 10.559871 0.717317
-6.159057 7.468872 -1.881758
-6.418952 7.786813 0.882888
-6.242198 7.575086 -1.554646
-6.315748 7.667059 1.219669
-6.351001 7.712605 -1.226737
-6.279659 7.628681 1.564971
-6.250170 7.592857 -0.860402
-6.277226 7.628432 1.920302
-6.257714 7.607431 -0.516242
-6.278919 7.635927 2.282353
-9.213720 11.208987 -0.253269
-6.289317 7.654016 2.654448
-4.232361 5.163574 -1.788957
-6.448425 7.870024 0.177596
-5.007200 6.113247 -1.824353
-8.706499 10.633474 0.720248
-6.121753 7.476656 -1.878324
-6.391734 7.809171 0.882888
-6.198206 7.575424 -1.550266
-6.268836 7.664475 1.215769
-6.239854 7.631760 -1.210406
-6.224241 7.615375 1.557775
-6.203455 7.589944 -0.857612
-6.234410 7.630534 1.915341
-6.215961 7.610664 -0.514986
-6.231277 7.632134 2.274705
-6.239358 7.647480 2.644613
-4.202115 5.163334 -1.783781
-6.412082 7.881625 0.177351
-4.983372 6.127663 -1.823453
-8.697042 10.697897 0.722550
-6.088184 7.488841 -1.876034
-6.371976 7.840711 0.883933
-6.156780 7.578613 -1.546511
-6.209505 7.646248 1.209432
-6.261972 7.713599 -1.219912
-6.181437 7.617116 1.553707
-6.163112 7.594536 -0.855695
-6.201550 7.644628 1.913433
-6.171747 7.610597 -0.513520
-6.191096 7.637188 2.269756
-6.188303 7.639192 2.634260
-4.176782 5.168954 -1.780675
-12.943717 16.024149 0.359554
-4.952157 6.132894 -1.819854
-8.707320 10.787247 0.726528
-6.058308 7.505463 -1.874889
-6.348320 7.867559 0.884456
-6.107963 7.572384 -1.540880
-6.165334 7.646241 1.206019
-6.197635 7.689046 -1.212600
-6.141179 7.621727 1.550266
-6.115315 7.589627 -0.852732
-6.136652 7.618830 1.901603
-6.131363 7.614984 -0.512369
-6.153405 7.645089 2.265707
-19.716007 24.504240 -0.548983
-6.147072 7.642682 2.628049
-4.152670 5.175968 -1.778087
-12.940253 16.134748 0.361020
-4.923406 6.141018 -1.817155
-8.709584 10.867445 0.729877
-6.028391 7.521968 -1.873744
-6.323312 7.892779 0.884805
-6.066676 7.575154 -1.537125
-6.112555 7.635171 1.200901
-6.144709 7.678088 -1.207482
-6.099726 7.624609 1.546511
-6.077581 7.596927 -0.851163
-6.108796 7.638669 1.901221
-6.082294 7.608261 -0.510485
-6.109646 7.645210 2.259408
-19.577936 24.507288 -0.547517
-6.105888 7.645979 2.621837
-4.135779 5.191944 -1.778605
-12.947377 16.259604 0.362801
-4.897084 6.152070 -1.815355
-8.698953 10.932165 0.732180
-5.998428 7.538357 -1.872599
-6.311844 7.935076 0.887071
-6.020525 7.571549 -1.532119
-6.061159 7.625383 1.196026
-6.088233 7.662188 -1.201632
-6.064476 7.635026 1.544321
-6.039874 7.604053 -0.849594
-6.051572 7.621511 1.891680
-6.034592 7.602849 -0.508706
-6.064755 7.643590 2.252660
-19.442556 24.512815 -0.546121
-6.067162 7.652107 2.616661
-4.124823 5.215439 -1.781710
-12.942636 16.370584 0.364267
-4.877997 6.172183 -1.816255
-8.701595 11.014184 0.735634
-5.959906 7.543847 -1.868783
-6.285344 7.958622 0.887245
-5.984267 7.580113 -1.529616
-6.018516 7.626238 1.192857
-6.054074 7.674041 -1.200169
-6.005986 7.615818 1.536187
-5.991089 7.596929 -0.846457
-6.032221 7.651840 1.893970
-5.995656 7.608180 -0.507659
-6.013920 7.634097 2.243662
-19.292532 24.498844 -0.544306
-6.023686 7.651987 2.609414
-4.098239 5.219171 -1.778087
-12.952082 16.500607 0.366152
-4.854018 6.186105 -1.815355
-8.705008 11.097920 0.739193
-5.928691 7.558424 -1.867257
-6.258752 7.982083 0.887420
-5.940712 7.579189 -1.525236
-5.973495 7.623761 1.189201
-6.002766 7.663873 -1.195295
-5.965967 7.619629 1.532745
-5.944880 7.592697 -0.843668
-5.981276 7.641929 1.886338
-5.954291 7.610188 -0.506403
-5.980031 7.645834 2.240963
-19.174879 24.525076 -0.543398
-5.971955 7.641004 2.598543
-4.078809 5.231920 -1.777569
-12.944805 16.610380 0.367583
-4.831196 6.201476 -1.814905
-8.704260 11.177087 0.742438
-5.899861 7.575974 -1.866494
-6.232076 8.005452 0.887594
-5.891168 7.570261 -1.519292
-5.926128 7.617929 1.185058
-5.941859 7.640902 -1.188470
-5.927211 7.624811 1.529616
-5.901222 7.591378 -0.841227
-5.935291 7.637956 1.880232
-5.917890 7.618306 -0.505565
-5.935378 7.643572 2.234214
-19.032755 24.519190 -0.541793
-5.927483 7.638908 2.590779
-4.058157 5.243070 -1.776534
-12.945488 16.731379 0.369258
-4.797595 6.202888 -1.810406
-8.707952 11.262702 0.746101
-5.863774 7.584096 -1.863441
-6.202878 8.025579 0.887420
-5.851420 7.573586 -1.515850
-5.877657 7.610291 1.180670
-5.950329 7.707164 -1.195538
-5.886075 7.626690 1.525862
-5.856426 7.588274 -0.838613
-5.885807 7.629096 1.872981
-5.866865 7.607287 -0.503472
-5.892002 7.642639 2.227915
-18.898218 24.522127 -0.540396
-5.893706 7.650372 2.587673
-4.035122 5.251078 -1.774463
-12.949127 16.857346 0.371038
-4.768794 6.210322 -1.807707
-8.703850 11.338978 0.749137
-5.819331 7.581159 -1.857716
-7.399842 9.643660 1.063474
-5.812926 7.578290 -1.512721
-5.840187 7.616581 1.178477
-5.899239 7.696376 -1.190664
-5.849807 7.634645 1.523359
-5.817786 7.592854 -0.836869
-5.848397 7.635565 1.869547
-5.830562 7.615032 -0.502635
-5.848707 7.641494 2.221617
-18.756615 24.514885 -0.538791
-5.857578 7.658620 2.583532
-4.021455 5.271274 -1.776534
-12.947193 16.977179 0.372679
-4.747088 6.226930 -1.807707
-8.703739 11.417015 0.752382
-5.772604 7.574880 -1.851229
-7.404768 9.720150 1.069052
-5.769684 7.576531 -1.508341
-5.803943 7.624287 1.176527
-5.803814 7.626879 -1.176770
-5.799334 7.620991 1.516789
-5.776773 7.594085 -0.834778
-5.800316 7.627805 1.862677
-5.788231 7.614670 -0.501274
-5.805494 7.640140 2.215318
-18.619570 24.503704 -0.537185
-5.825136 7.668774 2.580426
-3.994865 5.274500 -1.772911
-12.953609 17.102911 0.374494
-4.729940 6.247300 -1.809057
-8.704811 11.501475 0.755941
-5.733096 7.577763 -1.847031
-7.405648 9.792021 1.074107
-5.733802 7.581444 -1.505525
-5.770250 7.632405 1.174821
-5.788068 7.658752 -1.178720
-5.758410 7.622273 1.513034
-5.731016 7.588767 -0.831989
-5.766709 7.636030 1.860006
-5.747305 7.613098 -0.499913
-5.767211 7.642240 2.210369
-18.482130 24.499910 -0.535684
-5.779723 7.664381 2.572144
-3.976192 5.286173 -1.772393
-12.952722 17.226337 0.376204
-4.702251 6.255982 -1.806807
-8.711398 11.594068 0.760023
-5.700858 7.587317 -1.844741
-7.400658 9.853164 1.078117
-5.684769 7.571398 -1.499581
-5.722122 7.623925 1.170433
-5.694586 7.589988 -1.165071
-5.719917 7.626523 1.509906
-5.689085 7.585414 -0.829548
-5.711753 7.618415 1.850847
-5.708720 7.617131 -0.498866
-5.726480 7.643608 2.204970
-18.348545 24.500259 -0.534288
-5.734411 7.659764 2.563861
-3.960025 5.303118 -1.773428
-12.949923 17.348368 0.377880
-4.672228 6.261424 -1.803658
-8.711479 11.678836 0.763582
-5.668471 7.599301 -1.842833
-7.399564 9.923662 1.082997
-5.641776 7.569023 -1.495201
-5.674127 7.615199 1.166046
-5.701256 7.654397 -1.171896
-5.683821 7.633769 1.507403
-5.663760 7.606826 -0.829723
-5.678094 7.628856 1.848558
-5.665403 7.614579 -0.497401
-5.685807 7.644788 2.199572
-18.236666 24.528847 -0.533520
-5.694961 7.662681 2.558168
-3.934588 5.307596 -1.770322
-12.958344 17.486649 0.379904
-4.644542 6.269867 -1.801408
-8.705130 11.755719 0.766617
-5.630229 7.603262 -1.839017
-7.403999 10.002275 1.088750
-5.608273 7.579142 -1.493324
-5.635706 7.618998 1.163609
-5.692208 7.698193 -1.175552
-5.639529 7.629734 1.502710
-5.609936 7.589697 -0.825713
-5.639764 7.632839 1.844741
-5.617431 7.605390 -0.495517
-5.639410 7.637937 2.191923
-18.122440 24.553738 -0.532682
-5.647531 7.654532 2.548850
-3.911456 5.315075 -1.768252
-12.957664 17.613922 0.381684
-4.622626 6.286042 -1.801408
-8.705441 11.842360 0.770281
-5.583883 7.595979 -1.832530
-7.407975 10.081039 1.094502
-5.570085 7.582754 -1.490195
-5.594976 7.619425 1.160684
-5.662951 7.714817 -1.175064
-5.588318 7.615929 1.496139
-5.571620 7.593171 -0.823970
-5.597989 7.631900 1.839780
-5.580218 7.610458 -0.494575
-5.597736 7.637144 2.186074
-18.107525 24.713634 -0.534777
-5.605939 7.653937 2.542121
-3.876926 5.306857 -1.761005
-12.956242 17.741407 0.383464
-4.600656 6.302139 -1.801408
-8.708793 11.933980 0.774258
-5.544606 7.597979 -1.828332
-7.397396 10.140640 1.098162
-5.531946 7.586189 -1.487066
-5.558992 7.626074 1.158734
-5.617283 7.708866 -1.171165
-5.548908 7.617825 1.492698
-5.531005 7.593247 -0.821879
-5.563227 7.640284 1.837109
-5.550094 7.625044 -0.494261
-5.558433 7.639302 2.181125
-19.096237 26.254784 -0.566680
-5.561012 7.648458 2.533839
-3.859513 5.321920 -1.761522
-12.954089 17.869101 0.385244
-4.578631 6.318160 -1.801408
-8.704574 12.016068 0.777608
-5.503076 7.596619 -1.823371
-7.395840 10.213201 1.103217
-5.490375 7.584650 -1.482999
-5.516045 7.622920 1.155321
-5.535656 7.652833 -1.159709
-5.514183 7.625941 1.490508
-5.495129 7.599591 -0.820484
-5.511219 7.624653 1.828714
-5.503557 7.616852 -0.492481
-5.513478 7.633381 2.173927
-19.032562 26.360197 -0.567517
-5.519581 7.647460 2.527109
-3.837524 5.330657 -1.759970
-12.959384 18.008345 0.387269
-4.551995 6.327776 -1.799608
-8.715052 12.119348 0.782318
-5.468503 7.604623 -1.820700
-6.059997 8.430271 0.908337
-5.445421 7.578104 -1.477993
-5.468557 7.613105 1.150934
-5.504279 7.665658 -1.158734
-5.476008 7.629097 1.487379
-5.456947 7.602541 -0.818741
-5.475416 7.631082 1.825661
-5.462968 7.616540 -0.491225
-5.479984 7.643079 2.171227
-19.005671 26.517487 -0.569472
-5.482728 7.652546 2.522450
-3.821142 5.347164 -1.761005
-12.958054 18.139711 0.389119
-4.523083 6.334113 -1.796909
-8.710990 12.203338 0.785772
-5.424817 7.599695 -1.814975
-6.027062 8.446507 0.907814
-5.409756 7.584201 -1.475490
-5.430427 7.615984 1.148497
-5.438315 7.629864 -1.150447
-5.443611 7.640122 1.485815
-5.416502 7.602074 -0.816649
-5.445330 7.645350 1.824516
-5.420133 7.612783 -0.489760
-5.432930 7.633584 2.163129
-5.442632 7.650034 -0.163878
-5.440305 7.649599 2.515203
-3.803569 5.362046 -1.761522
-12.960582 18.277817 0.391108
-4.497565 6.345093 -1.795559
-5.587595 7.885805 0.506507
-5.383498 7.597762 -1.810014
-5.998691 8.469120 0.907988
-5.367270 7.580466 -1.471110
-5.393485 7.620311 1.146303
-5.411647 7.648801 -1.150447
-5.399801 7.634884 1.481122
-5.380729 7.607919 -0.815255
-5.394807 7.630648 1.816502
-5.379691 7.612085 -0.488504
-5.400630 7.644544 2.160880
-5.374365 7.610184 -0.162622
-5.408001 7.660650 2.512615
-3.778157 5.365812 -1.758417
-12.958857 18.411245 0.392993
-4.476512 6.362346 -1.796009
-5.547397 7.887290 0.505356
-5.350169 7.606871 -1.807724
-5.950759 8.463929 0.905200
-5.333963 7.589458 -1.469233
-5.362290 7.632594 1.145328
-5.334717 7.596166 -1.139722
-5.364039 7.640752 1.478619
-5.332391 7.595671 -0.811943
-5.360245 7.638182 1.813830
-5.346207 7.621006 -0.487876
-5.358250 7.641009 2.154581
-5.336287 7.612524 -0.162272
-5.360161 7.649422 2.502780
-3.754978 5.372633 -1.756346
-12.956350 18.544891 0.394878
-4.454274 6.377934 -1.796009
-5.503823 7.883680 0.503891
-5.314591 7.612624 -1.804672
-5.912054 8.471581 0.903805
-5.288223 7.580490 -1.463914
-5.320851 7.630099 1.142160
-5.349035 7.673368 -1.148497
-5.328298 7.646465 1.476116
-5.292174 7.594625 -0.809851
-5.322327 7.640738 1.810014
-5.303592 7.616676 -0.486410
-5.321524 7.645274 2.150532
-5.305116 7.624539 -0.162133
-5.322399 7.652226 2.497604
-3.738403 5.388883 -1.757381
-12.957635 18.685310 0.396903
-4.417552 6.372622 -1.790160
-5.467172 7.889710 0.503053
-5.279042 7.618219 -1.801619
-5.875641 8.482337 0.902759
-5.248237 7.579413 -1.460160
-5.280629 7.629038 1.139235
-5.315441 7.682197 -1.147034
-5.292583 7.652022 1.473613
-5.255429 7.598305 -0.808282
-5.281110 7.638276 1.805053
-5.254262 7.602281 -0.484317
-5.284833 7.649374 2.146483
-5.267106 7.626554 -0.161784
-5.283584 7.653269 2.491910
-3.722854 5.406674 -1.758934
-12.961495 18.830902 0.399032
-4.397489 6.391216 -1.791060
-5.427390 7.888052 0.501797
-5.243515 7.623660 -1.798566
-5.841483 8.496227 0.902062
-5.212796 7.584666 -1.457657
-5.238226 7.624519 1.135822
-5.274198 7.676877 -1.143622
-5.258238 7.656500 1.471110
-5.219854 7.603461 -0.806888
-5.249970 7.650190 1.803527
-5.218657 7.607399 -0.483480
-5.234088 7.629893 2.136135
-5.234999 7.634085 -0.161574
-5.250527 7.659595 2.488286
-3.699454 5.411016 -1.756346
-12.964417 18.969542 0.401056
-4.378470 6.408981 -1.791960
-5.382051 7.877971 0.500018
-5.202706 7.618308 -1.793223
-5.869441 8.597829 0.910778
-5.182049 7.593750 -1.456092
-5.200611 7.623807 1.133141
-5.276679 7.735319 -1.149715
-5.220574 7.655944 1.467668
-5.183392 7.604265 -0.805145
-5.211308 7.648088 1.798947
-5.190025 7.619712 -0.483166
-5.199979 7.634325 2.132536
-5.187147 7.618343 -0.160876
-5.209882 7.654605 2.481040
-3.674978 5.413664 -1.753240
-12.972183 19.116671 0.403255
-4.349537 6.412175 -1.788811
-5.346671 7.885140 0.499285
-5.163088 7.614396 -1.788262
-5.905736 8.712899 0.920888
-5.149084 7.599444 -1.453902
-5.167506 7.629508 1.131435
-5.219598 7.709309 -1.143134
-5.182748 7.657760 1.464540
-5.141397 7.596661 -0.802530
-5.176014 7.650694 1.795513
-5.149063 7.613720 -0.481700
-5.161295 7.634670 2.127587
-5.143726 7.611553 -0.160353
-5.165827 7.647133 2.472757
-3.657139 5.428061 -1.753758
-12.963457 19.248089 0.405070
-4.324950 6.424087 -1.787911
-5.305735 7.883871 0.498029
-5.126614 7.617712 -1.784827
-5.831913 8.668992 0.914089
-5.103784 7.589506 -1.448583
-5.126447 7.626081 1.128266
-5.184904 7.715950 -1.141428
-5.149375 7.665967 1.462662
-5.109292 7.606294 -0.801659
-5.121918 7.627966 1.785972
-5.107986 7.610088 -0.480339
-5.127011 7.641313 2.124438
-5.109330 7.617835 -0.160108
-5.121890 7.639443 2.464475
-3.636023 5.437581 -1.752723
-12.967315 19.399618 0.407304
-4.301418 6.437523 -1.787461
-5.267090 7.885734 0.496982
-5.090179 7.620867 -1.781393
-5.754045 8.618044 0.906594
-5.067393 7.592488 -1.445768
-5.079967 7.614205 1.123879
-5.144723 7.714182 -1.138503
-5.112721 7.669105 1.459847
-5.069227 7.606731 -0.799741
-5.071309 7.609855 1.777577
-5.061457 7.597953 -0.478455
-5.092743 7.647810 2.121288
-5.068304 7.613982 -0.159655
-5.091980 7.652452 2.462922
-3.617138 5.452480 -1.753240
-11.539816 17.395138 0.364371
-4.274611 6.446003 -1.785661
-5.221874 7.877437 0.495308
-5.051367 7.623107 -1.777577
-5.703713 8.610838 0.903631
-5.022079 7.584658 -1.440762
-5.043492 7.616996 1.121686
-5.094753 7.697332 -1.133385
-5.083741 7.683608 1.459221
-5.033848 7.611086 -0.798347
-5.037968 7.620205 1.775669
-5.024767 7.603122 -0.477618
-5.047494 7.640408 2.114090
-5.029569 7.613275 -0.159271
-5.052464 7.650834 2.456711
-3.594895 5.460233 -1.751687
-11.515553 17.497454 0.365628
-4.249887 6.459999 -1.785212
-5.184467 7.880598 0.494365
-5.007469 7.614448 -1.771471
-5.660490 8.610717 0.901539
-4.985812 7.587283 -1.437946
-5.004643 7.618837 1.119248
-5.047987 7.687745 -1.129241
-5.039544 7.674887 1.454215
-4.999595 7.616952 -0.797126
-4.997339 7.616404 1.770708
-4.991627 7.610594 -0.476990
-5.007969 7.638425 2.108691
-4.987611 7.607374 -0.158782
-5.019374 7.658728 2.453605
-3.569472 5.463047 -1.748582
-11.518714 17.629293 0.367583
-4.225245 6.469161 -1.783862
-5.161292 7.905338 0.494784
-4.974418 7.622017 -1.769181
-5.700072 8.737216 0.912695
-4.948753 7.585575 -1.434504
-4.977180 7.632068 1.118761
-5.002950 7.674510 -1.124854
-5.001936 7.675882 1.451086
-4.954491 7.605977 -0.794163
-4.972052 7.632936 1.770708
-4.957641 7.613717 -0.476153
-4.970920 7.637024 2.103742
-4.950121 7.607975 -0.158433
-4.974701 7.648672 2.444805
-3.552388 5.476473 -1.749099
-11.506067 17.744894 0.369153
-4.204756 6.487142 -1.784762
-8.719742 13.458054 0.840411
-4.943779 7.630232 -1.767273
-5.892015 9.097218 0.948254
-4.909360 7.582907 -1.430750
-4.937568 7.629395 1.115836
-4.984757 7.705259 -1.126804
-4.963314 7.675049 1.447645
-4.916260 7.602287 -0.792071
-4.924063 7.617268 1.763075
-4.921279 7.615878 -0.475211
-4.945290 7.655965 2.104192
-4.917027 7.615127 -0.158224
-4.935403 7.646513 2.438593
-3.533252 5.488839 -1.749099
-11.504657 17.879120 0.371108
-4.174705 6.490309 -1.781612
-8.718074 13.558968 0.844807
-4.908619 7.634233 -1.764220
-5.751424 8.948447 0.930649
-4.874317 7.586703 -1.428247
-4.890522 7.614850 1.111205
-4.893487 7.622384 -1.112180
-4.926888 7.677366 1.444829
-4.885387 7.612697 -0.791374
-4.890021 7.622844 1.760404
-4.880648 7.611155 -0.473850
-4.897501 7.640370 2.095194
-4.883941 7.622144 -0.158014
-4.901385 7.652308 2.434970
-3.511989 5.497884 -1.748064
-11.516429 18.035463 0.373516
-4.152026 6.504840 -1.781612
-8.713901 13.651777 0.848785
-4.873494 7.638079 -1.761167
-5.549799 8.701382 0.902933
-4.839310 7.590345 -1.425744
-4.853245 7.615134 1.108767
-4.902045 7.694668 -1.120223
-4.890790 7.677001 1.441700
-4.839521 7.599451 -0.788237
-4.858113 7.631585 1.758496
-4.844402 7.612978 -0.472908
-4.856160 7.634398 2.088896
-4.851127 7.626485 -0.157770
-4.863546 7.648956 2.428758
-3.490709 5.506845 -1.747029
-11.516516 18.168137 0.375471
-4.129387 6.516928 -1.781162
-8.721770 13.769848 0.854228
-4.830001 7.628504 -1.755061
-5.503407 8.695450 0.900319
-4.806716 7.594668 -1.423554
-4.820538 7.619442 1.107061
-4.872259 7.704169 -1.119248
-4.851294 7.673991 1.437946
-4.805516 7.604507 -0.787016
-4.827537 7.639354 1.756588
-4.805260 7.607050 -0.471547
-4.817289 7.629040 2.083047
-4.802063 7.607860 -0.157037
-4.826505 7.649549 2.423582
-3.469340 5.513486 -1.745476
-11.517971 18.311483 0.377600
-4.104540 6.528002 -1.780263
-8.716160 13.867851 0.858414
-4.793940 7.630356 -1.751627
-5.451225 8.676536 0.896484
-4.775975 7.604708 -1.422302
-4.787577 7.626136 1.105599
-4.852722 7.732902 -1.120954
-4.809783 7.667450 1.433566
-4.768355 7.604357 -0.785273
-4.783862 7.632045 1.750863
-4.768865 7.611071 -0.470710
-4.785457 7.637551 2.080797
-4.765923 7.609325 -0.156723
-4.789524 7.649976 2.418405
-3.446042 5.521248 -1.743923
-11.508998 18.446884 0.379520
-4.083682 6.547962 -1.781612
-7.517796 12.059064 0.744741
-4.760751 7.639544 -1.749719
-5.409906 8.681237 0.894915
-4.724046 7.583600 -1.415106
-4.751201 7.630151 1.103649
-4.826447 7.754005 -1.121442
-4.775384 7.674965 1.431688
-4.730984 7.606555 -0.783704
-4.741347 7.626185 1.745521
-4.730393 7.611536 -0.469663
-4.752287 7.646766 2.078548
-4.733781 7.619946 -0.156583
-4.753301 7.654347 2.414264
-3.426798 5.535484 -1.744440
-11.507599 18.596073 0.381719
-4.046326 6.541342 -1.775764
-7.481956 12.095426 0.745369
-4.726826 7.644428 -1.747047
-5.368621 8.685756 0.893346
-4.689991 7.590780 -1.413229
-4.710683 7.627247 1.100724
-4.776399 7.733650 -1.116079
-4.742340 7.681501 1.429811
-4.693937 7.606069 -0.781961
-4.703358 7.624310 1.741323
-4.684927 7.597401 -0.467779
-4.711248 7.640084 2.072249
-4.691412 7.610891 -0.156059
-4.711351 7.646224 2.406500
-3.407412 5.545171 -1.743923
-11.518088 18.751699 0.384127
-4.024613 6.554723 -1.775764
-7.435538 12.109957 0.744741
-4.691182 7.643328 -1.743231
-5.333539 8.693321 0.892300
-4.656533 7.592818 -1.410726
-4.677067 7.629287 1.098774
-4.734129 7.722368 -1.112180
-4.706522 7.680342 1.426683
-4.669731 7.623291 -0.782136
-4.665747 7.619772 1.736744
-4.656580 7.607783 -0.467465
-4.683853 7.652340 2.071349
-4.664062 7.622994 -0.155990
-4.681939 7.655212 2.404429
-3.383974 5.548195 -1.741335
-11.525591 18.904184 0.386466
-4.004881 6.571362 -1.776663
-7.432704 12.200655 0.748718
-4.659679 7.648784 -1.740941
-5.302611 8.707555 0.891952
-4.623110 7.594720 -1.408223
-4.642452 7.629493 1.096580
-4.685483 7.703228 -1.107061
-4.661209 7.666343 1.421051
-4.637177 7.626818 -0.780915
-4.636373 7.628494 1.735217
-4.624065 7.611235 -0.466732
-4.640926 7.641994 2.064151
-4.622895 7.615299 -0.155501
-4.648171 7.659948 2.400805
-3.355586 5.545097 -1.736676
-11.517488 19.040121 0.388421
-3.978895 6.580298 -1.775314
-7.425200 12.284640 0.752277
-4.617720 7.639799 -1.735217
-5.268060 8.719192 0.891255
-4.586360 7.593901 -1.405095
-4.615793 7.645650 1.096580
-4.658562 7.719539 -1.107061
-4.629319 7.674108 1.419487
-4.590975 7.610544 -0.777604
-4.601607 7.631179 1.732164
-4.595408 7.623908 -0.466523
-4.602156 7.638117 2.058752
-4.585969 7.614258 -0.155152
-4.604467 7.647991 2.392006
-3.334222 5.553463 -1.735641
-11.516807 19.189947 0.390655
-3.956905 6.595817 -1.775764
-7.424390 12.380710 0.756569
-4.586987 7.649135 -1.733691
-5.256028 8.768288 0.894392
-4.545612 7.586142 -1.400714
-4.570715 7.631064 1.092193
-4.614251 7.706800 -1.102918
-4.595405 7.678355 1.417296
-4.553842 7.611933 -0.776035
-4.563852 7.628665 1.727966
-4.560566 7.626191 -0.465685
-4.567468 7.640752 2.055153
-4.553205 7.619921 -0.154942
-4.569816 7.650750 2.387865
-3.316808 5.570628 -1.737193
-11.515229 19.339994 0.392889
-3.920899 6.587821 -1.769915
-7.435246 12.497525 0.762116
-4.552898 7.655773 -1.731401
-5.223857 8.787493 0.894392
-4.509702 7.589167 -1.398211
-4.528840 7.621373 1.088537
-4.567047 7.688724 -1.098043
-4.560504 7.680762 1.414793
-4.519110 7.614075 -0.774640
-4.525846 7.628455 1.724150
-4.519341 7.620522 -0.464325
-4.530487 7.642354 2.051104
-4.524542 7.632327 -0.154873
-4.536190 7.655020 2.384241
-3.295379 5.578844 -1.736158
-11.523577 19.516376 0.395611
-3.896728 6.602147 -1.769915
-7.416797 12.571136 0.764942
-4.518167 7.658091 -1.728348
-4.652681 7.889240 0.801310
-4.479172 7.598054 -1.396960
-4.491807 7.622528 1.086343
-4.523721 7.679758 -1.094387
-4.522301 7.680403 1.411665
-4.481386 7.610916 -0.772723
-4.491225 7.630671 1.721097
-4.481570 7.617316 -0.463173
-4.494893 7.643004 2.047055
-4.481339 7.623001 -0.154349
-4.495377 7.649943 2.377512
-3.277837 5.593647 -1.737193
-11.516020 19.660015 0.397705
-3.868733 6.607301 -1.767665
-7.422301 12.681414 0.770071
-4.477522 7.650095 -1.723005
-4.615055 7.888236 0.799567
-4.446637 7.603413 -1.395083
-4.453148 7.617597 1.083418
-4.494885 7.692072 -1.093899
-4.481513 7.672262 1.407285
-4.444741 7.609310 -0.770980
-4.454660 7.629348 1.717281
-4.446901 7.619113 -0.462336
-4.457382 7.640133 2.042106
-4.445633 7.623051 -0.154035
-4.467674 7.663918 2.376994
-3.251497 5.593363 -1.733570
-11.515646 19.817663 0.400079
-3.845648 6.620764 -1.767665
-7.419108 12.778059 0.774363
-4.440935 7.648699 -1.719189
-4.581492 7.893956 0.798521
-4.415114 7.610344 -1.393518
-4.423545 7.627942 1.082687
-4.488915 7.743781 -1.099018
-4.446783 7.674185 1.404782
-4.408165 7.607538 -0.769237
-4.423080 7.636359 1.715373
-4.412274 7.620760 -0.461499
-4.422878 7.642151 2.038507
-4.404975 7.614291 -0.153546
-4.424456 7.651036 2.368194
-3.226161 5.594638 -1.730464
-11.511304 19.970352 0.402348
-3.820569 6.630770 -1.766766
-7.415326 12.874840 0.778654
-4.412247 7.660753 -1.718426
-4.540985 7.887455 0.796255
-4.371770 7.596605 -1.388200
-4.393919 7.638175 1.081956
-4.465813 7.766286 -1.099993
-4.411107 7.674248 1.401966
-4.373638 7.609062 -0.767842
-4.380749 7.624513 1.709267
-4.377686 7.622261 -0.460661
-4.401025 7.665996 2.040756
-4.371404 7.617479 -0.153302
-4.397719 7.666435 2.368194
-3.207610 5.603069 -1.729947
-4.503128 7.869271 0.158258
-3.789074 6.624134 -1.761817
-4.524639 7.913268 0.477723
-4.378415 7.657532 -1.714610
-4.518161 7.905140 0.796603
-4.340046 7.596580 -1.385697
-4.357106 7.629531 1.078787
-4.427616 7.756142 -1.096580
-4.378166 7.672626 1.399150
-4.347738 7.619303 -0.767493
-4.343158 7.614363 1.703924
-4.337892 7.608215 -0.458986
-4.361482 7.652694 2.033557
-4.340521 7.619014 -0.153058
-4.353539 7.644959 2.357324
-3.187079 5.612551 -1.729429
-4.484514 7.900595 0.158573
-3.766891 6.639014 -1.762267
-7.426341 13.093989 0.788912
-4.342943 7.657399 -1.711175
-4.330372 7.638348 0.768191
-4.308634 7.603089 -1.384132
-4.321640 7.629151 1.076594
-4.394644 7.761187 -1.095118
-4.345520 7.677547 1.397273
-4.326024 7.643101 -0.768365
-4.310750 7.619226 1.701635
-4.308356 7.618097 -0.458672
-4.319396 7.640730 2.026359
-4.305046 7.618449 -0.152743
-4.317323 7.643289 2.352148
-3.170311 5.628692 -1.730982
-4.285226 7.611261 0.152464
-3.740825 6.647029 -1.760917
-4.293999 7.633074 0.458986
-4.302709 7.648558 -1.705832
-4.295872 7.639524 0.766796
-4.274323 7.604309 -1.381629
-4.294012 7.642459 1.076350
-4.367527 7.776479 -1.095118
-4.307087 7.671999 1.393518
-4.277503 7.622419 -0.764704
-4.278364 7.623953 1.699345
-4.270991 7.613927 -0.457521
-4.277452 7.628564 2.019161
-4.270607 7.619473 -0.152464
-4.285897 7.649885 2.349559
-3.140242 5.623406 -1.725805
-4.262533 7.633156 0.152604
-3.716648 6.658345 -1.760467
-4.255651 7.627085 0.457730
-4.265085 7.647129 -1.702016
-4.258140 7.637817 0.765053
-4.241617 7.611294 -1.380065
-4.258613 7.641792 1.074156
-4.319105 7.753524 -1.089756
-4.268747 7.666278 1.389764
-4.231489 7.602487 -0.761218
-4.243713 7.627573 1.696674
-4.236259 7.617312 -0.456788
-4.244726 7.635674 2.016911
-4.231350 7.611614 -0.152010
-4.246972 7.642846 2.342830
-3.119656 5.632645 -1.725288
-4.220966 7.624236 0.152115
-3.693164 6.673627 -1.760917
-4.231902 7.647138 0.458044
-4.235513 7.656818 -1.700871
-4.220849 7.633453 0.763136
-4.197820 7.594935 -1.374433
-4.220015 7.638239 1.071475
-4.288172 7.761604 -1.088781
-4.241007 7.679401 1.389451
-4.199150 7.606745 -0.760172
-4.204729 7.619995 1.691713
-4.203857 7.621560 -0.456160
-4.211854 7.636057 2.013312
-4.201860 7.621084 -0.151906
-4.211873 7.642398 2.338171
-3.100962 5.642958 -1.725288
-4.186996 7.622416 0.151801
-3.661635 6.668756 -1.756418
-4.197869 7.645372 0.457102
-4.206322 7.663936 -1.699345
-4.194551 7.645662 0.762961
-4.165014 7.594957 -1.371930
-4.184167 7.633042 1.068794
-4.260503 7.772299 -1.088293
-4.205075 7.674369 1.386010
-4.188260 7.646839 -0.762787
-4.175668 7.627007 1.690186
-4.163217 7.607426 -0.454485
-4.182765 7.643145 2.011512
-4.173687 7.629712 -0.151801
-4.182797 7.649544 2.336101
-3.081306 5.651515 -1.724770
-4.153086 7.620455 0.151487
-3.636702 6.675728 -1.755068
-4.156827 7.633669 0.455532
-4.173371 7.664050 -1.696292
-4.161560 7.645528 0.761567
-4.134139 7.598317 -1.370053
-4.145552 7.622462 1.065382
-4.223864 7.769685 -1.085856
-4.172603 7.678586 1.384132
-4.170099 7.677171 -0.764356
-4.144728 7.630463 1.687896
-4.130344 7.607147 -0.453648
-4.143977 7.635433 2.005664
-4.140352 7.631931 -0.151557
-4.148704 7.650511 2.331960
-3.064246 5.669568 -1.726841
-4.122655 7.627870 0.151347
-3.608747 6.679808 -1.752819
-4.118768 7.627042 0.454276
-4.134064 7.658563 -1.691713
-4.129723 7.653717 0.760870
-4.102512 7.606462 -1.368802
-4.113267 7.626403 1.063919
-4.192950 7.777391 -1.084881
-4.134531 7.672236 1.380378
-4.105482 7.621516 -0.757383
-4.109289 7.631773 1.684844
-4.100543 7.618716 -0.453439
-4.107653 7.635126 2.001615
-4.100421 7.621685 -0.151068
-4.117400 7.656438 2.329371
-3.036222 5.664906 -1.722182
-4.089950 7.634115 0.151173
-3.584239 6.692991 -1.752819
-4.091176 7.639614 0.454171
-4.097112 7.653909 -1.687515
-4.086060 7.636466 0.757732
-4.072208 7.613771 -1.367550
-4.079670 7.630925 1.062457
-4.160672 7.785705 -1.083906
-4.102136 7.676169 1.378501
-4.061014 7.602411 -0.754071
-4.080772 7.642607 1.684080
-4.064517 7.615364 -0.452392
-4.072722 7.633943 1.997565
-4.061556 7.613014 -0.150614
-4.077012 7.645195 2.321607
-3.012804 5.668646 -1.720111
-4.053348 7.626448 0.150754
-3.563854 6.708281 -1.753718
-4.057928 7.641500 0.453439
-4.065769 7.659492 -1.685607
-4.053777 7.640121 0.756686
-4.035828 7.606292 -1.363796
-4.045973 7.628627 1.060263
-4.129253 7.788935 -1.082444
-4.066069 7.672986 1.375372
-4.026993 7.602454 -0.752677
-4.042542 7.631809 1.678738
-4.033636 7.618209 -0.451764
-4.043740 7.640516 1.995766
-4.031219 7.620074 -0.150475
-4.049399 7.657672 2.321089
-2.993991 5.678605 -1.720111
-4.026703 7.640549 0.150754
-3.528607 6.698267 -1.747870
-4.022852 7.639714 0.452497
-4.034856 7.662510 -1.683317
-4.023781 7.644707 0.755815
-3.996374 7.595860 -1.359416
-4.012850 7.630407 1.058557
-4.097423 7.794516 -1.081225
-4.035583 7.680139 1.374120
-3.999904 7.612240 -0.752328
-4.018614 7.651089 1.679883
-3.992166 7.603948 -0.450089
-4.029720 7.678744 2.002064
-3.999020 7.623475 -0.150265
-4.026230 7.678606 2.323160
-2.969674 5.680462 -1.717523
-3.988892 7.633291 0.150335
-3.503401 6.707088 -1.746970
-3.985069 7.632464 0.451241
-3.998999 7.659144 -1.679501
-3.989695 7.644575 0.754420
-3.968924 7.608013 -1.359103
-3.992616 7.656688 1.060263
-4.052755 7.775325 -1.076594
-4.011489 7.699433 1.375059
-3.964104 7.608485 -0.750585
-3.975561 7.633726 1.673013
-3.961908 7.610752 -0.449671
-3.977707 7.644359 1.989467
-3.977922 7.648031 -0.150475
-3.980690 7.656617 2.312289
-2.954274 5.699368 -1.720111
-3.955781 7.634742 0.150091
-3.477280 6.714085 -1.745620
-3.951977 7.633911 0.450508
-3.961411 7.652134 -1.674922
-3.954743 7.642531 0.752851
-3.936899 7.611292 -1.357226
-3.942163 7.624730 1.053926
-4.018296 7.775318 -1.074644
-3.964645 7.674778 1.368176
-3.941181 7.629357 -0.751283
-3.948892 7.647556 1.673013
-3.948140 7.649384 -0.451136
-3.940279 7.637414 1.984068
-3.947533 7.654762 -0.150335
-3.946856 7.656729 2.308148
-2.929064 5.699337 -1.717006
-3.923626 7.637830 0.149881
-3.452931 6.724449 -1.745170
-3.922567 7.642329 0.450194
-3.931984 7.660676 -1.673777
-3.918039 7.636788 0.750934
-3.917515 7.639050 -1.359729
-3.915522 7.638445 1.053926
-3.988417 7.783996 -1.073913
-3.927923 7.669231 1.364734
-3.902716 7.620015 -0.749016
-3.906961 7.631586 1.666526
-3.911408 7.643560 -0.449985
-3.911818 7.647653 1.983168
-3.895301 7.618641 -0.149358
-3.907799 7.646376 2.300901
-2.906519 5.704363 -1.715453
-3.889683 7.637224 0.149602
-3.427670 6.732987 -1.744270
-3.891767 7.644615 0.449566
-3.909672 7.683103 -1.675685
-3.885036 7.637986 0.749714
-3.871132 7.613939 -1.352845
-3.880742 7.636137 1.051733
-3.943697 7.760015 -1.068794
-3.898892 7.675169 1.363483
-3.867071 7.615828 -0.747273
-3.862529 7.610163 1.658893
-3.866632 7.621543 -0.447891
-3.882029 7.651892 1.980919
-3.864587 7.620817 -0.149148
-3.873688 7.642061 2.295725
-2.884974 5.708797 -1.713900
-3.851711 7.625093 0.149113
-3.398295 6.730401 -1.740671
-3.860092 7.645000 0.448833
-3.866479 7.660974 -1.668052
-3.857890 7.647271 0.749365
-3.832518 7.600277 -1.348152
-3.841994 7.622377 1.048076
-3.908112 7.753552 -1.066113
-3.872528 7.686294 1.363170
-3.832835 7.610814 -0.745530
-3.841683 7.631699 1.660802
-3.833255 7.618267 -0.446949
-3.850500 7.652540 1.977770
-3.830311 7.615725 -0.148799
-3.844852 7.647961 2.293654
-2.864295 5.714879 -1.712865
-3.825510 7.636035 0.149078
-3.369851 6.729435 -1.737522
-3.826232 7.644139 0.447996
-3.834903 7.661463 -1.665381
-3.827162 7.649331 0.748319
-3.805528 7.609411 -1.347527
-3.812259 7.626196 1.046858
-3.870377 7.745837 -1.063188
-3.837732 7.683857 1.360354
-3.805356 7.622363 -0.745356
-3.805833 7.623317 1.656222
-3.797271 7.609491 -0.445693
-3.810718 7.639774 1.971021
-3.799244 7.620100 -0.148625
-3.813825 7.652690 2.291066
-2.846765 5.732260 -1.714935
-3.791714 7.635015 0.148799
-3.348075 6.744648 -1.738422
-3.794197 7.646714 0.447368
-3.796328 7.654363 -1.660802
-3.792022 7.649025 0.746925
-3.770595 7.609149 -1.345024
-3.784733 7.637680 1.046614
-3.842432 7.757522 -1.062944
-3.800371 7.675963 1.356600
-3.770771 7.619530 -0.743787
-3.776994 7.635457 1.655841
-3.771128 7.626937 -0.445902
-3.772329 7.632728 1.965622
-3.764645 7.617182 -0.148311
-3.780242 7.652101 2.286925
-2.817353 5.723096 -1.709241
-3.759292 7.639889 0.148625
-3.323330 6.756874 -1.738422
-3.760860 7.649814 0.446740
-3.763524 7.655233 -1.658130
-3.756509 7.644334 0.745182
-3.745754 7.625809 -1.345649
-3.753216 7.644372 1.045639
-3.808728 7.760859 -1.061482
-3.764380 7.673881 1.353784
-3.735378 7.614757 -0.742044
-3.744270 7.636254 1.653169
-3.737448 7.625708 -0.445065
-3.740520 7.635347 1.962923
-3.730547 7.618356 -0.148066
-3.740282 7.641612 2.279678
-2.797360 5.732895 -1.709241
-3.722080 7.631398 0.148206
-3.299726 6.768433 -1.738422
-3.728886 7.652122 0.446112
-3.731621 7.657734 -1.655841
-3.728056 7.653819 0.744833
-3.702684 7.605092 -1.339705
-3.717824 7.639576 1.043202
-3.765114 7.740192 -1.056851
-3.728070 7.667431 1.350342
-3.701806 7.613414 -0.740649
-3.709866 7.633387 1.649735
-3.702950 7.622540 -0.444123
-3.710441 7.641345 1.961123
-3.703929 7.631333 -0.148066
-3.710210 7.647669 2.277608
-2.775648 5.739148 -1.708206
-3.696290 7.646143 0.148241
-3.268447 6.764120 -1.734373
-3.696939 7.654302 0.445484
-3.703158 7.667179 -1.655077
-3.693522 7.650637 0.743264
-3.671821 7.609077 -1.338141
-3.684233 7.638205 1.041252
-3.738075 7.753287 -1.056851
-3.696136 7.669722 1.348465
-3.670016 7.615522 -0.739604
-3.674679 7.628602 1.645918
-3.670256 7.622821 -0.443390
-3.682054 7.650740 1.960224
-3.670336 7.629799 -0.147787
-3.682656 7.658833 2.277090
-2.754764 5.747059 -1.707688
-3.662667 7.644571 0.147962
-3.243975 6.773729 -1.733923
-3.661576 7.649144 0.444437
-3.672135 7.671203 -1.653169
-3.662496 7.654496 0.742393
-3.641830 7.614718 -1.336889
-3.651557 7.638481 1.039546
-3.704998 7.753749 -1.055145
-3.664231 7.671883 1.346588
-3.639116 7.619298 -0.738732
-3.648029 7.641381 1.645918
-3.635026 7.617561 -0.442344
-3.649450 7.651234 1.957074
-3.638515 7.631735 -0.147578
-3.654239 7.668152 2.276055
-2.737171 5.761875 -1.709241
-3.629954 7.644666 0.147717
-3.216967 6.777970 -1.732123
-3.628859 7.649249 0.443704
-3.636077 7.664464 -1.648971
-3.640874 7.678036 0.743438
-3.610149 7.616675 -1.335012
-3.627419 7.656563 1.040277
-3.676209 7.763048 -1.054657
-3.623908 7.656059 1.341582
-3.607384 7.621150 -0.737686
-3.613775 7.638098 1.642484
-3.602434 7.617565 -0.441611
-3.614394 7.646308 1.952575
-3.603312 7.626308 -0.147229
-3.616723 7.658153 2.269325
-2.708815 5.753916 -1.704065
-3.606654 7.664527 0.147857
-3.197436 6.797975 -1.734373
-3.608085 7.674520 0.444437
-3.606797 7.671779 -1.647827
-3.621678 7.706927 0.745007
-3.578502 7.618502 -1.333135
-3.599828 7.667381 1.040033
-3.644869 7.766848 -1.053439
-3.595485 7.665084 1.340956
-3.577377 7.626479 -0.736989
-3.580425 7.636444 1.639431
-3.578362 7.635520 -0.441925
-3.585203 7.653583 1.951226
-3.571583 7.627973 -0.147019
-3.581778 7.653234 2.264149
-2.688715 5.763335 -1.704065
-3.592553 7.704256 0.148380
-3.170393 6.802029 -1.732573
-3.609614 7.744372 0.447787
-3.574193 7.671864 -1.645155
-3.621667 7.777320 0.750585
-3.543550 7.613039 -1.330006
-3.578905 7.692498 1.041739
-3.628619 7.802923 -1.056607
-3.561715 7.659053 1.337828
-3.549052 7.635306 -0.736640
-3.541337 7.622190 1.633707
-3.545800 7.635283 -0.441192
-3.551899 7.651910 1.947626
-3.542056 7.630706 -0.146845
-3.552316 7.656308 2.261561
-2.669390 5.774440 -1.704582
-3.597194 7.781471 0.149637
-3.141281 6.798353 -1.728974
-3.612709 7.822200 0.451555
-3.542452 7.673600 -1.642866
-3.622046 7.849614 0.756338
-3.514975 7.617572 -1.328755
-3.550880 7.698917 1.041008
-3.576962 7.759027 -1.049051
-3.528347 7.657087 1.335325
-3.509877 7.620502 -0.734026
-3.511115 7.623192 1.631417
-3.511275 7.627042 -0.440041
-3.520804 7.651254 1.944477
