# This PCD file was generated using the MATLAB® pcwrite function
# from Computer Vision Toolbox®.
# .PCD v.7 - Point Cloud Data file format
VERSION .7
FIELDS x y z
SIZE 4 4 4
TYPE F F F
COUNT 1 1 1
WIDTH 1615
HEIGHT 1
VIEWPOINT 0 0 0 1 0 0 0
POINTS 1615
DATA ascii
-7.931923 -0.433745 -2.128528
-9.600923 -0.521648 -2.219817
-11.960288 -0.647746 -2.328252
-15.987302 -0.860245 -2.535803
-17.927578 -0.958371 -2.204373
-18.079199 -0.963313 -1.583969
-7.925673 -0.405659 -2.126457
-9.575354 -0.488417 -2.213518
-11.970320 -0.606393 -2.329778
-16.001904 -0.807821 -2.537680
-17.946516 -0.899715 -2.206323
-18.070511 -0.899604 -1.582923
-7.957848 -0.380852 -2.134739
-9.582839 -0.455267 -2.214868
-11.972265 -0.566694 -2.329778
-15.992787 -0.751402 -2.535803
-18.052662 -0.841868 -2.218997
-18.065435 -0.839304 -1.582225
-7.947549 -0.352557 -2.131634
-9.596052 -0.422330 -2.217567
-11.958478 -0.524211 -2.326725
-15.995313 -0.695576 -2.535803
-18.075323 -0.779702 -2.221435
-18.052328 -0.775559 -1.580831
-7.913988 -0.323395 -2.122316
-9.593573 -0.388673 -2.216668
-11.948465 -0.481987 -2.324435
-16.009485 -0.640211 -2.537680
-18.093803 -0.717236 -2.223385
-18.150486 -0.716310 -1.589198
-7.942095 -0.296776 -2.129563
-9.604609 -0.355543 -2.218917
-11.981465 -0.441435 -2.330541
-16.019520 -0.584611 -2.538932
-18.112064 -0.654645 -2.225334
-83.657242 -2.950627 -1.461150
-7.931499 -0.268658 -2.126457
-9.586314 -0.321361 -2.214418
-11.990782 -0.399871 -2.332067
-16.013565 -0.528428 -2.537680
-17.983294 -0.587143 -2.209248
-18.047512 -0.586086 -1.579785
-83.679016 -2.658970 -1.461360
-7.947835 -0.241440 -2.130599
-9.599066 -0.288247 -2.217118
-11.988180 -0.357895 -2.331304
-16.015312 -0.472526 -2.537680
-18.047455 -0.523027 -1.579611
-83.663803 -2.366179 -1.460941
-7.956355 -0.213905 -2.132669
-9.596116 -0.254635 -2.216218
-11.969731 -0.315532 -2.327488
-16.024763 -0.416825 -2.538932
-18.079050 -0.460787 -1.582225
-83.639565 -2.073328 -1.460382
-7.941601 -0.185769 -2.128528
-9.596947 -0.221139 -2.216218
-11.962909 -0.273565 -2.325962
-16.026121 -0.360889 -2.538932
-18.102457 -0.398163 -1.584143
-83.624306 -1.780888 -1.459999
-7.946065 -0.158121 -2.129563
-9.601558 -0.187714 -2.217118
-11.983420 -0.232185 -2.329778
-16.043083 -0.305245 -2.541435
-18.086992 -0.337818 -2.221191
-18.328838 -0.339131 -1.603840
-83.650009 -1.489327 -1.460348
-7.942705 -0.130321 -2.128528
-9.602155 -0.154194 -2.217118
-11.964526 -0.190044 -2.325962
-16.028250 -0.248993 -2.538932
-18.139669 -0.275464 -2.227528
-18.335888 -0.275239 -1.604363
-83.646698 -1.197228 -1.460208
-7.950839 -0.102695 -2.130599
-9.594839 -0.120580 -2.215318
-11.992600 -0.148619 -2.331304
-16.021120 -0.192950 -2.537680
-18.106775 -0.211744 -2.223385
-83.668365 -0.905432 -1.460522
-7.943421 -0.074868 -2.128528
-9.606894 -0.087193 -2.218017
-11.989120 -0.106721 -2.330541
-16.073053 -0.137464 -2.545815
-18.113359 -0.148590 -2.224116
-18.584410 -0.149211 -1.625977
-7.932045 -0.047072 -2.125422
-9.611037 -0.053679 -2.218917
-11.985494 -0.064849 -2.329778
-16.053682 -0.081257 -2.542686
-18.151482 -0.085539 -2.228747
-18.415464 -0.083569 -1.611161
-19.243423 -0.080610 -1.008514
-83.356689 -0.320062 -1.455007
-7.939887 -0.019401 -2.127493
-9.622858 -0.020157 -2.221617
-11.989573 -0.023019 -2.330541
-16.022261 -0.025172 -2.537680
-18.227104 -0.022270 -2.238009
-19.263561 -0.013451 -1.009561
-83.629257 -0.029203 -1.459754
-7.951498 0.008327 -2.130599
-9.587792 0.013387 -2.213518
-11.966021 0.018796 -2.325962
-16.045956 0.030806 -2.541435
-83.680840 0.262883 -1.460662
-7.951420 0.036081 -2.130599
-9.595483 0.046893 -2.215318
-11.997293 0.060722 -2.332067
-16.053654 0.086859 -2.542686
-24.043039 0.138479 -2.952163
-83.663422 0.554879 -1.460382
-7.958973 0.063899 -2.132669
-9.603055 0.080451 -2.217118
-12.004861 0.102667 -2.333594
-16.061152 0.142964 -2.543938
-24.042410 0.222405 -2.952163
-48.756760 0.476555 -2.555356
-83.650978 0.846816 -1.460208
-7.950974 0.091592 -2.130599
-9.610510 0.114064 -2.218917
-12.008356 0.144622 -2.334357
-16.107962 0.199614 -2.551446
-24.140734 0.307592 -2.964350
-105.132462 1.394612 -5.510244
-83.659508 1.138973 -1.460417
-7.931290 0.119055 -2.125422
-9.606156 0.147550 -2.218017
-11.995999 0.186355 -2.332067
-16.095316 0.255653 -2.549569
-24.139515 0.391852 -2.964350
-105.132942 1.761662 -5.510558
-83.645027 1.430824 -1.460243
-7.926963 0.146669 -2.124387
-9.578306 0.180570 -2.211719
-11.991350 0.228151 -2.331304
-16.070625 0.311379 -2.545815
-24.137999 0.476113 -2.964350
-83.238686 1.685451 -4.363249
-83.643517 1.722855 -1.460313
-7.957305 0.175018 -2.132669
-9.600997 0.214523 -2.217118
-12.010110 0.270449 -2.335121
-16.081289 0.367742 -2.547692
-24.009178 0.557425 -2.948751
-83.668976 2.015588 -1.460871
-7.948920 0.202595 -2.130599
-9.596292 0.247935 -2.216218
-11.977691 0.311551 -2.329015
-16.091755 0.424187 -2.549569
-24.062649 0.642708 -2.955575
-83.669434 2.307878 -1.461011
-7.948165 0.230341 -2.130599
-9.610950 0.281888 -2.219817
-11.996154 0.353942 -2.332831
-16.121767 0.481298 -2.554575
-83.639694 2.570027 -4.385440
-83.677307 2.585801 -1.461290
-7.935727 0.257709 -2.127493
-9.602173 0.313504 -2.218017
-11.986996 0.395555 -2.331304
-16.084547 0.533579 -2.548944
-24.077557 0.807148 -2.958013
-83.211517 2.833103 -4.363458
-83.667778 2.877876 -1.461290
-7.946413 0.284439 -2.130599
-9.601020 0.347018 -2.218017
-11.985619 0.435304 -2.331304
-16.066793 0.589139 -2.546440
-24.026981 0.889428 -2.952163
-105.103622 3.945818 -5.512128
-83.669205 3.170369 -1.461499
-7.949232 0.312327 -2.131634
-9.588068 0.380067 -2.215318
-11.995796 0.477608 -2.333594
-16.072535 0.645541 -2.547692
-24.043566 0.974091 -2.954601
-105.121132 4.313962 -5.513803
-83.691597 3.463818 -1.462093
-7.944233 0.339906 -2.130599
-9.594470 0.413872 -2.217118
-11.990133 0.519306 -2.332831
-16.070183 0.701641 -2.547692
-24.067783 1.059235 -2.958013
-83.648186 3.725300 -4.388161
-83.726944 3.758070 -1.462931
-7.942999 0.367635 -2.130599
-9.592967 0.447358 -2.217118
-11.972560 0.560422 -2.329778
-16.095263 0.759031 -2.552072
-24.115494 1.145697 -2.964350
-83.765244 4.052824 -1.463838
-7.933949 0.394975 -2.128528
-9.599132 0.481231 -2.218917
-11.974451 0.602408 -2.330541
-16.088568 0.815010 -2.551446
-24.111349 1.229863 -2.964350
-83.774544 4.346459 -1.464257
-7.928664 0.422462 -2.127493
-9.570149 0.513275 -2.212619
-11.964434 0.643781 -2.329015
-16.046175 0.869029 -2.545189
-7.934856 0.450574 -2.129563
-9.579974 0.547343 -2.215318
-11.977793 0.686440 -2.332067
-16.070652 0.926627 -2.549569
-24.102175 1.398162 -2.964350
-83.750153 4.931661 -1.464397
-7.933235 0.478269 -2.129563
-9.581895 0.581018 -2.216218
-11.947890 0.726578 -2.326725
-16.063377 0.982478 -2.548944
-24.097149 1.482281 -2.964350
-83.658142 5.190048 -4.392766
-83.732422 5.223975 -1.464397
-7.919950 0.505219 -2.126457
-9.575919 0.614213 -2.215318
-11.960956 0.769285 -2.329778
-16.071678 1.039309 -2.550821
-24.091827 1.566393 -2.964350
-83.123329 5.448187 -4.365656
-83.713684 5.516207 -1.464397
-7.914283 0.532602 -2.125422
-9.577605 0.647896 -2.216218
-11.946445 0.810235 -2.327488
-16.064011 1.095131 -2.550195
-24.086212 1.650481 -2.964350
-83.717857 5.810072 -1.464815
-7.920083 0.560773 -2.127493
-9.575285 0.681324 -2.216218
-11.963125 0.853331 -2.331304
-16.079794 1.152611 -2.553324
-24.151583 1.739676 -2.973125
-83.808746 6.110412 -1.466770
-7.921930 0.588700 -2.128528
-9.568962 0.714454 -2.215318
-11.952245 0.894497 -2.329778
-16.075670 1.208737 -2.553324
-24.074102 1.818588 -2.964350
-82.768974 6.296056 -4.350270
-83.786911 6.402924 -1.466770
-7.923679 0.616650 -2.129563
-9.550868 0.746637 -2.211719
-11.933390 0.934986 -2.326725
-16.079231 1.265461 -2.554575
-24.067608 1.902612 -2.964350
-82.738518 6.584323 -4.349851
-83.764046 6.695338 -1.466770
-7.894522 0.642112 -2.122316
-9.555972 0.780606 -2.213518
-11.933968 0.976956 -2.327488
-16.125904 1.325789 -2.562710
-24.060820 1.986618 -2.964350
-83.740166 6.987691 -1.466770
-7.898007 0.670154 -2.123869
-9.564838 0.814951 -2.216218
-11.942222 1.019607 -2.329778
-16.113304 1.381396 -2.561458
-24.053740 2.070589 -2.964350
-83.814873 7.288640 -1.468515
-7.901393 0.698231 -2.125422
-9.542525 0.846609 -2.211719
-11.930767 1.060595 -2.328252
-16.104450 1.437279 -2.560833
-24.097771 2.159146 -2.970687
-83.605927 7.535170 -4.399361
-7.895060 0.725454 -2.124387
-9.543393 0.880272 -2.212619
-11.926992 1.102235 -2.328252
-16.079664 1.491665 -2.557704
-24.038696 2.238465 -2.964350
-82.956703 7.768678 -4.366599
-7.904018 0.754108 -2.127493
-9.540421 0.911915 -2.212619
-11.911346 1.142736 -2.325962
-16.098225 1.547244 -2.561458
-24.031141 2.318169 -2.964350
-7.901474 0.780315 -2.127493
-9.539119 0.945404 -2.213068
-11.927029 1.184170 -2.329778
-16.084866 1.602649 -2.560207
-24.022903 2.402035 -2.964350
-7.898702 0.807892 -2.127493
-9.535931 0.977032 -2.213068
-11.926727 1.226195 -2.330541
-16.071604 1.655167 -2.558955
-24.014807 2.481685 -2.964350
-7.892137 0.833675 -2.126457
-9.518898 1.008877 -2.209919
-11.910882 1.264495 -2.328252
-16.081440 1.712935 -2.561458
-23.934938 2.557904 -2.955575
-7.896860 0.862057 -2.128528
-9.509689 1.039798 -2.208570
-11.914203 1.306921 -2.329778
-16.075670 1.766250 -2.561458
-23.926323 2.637262 -2.955575
-7.905166 0.892295 -2.131634
-9.515307 1.077403 -2.210819
-11.913233 1.351022 -2.330541
-16.060921 1.827070 -2.560207
-23.935745 2.731363 -2.958013
-7.863625 0.915416 -2.121281
-9.519231 1.111513 -2.212619
-11.920144 1.393968 -2.332831
-16.058369 1.883583 -2.560833
-23.977324 2.820929 -2.964350
-7.864218 0.943320 -2.122316
-9.513358 1.144505 -2.212169
-11.938596 1.438387 -2.337410
-16.039930 1.938204 -2.558955
-23.967331 2.904604 -2.964350
-61.138229 7.441846 -3.227768
-7.876216 0.972658 -2.126457
-9.497701 1.176269 -2.209469
-11.937399 1.480532 -2.338174
-16.044827 1.995645 -2.560833
-23.858553 2.975968 -2.952163
-61.238712 7.671103 -3.234467
-7.868940 0.999659 -2.125422
-9.491605 1.209167 -2.209019
-11.955528 1.525174 -2.342753
-16.041681 2.052138 -2.561458
-23.820456 3.055697 -2.948751
-7.873064 1.028123 -2.127493
-9.493340 1.241393 -2.210369
-11.922879 1.563327 -2.337410
-16.034788 2.105324 -2.561458
-23.810190 3.134673 -2.948751
-7.854294 1.052172 -2.123352
-9.502468 1.276340 -2.213518
-11.913737 1.602331 -2.336647
-16.023426 2.160755 -2.560833
-23.799105 3.217762 -2.948751
-7.862056 1.081161 -2.126457
-9.505677 1.310567 -2.215318
-11.904181 1.643371 -2.335884
-15.992306 2.213425 -2.557078
-23.815252 3.304636 -2.952163
-53.016670 7.384959 -2.805312
-7.842931 1.106440 -2.122316
-9.477890 1.340466 -2.209919
-11.886709 1.683263 -2.333594
-15.988393 2.269790 -2.557704
-23.756407 3.381035 -2.946313
-52.951023 7.564329 -2.803219
-7.842648 1.135730 -2.123352
-9.477010 1.374101 -2.210819
-11.884346 1.727381 -2.334357
-15.940872 2.322680 -2.551446
-23.791601 3.470818 -2.952163
-52.970371 7.765307 -2.805731
-7.846279 1.164236 -2.125422
-9.487331 1.411118 -2.214418
-11.870477 1.767701 -2.332831
-15.991280 2.387055 -2.560833
-7.830708 1.189876 -2.122316
-9.497760 1.446574 -2.218017
-11.864234 1.809126 -2.332831
-15.951608 2.438090 -2.555827
-23.793629 3.645180 -2.955575
-7.815053 1.215420 -2.119210
-9.500353 1.480922 -2.219817
-11.865605 1.851737 -2.334357
-15.915675 2.489483 -2.551446
-23.753954 3.719764 -2.952163
-7.826242 1.243755 -2.123352
-9.476146 1.509353 -2.215318
-11.863278 1.891694 -2.335121
-15.919036 2.544118 -2.553324
-23.741486 3.798516 -2.952163
-7.816354 1.268773 -2.121799
-9.484552 1.542957 -2.218467
-11.837225 1.929934 -2.331304
-15.891016 2.593709 -2.550195
-45.298485 7.417915 7.270136
-7.817369 1.298362 -2.123352
-44.890812 7.463825 0.794329
-9.473067 1.576750 -2.217118
-11.841691 1.975248 -2.333594
-15.896991 2.654538 -2.552698
-23.615803 3.951932 -2.939976
-45.216446 7.574745 7.261376
-44.720619 7.515756 -2.376576
-7.812557 1.327006 -2.123352
-9.474909 1.612766 -2.218917
-11.823112 2.014590 -2.331304
-15.898836 2.714784 -2.554575
-23.601864 4.034338 -2.939976
-45.174149 7.729868 7.258873
-44.701984 7.673167 -2.376995
-7.815729 1.354225 -2.125422
-9.465669 1.643510 -2.218017
-11.824103 2.055131 -2.332831
-15.862503 2.762740 -2.550195
-42.856812 7.472001 5.341534
-23.658758 4.124858 -2.948751
-42.884285 7.499928 8.462379
-44.735310 7.831695 -2.380135
-7.803585 1.378790 -2.123352
-9.448653 1.672853 -2.215318
-11.828822 2.096386 -2.335121
-15.826024 2.810495 -2.545815
-44.752354 7.987723 -2.382438
-7.812033 1.408422 -2.126975
-9.438921 1.705132 -2.214418
-11.852343 2.143253 -2.341227
-15.820004 2.866422 -2.546440
-23.508287 4.267941 -2.933639
-40.890221 7.431011 6.582450
-40.977943 7.454342 8.096025
-7.816569 1.437428 -2.129563
-9.440576 1.739484 -2.216218
-11.802315 2.176779 -2.332831
-15.786593 2.917324 -2.542686
-40.509396 7.493349 5.058309
-23.473732 4.346356 -2.931202
-40.157032 7.442666 6.468566
-40.928513 7.593040 8.091447
-40.263107 7.484132 9.454693
-7.800111 1.462569 -2.126457
-9.426786 1.770989 -2.214418
-11.821657 2.223040 -2.338174
-15.791844 2.975338 -2.545189
-23.431105 4.423119 -2.927789
-39.381569 7.441226 6.347799
-7.802547 1.491238 -2.128528
-9.428203 1.805347 -2.216218
-11.806111 2.262814 -2.336647
-15.758083 3.025970 -2.541435
-23.415524 4.504882 -2.927789
-38.676449 7.447903 6.238295
-38.870502 7.506380 9.139761
-38.104774 7.365416 -0.677433
-7.797295 1.518463 -2.128528
-9.414193 1.836755 -2.214418
-11.778872 2.300252 -2.332831
-15.739669 3.079441 -2.540183
-40.623516 7.955297 5.082683
-23.302256 4.567494 -2.915602
-37.944626 7.444433 6.124410
-37.516747 7.360487 -3.344863
-38.174831 7.510357 8.982295
-37.447060 7.373976 -0.666193
-7.788157 1.544922 -2.127493
-37.288330 7.403578 0.663575
-9.400079 1.868086 -2.212619
-11.790027 2.345181 -2.336647
-15.721076 3.132820 -2.538932
-37.329540 7.459182 6.029298
-36.783562 7.350085 -3.281762
-37.372524 7.474546 7.408350
-36.913971 7.389535 -1.972961
-37.559872 7.525660 8.843726
-36.828976 7.385891 -0.655652
-7.786504 1.572863 -2.128528
-36.725208 7.425113 0.654011
-9.389681 1.900114 -2.211719
-36.818810 7.457415 1.968774
-11.766375 2.383204 -2.333594
-15.717787 3.189249 -2.540183
-36.851315 7.484087 4.617142
-23.269800 4.730063 -2.915602
-36.664482 7.459469 5.926051
-36.195393 7.364032 -3.231561
-36.946068 7.523474 7.328974
-36.175598 7.373155 -1.934860
-37.166763 7.581927 8.757344
-36.179924 7.387192 -0.644552
-7.773398 1.598477 -2.126457
-9.396351 1.935631 -2.214868
-36.628242 7.552015 1.959982
-11.757984 2.424262 -2.333594
-15.706559 3.244096 -2.540183
-36.778309 7.603032 4.611292
-23.253147 4.811262 -2.915602
-36.123692 7.480854 5.842828
-35.536057 7.365629 -3.175084
-36.050655 7.472291 7.156482
-35.543400 7.373621 -1.902412
-36.144070 7.504813 8.522495
-35.566559 7.391375 -0.634081
-36.352146 7.561261 9.949005
-7.752360 1.623790 -2.122316
-35.447254 7.424691 0.632161
-9.380000 1.966420 -2.212619
-11.760549 2.469762 -2.335884
-15.694564 3.301638 -2.540183
-36.860332 7.754243 4.624942
-23.236212 4.892402 -2.915602
-35.625725 7.507516 5.766488
-34.952579 7.372024 -3.125231
-35.431385 7.479480 7.038945
-34.976795 7.389893 -1.873523
-35.654930 7.539679 8.413619
-34.990780 7.399236 -0.624273
-7.761760 1.654062 -2.126457
-34.903496 7.444432 0.622946
-9.357484 1.997532 -2.209019
-36.672291 7.828393 1.965215
-11.744175 2.509159 -2.334357
-34.834435 7.448772 3.116515
-15.682942 3.356406 -2.540183
-36.796726 7.881817 4.620554
-23.168524 4.962672 -2.909265
-34.776485 7.455424 5.633206
-34.385071 7.377796 -3.076772
-34.894474 7.493467 6.937434
-34.364990 7.386028 -1.842121
-35.660217 7.664410 8.420817
-34.378250 7.395163 -0.613801
-35.165329 7.570894 9.638422
-7.744904 1.677338 -2.123352
-34.261051 7.426277 0.611916
-9.345095 2.027310 -2.207669
-36.646133 7.949952 1.965215
-11.735789 2.548091 -2.334357
-15.671726 3.408391 -2.540183
-22.950214 4.995565 -2.883916
-34.261326 7.463905 5.553737
-33.811459 7.372091 -3.027616
-34.309345 7.486919 6.826002
-33.754929 7.372100 -1.810720
-33.829979 7.394685 -0.604447
-7.746847 1.704672 -2.125422
-33.708961 7.423728 0.602492
-9.366868 2.064580 -2.214418
-11.715772 2.584457 -2.332067
-33.741459 7.449410 3.023084
-15.644908 3.456933 -2.537680
-33.801361 7.475018 4.250559
-22.603146 5.002716 -2.842481
-33.733616 7.472380 5.472391
-33.307011 7.383987 -2.984735
-33.732311 7.478274 6.716095
-33.274033 7.382761 -1.786226
-33.292515 7.399065 -0.595302
-33.981514 7.558414 9.327839
-7.744317 1.733898 -2.126457
-33.198898 7.432998 0.593836
-9.344390 2.093856 -2.210819
-11.694730 2.624798 -2.329778
-33.255154 7.469976 2.981946
-15.647550 3.517717 -2.540183
-33.290874 7.484104 4.189625
-22.283422 5.013610 -2.804458
-33.545452 7.553645 5.446110
-32.775681 7.386313 -2.939415
-33.176090 7.482634 6.610768
-32.693443 7.379780 -1.756499
-36.528419 8.252136 8.645769
-32.845173 7.420053 -0.587762
-33.457478 7.564508 9.191182
-7.711845 1.754919 -2.119210
-32.683987 7.443617 0.585109
-9.336654 2.128091 -2.210819
-38.967751 8.881866 2.094590
-11.677839 2.663858 -2.328252
-32.906437 7.512403 2.953011
-15.627473 3.570557 -2.538932
-32.779434 7.495447 4.128690
-21.916584 5.015539 -2.760585
-32.260288 7.388588 -2.895488
-32.613960 7.475580 6.503916
-32.235317 7.394720 -1.733262
-36.499393 8.379586 8.645769
-32.382496 7.434423 -0.579943
-33.039242 7.591278 9.083513
-7.728260 1.787049 -2.125422
-32.242195 7.455544 0.577640
-9.318154 2.156405 -2.208120
-38.987099 9.029553 2.097311
-11.691420 2.709925 -2.332831
-32.445263 7.526373 2.913965
-15.600151 3.618789 -2.536429
-32.309654 7.500858 4.072630
-21.571119 5.011823 -2.719149
-33.557316 7.802854 5.456748
-31.791862 7.398194 -2.855745
-32.183613 7.489357 6.423013
-31.763224 7.397382 -1.709188
-36.513157 8.510310 8.655666
-7.711007 1.810018 -2.122316
-31.674784 7.440919 0.567936
-9.318158 2.190702 -2.209919
-38.986454 9.172899 2.098986
-11.663259 2.744181 -2.329015
-31.962437 7.526154 2.872828
-15.595116 3.675035 -2.537680
-31.765472 7.491470 4.007308
-21.263695 5.018686 -2.682588
-33.583706 7.932660 5.465508
-31.297907 7.392742 -2.813562
-31.679623 7.488750 6.327609
-31.282406 7.400609 -1.684695
-36.490810 8.639509 8.657466
-31.857603 7.554302 8.772930
-7.712158 1.838716 -2.124387
-31.185688 7.440984 0.559629
-9.314245 2.224118 -2.210819
-39.008587 9.321939 2.101917
-11.645971 2.783055 -2.327488
-15.589878 3.731285 -2.538932
-31.298979 7.496889 3.951736
-21.045284 5.044756 -2.657239
-33.578861 8.055363 5.469263
-30.884428 7.408985 -2.778699
-31.225670 7.496619 6.242126
-30.852448 7.412711 -1.662923
-31.367378 7.542220 7.448129
-31.500486 7.585857 8.681827
-7.694426 1.862900 -2.121281
-30.763056 7.453729 0.552508
-9.298850 2.254781 -2.209019
-38.987453 9.460876 2.102545
-11.647633 2.826468 -2.329778
-30.809406 7.482038 2.773819
-15.557563 3.781017 -2.535803
-30.832838 7.499135 3.896163
-20.992828 5.109732 -2.652852
-33.665691 8.200585 5.488034
-30.413143 7.408301 -2.738608
-30.768240 7.500487 6.155880
-30.387865 7.413381 -1.639267
-30.878937 7.538892 7.338353
-33.386681 8.157315 -0.599909
-7.687876 1.889745 -2.121281
-30.332956 7.461712 0.545248
-9.281461 2.284900 -2.206770
-11.637695 2.867106 -2.329778
-30.384602 7.491289 2.737911
-15.540434 3.834358 -2.535177
-30.386341 7.502978 3.843028
-20.897781 5.163932 -2.643103
-33.610012 8.311413 5.483654
-29.980930 7.413978 -2.702002
-30.509367 7.550305 6.109323
-30.005085 7.431058 -1.620007
-30.477911 7.553812 7.249273
-33.373531 8.277659 -0.600188
-7.681233 1.916570 -2.121281
-29.887659 7.462908 0.537709
-9.280992 2.319172 -2.208570
-38.990208 9.750262 2.106313
-11.623807 2.906760 -2.329015
-29.921455 7.488000 2.698516
-15.503959 3.882822 -2.531423
-29.947903 7.505719 3.790868
-20.698635 5.191458 -2.620191
-33.626778 8.440226 5.491163
-29.029888 7.291797 -2.618681
-30.025841 7.541964 6.017735
-29.072445 7.307888 -1.571021
-29.971334 7.539402 7.134998
-32.087837 8.077763 -0.577570
-7.689139 1.948507 -2.125422
-29.477617 7.469930 0.530797
-9.269060 2.350596 -2.207669
-38.971420 9.890236 2.107150
-11.597852 2.945480 -2.325962
-29.507612 7.499457 2.663654
-15.520255 3.947408 -2.536429
-29.559835 7.518222 3.745045
-20.611130 5.246052 -2.611417
-33.643055 8.569248 5.498672
-29.042871 7.402937 -2.622168
-29.434904 7.508336 5.904776
-29.084169 7.424268 -1.573114
-29.554550 7.549843 7.042318
-32.171814 8.218435 -0.579594
-32.417171 8.287141 8.965492
-7.667322 1.971486 -2.121281
-29.066591 7.479255 0.523886
-9.254722 2.383098 -2.206320
-39.002422 10.043155 2.110709
-11.587500 2.985944 -2.325962
-29.168709 7.521816 2.635415
-15.514032 4.003538 -2.537680
-29.163052 7.531214 3.698247
-20.599453 5.323542 -2.612391
-29.061087 7.510293 4.754044
-28.754517 7.436427 -2.598461
-29.035992 7.514620 5.829978
-28.752588 7.446628 -1.556576
-29.158278 7.557136 6.954137
-28.767004 7.455727 -0.518720
-29.212822 7.576706 8.086542
-7.645439 1.994337 -2.117140
-28.666248 7.477684 0.517115
-9.246769 2.413771 -2.206320
-28.802633 7.523998 1.560135
-11.569407 3.024388 -2.324435
-28.733641 7.516690 2.598461
-15.450983 4.041961 -2.529546
-28.719275 7.518287 3.645113
-20.581686 5.391823 -2.612391
-28.683104 7.519525 4.696476
-28.396914 7.449787 -2.568480
-28.665295 7.520196 5.760524
-28.364559 7.446590 -1.536898
-28.733484 7.548812 6.858757
-28.392689 7.464569 -0.512438
-28.861118 7.593107 7.996474
-7.661196 2.025606 -2.123352
-28.292002 7.485628 0.510832
-9.236403 2.445537 -2.205870
-28.413233 7.528323 1.540457
-11.559315 3.062737 -2.324435
-28.442791 7.541468 2.574406
-15.459691 4.101950 -2.533300
-28.324480 7.520681 3.598315
-20.574251 5.466694 -2.613854
-28.481050 7.572896 4.667692
-28.037016 7.454831 -2.538150
-28.536419 7.592951 5.739916
-27.975552 7.448944 -1.517220
-28.334118 7.549714 6.769677
-28.296900 7.545086 -0.511181
-28.621647 7.637035 7.937463
-7.650347 2.051334 -2.122316
-27.887150 7.482768 0.503991
-9.237221 2.480290 -2.208120
-28.004869 7.524840 1.519732
-11.540970 3.101031 -2.322909
-28.443230 7.647949 2.576847
-15.410943 4.146651 -2.527668
-27.941526 7.523509 3.552979
-20.558876 5.539511 -2.614341
-27.882263 7.517990 4.573832
-27.668407 7.460327 -2.507122
-27.571447 7.444508 -1.496704
-27.946386 7.550978 6.683296
-28.285833 7.647992 -0.511460
-7.624498 2.072958 -2.117140
-27.459513 7.470879 0.496730
-9.220985 2.510472 -2.206320
-27.612297 7.522793 1.499844
-11.549018 3.146456 -2.326725
-15.396375 4.200420 -2.527668
-27.535925 7.517475 3.504719
-20.524096 5.607057 -2.612391
-27.531923 7.526716 4.520644
-27.269356 7.454935 -2.473306
-28.478928 7.790952 5.739153
-27.194693 7.444726 -1.477654
-27.521404 7.539329 6.587916
-28.297535 7.757255 -0.512158
-27.669655 7.590326 7.687961
-7.633977 2.104180 -2.121799
-27.105555 7.476297 0.490797
-9.200895 2.539531 -2.203620
-27.227787 7.520238 1.480375
-11.507685 3.178390 -2.320619
-28.450594 7.863318 2.582425
-15.393042 4.257294 -2.529546
-27.168970 7.519305 3.461333
-20.496744 5.676547 -2.611417
-27.132374 7.519367 4.459321
-26.886044 7.451099 -2.440884
-28.474260 7.896611 5.743732
-26.829826 7.445611 -1.459231
-27.126896 7.533144 6.499736
-28.304966 7.865623 -0.512787
-27.311693 7.594738 7.595822
-7.621003 2.129257 -2.120246
-26.721087 7.470713 0.484304
-9.203235 2.574783 -2.206320
-26.897486 7.530162 1.463837
-11.496520 3.218541 -2.320619
-28.434486 7.965801 2.583471
-15.355263 4.304602 -2.525791
-26.790874 7.515442 3.416485
-20.453873 5.741616 -2.608492
-26.824497 7.534976 4.413017
-26.503090 7.444693 -2.408462
-28.552362 8.025708 5.765103
-26.472977 7.446197 -1.441228
-26.792793 7.541206 6.425952
-28.285034 7.966547 -0.512926
-26.931730 7.590452 7.497471
-7.602372 2.152687 -2.117140
-26.387014 7.476719 0.478720
-9.194190 2.606895 -2.206320
-26.532871 7.528053 1.445415
-11.496549 3.261864 -2.322909
-28.414173 8.067183 2.584168
-15.332541 4.356020 -2.524540
-26.466608 7.524227 3.378462
-20.445160 5.816238 -2.609954
-26.421852 7.521478 4.351068
-26.170341 7.449882 -2.380572
-28.565716 8.137153 5.773499
-26.124138 7.446580 -1.423643
-26.556417 7.574819 6.375563
-28.360893 8.094863 -0.514811
-26.522409 7.575130 7.390837
-7.602620 2.180016 -2.119210
-26.054531 7.475936 0.473135
-9.170511 2.633066 -2.202721
-26.215981 7.532166 1.429504
-11.470572 3.295634 -2.319856
-28.456200 8.181185 2.590443
-15.310420 4.404657 -2.523288
-26.185890 7.538365 3.345801
-20.418131 5.881808 -2.608979
-26.108255 7.525892 4.303513
-25.803427 7.442894 -2.349545
-28.625347 8.256866 5.791053
-25.815298 7.451198 -1.408151
-26.231598 7.576324 6.303578
-26.196505 7.576088 7.306980
-7.594579 2.207866 -2.119210
-25.701845 7.471940 0.467201
-9.153779 2.662883 -2.200921
-25.917219 7.544364 1.414641
-11.481035 3.344242 -2.324435
-29.481884 8.593183 2.686663
-15.332101 4.471802 -2.529546
-25.919300 7.559692 3.315090
-20.389853 5.950820 -2.608004
-25.755686 7.521728 4.249699
-25.490429 7.449090 -2.323398
-29.578514 8.649365 5.990258
-25.473446 7.453779 -1.390985
-25.807171 7.556320 6.208199
-25.854733 7.575152 7.218981
-7.579413 2.232178 -2.117140
-25.413418 7.489215 0.462454
-9.143958 2.696416 -2.200921
-25.506273 7.526257 1.393707
-11.446696 3.377631 -2.319856
-29.455530 8.697170 2.687011
-15.270933 4.511861 -2.522037
-25.590643 7.565719 3.276579
-20.345062 6.018756 -2.605079
-25.409733 7.521879 4.197137
-25.200630 7.459980 -2.299343
-29.597086 8.767053 6.000180
-25.140886 7.451840 -1.374238
-25.392029 7.531100 6.114620
-25.526783 7.580762 7.135124
-7.571574 2.258623 -2.117140
-25.088202 7.488655 0.457009
-9.128888 2.726643 -2.199572
-25.196630 7.530599 1.378215
-11.446123 3.420940 -2.322146
-29.436443 8.803363 2.688057
-15.270229 4.569666 -2.524540
-25.301647 7.576418 3.242944
-20.323929 6.089737 -2.605079
-25.095711 7.524298 4.149581
-24.861448 7.454061 -2.270756
-29.581347 8.874826 6.003233
-24.839262 7.456859 -1.359165
-25.085630 7.535599 6.047134
-25.763199 7.744033 -0.469574
-25.163469 7.568552 7.040914
-7.559946 2.283922 -2.116105
-24.759474 7.484752 0.451494
-9.126775 2.760751 -2.201371
-24.880939 7.526216 1.362305
-11.426595 3.458599 -2.320619
-29.485624 8.930311 2.695378
-15.246623 4.620654 -2.523288
-24.853319 7.536803 3.188833
-20.325344 6.167557 -2.608004
-24.779520 7.519140 4.101399
-24.556936 7.456285 -2.245306
-29.568974 8.983739 6.007049
-24.541733 7.461019 -1.344301
-24.805618 7.545980 5.985948
-32.077496 9.758118 -0.585249
-24.853622 7.565322 6.961197
-7.548233 2.309165 -2.115069
-24.462982 7.483748 0.446537
-9.108253 2.788148 -2.199121
-24.598618 7.534639 1.348279
-11.410699 3.497311 -2.319856
-29.450462 9.032021 2.695030
-15.208554 4.664238 -2.519534
-24.501778 7.519011 3.146910
-20.304779 6.234925 -2.608004
-24.503872 7.529013 4.060101
-24.260334 7.458818 -2.220554
-29.651613 9.116363 6.029946
-24.253420 7.461319 -1.329857
-24.728310 7.612144 5.973350
-32.069992 9.878272 -0.585738
-24.557526 7.568952 6.885623
-7.540534 2.334184 -2.115069
-24.173109 7.487447 0.441720
-9.096602 2.819350 -2.198672
-24.289841 7.532896 1.332788
-11.410290 3.538620 -2.322146
-15.237457 4.731357 -2.527043
-24.198612 7.518495 3.111325
-20.229815 6.289263 -2.601180
-24.179420 7.521793 4.010667
-23.965315 7.455188 -2.195802
-23.945002 7.458037 -1.314365
-24.697866 7.697258 5.972450
-32.104042 10.011590 -0.586994
-24.258018 7.569467 6.809011
-7.532340 2.360492 -2.115069
-23.883509 7.489213 0.436904
-9.088566 2.851667 -2.199121
-24.011866 7.538668 1.318971
-11.375391 3.571372 -2.317566
-29.502346 9.268103 2.705488
-15.198236 4.777405 -2.523288
-23.910898 7.520725 3.077689
-20.211523 6.361038 -2.601667
-23.896770 7.525448 3.968117
-23.680695 7.457403 -2.172095
-28.242800 8.899495 5.755945
-23.659767 7.459897 -1.300130
-24.652262 7.777560 5.967951
-32.068901 10.123587 -0.586994
-23.951445 7.565651 6.730331
-7.518530 2.385018 -2.113516
-23.651375 7.507199 0.433134
-9.072985 2.881606 -2.197772
-23.689777 7.523941 1.302642
-11.355371 3.608680 -2.316040
-29.481209 9.374644 2.706534
-15.173937 4.828032 -2.522037
-23.623468 7.521039 3.044053
-20.181629 6.429140 -2.600692
-23.585592 7.513520 3.920561
-23.403946 7.460147 -2.149086
-23.643991 7.541215 4.824033
-23.393841 7.465929 -1.286941
-24.632391 7.865931 5.969751
-32.084682 10.245691 -0.587902
-23.650192 7.556837 6.652685
-7.513838 2.412429 -2.114552
-23.405489 7.514679 0.429085
-9.072656 2.914657 -2.200021
-23.423790 7.529574 1.289453
-11.353918 3.651902 -2.318329
-29.455894 9.479939 2.707232
-15.116475 4.865011 -2.515154
-23.356537 7.521451 3.012854
-20.137527 6.488725 -2.597767
-23.341133 7.525484 3.884268
-23.172977 7.475733 -2.130261
-23.364750 7.537599 4.772133
-23.114262 7.461251 -1.272915
-24.646969 7.960750 5.979649
-32.094387 10.372385 -0.588739
-23.432505 7.577528 6.598850
-7.509472 2.438524 -2.115587
-23.188934 7.534541 0.425594
-9.038335 2.938477 -2.194173
-23.165649 7.535911 1.276683
-11.345480 3.690746 -2.319093
-29.492498 9.599768 2.713507
-15.069348 4.907960 -2.510148
-23.194244 7.558656 2.995305
-20.133627 6.565128 -2.600204
-23.096882 7.535839 3.847975
-22.882881 7.466017 -2.105857
-23.080742 7.535037 4.719470
-22.852661 7.464983 -1.259936
-25.371065 8.292540 6.162309
-32.099800 10.498037 -0.589507
-23.218637 7.597988 6.546052
-7.504584 2.465931 -2.116622
-22.938334 7.541740 0.421476
-9.024320 2.968788 -2.193273
-22.896370 7.536800 1.263285
-11.306419 3.721735 -2.313750
-29.455025 9.701411 2.713158
-15.037116 4.955583 -2.507645
-23.126245 7.625891 2.989943
-20.103048 6.632880 -2.599230
-22.834085 7.538383 3.808554
-22.606945 7.463395 -2.082848
-22.841784 7.545351 4.675965
-22.602694 7.470747 -1.247585
-25.356766 8.385952 6.165908
-23.385136 7.738420 -0.429958
-22.986572 7.610981 6.488076
-7.492265 2.490893 -2.115587
-22.665199 7.539703 0.416938
-9.021297 3.002733 -2.195072
-22.642532 7.540948 1.250725
-11.297085 3.762420 -2.314513
-29.473907 9.821799 2.718039
-14.997237 5.000548 -2.503890
-23.091951 7.704058 2.988968
-20.008221 6.679128 -2.589967
-22.526588 7.524177 3.761624
-22.353981 7.466525 -2.061930
-22.584415 7.547874 4.628645
-22.349178 7.473592 -1.235024
-32.088306 10.742822 -0.590659
-22.608158 7.573358 6.388690
-7.468876 2.512102 -2.111446
-22.434055 7.549890 0.413168
-9.012609 3.034829 -2.195522
-22.358662 7.533206 1.236489
-11.283883 3.801829 -2.314513
-14.938512 5.038978 -2.497007
-19.984785 6.748925 -2.589967
-22.279358 7.528146 3.724705
-22.123928 7.475627 -2.043105
-22.297554 7.538631 4.575218
-22.103489 7.477318 -1.222882
-25.386206 8.592755 6.187503
-32.084702 10.866312 -0.591288
-22.303476 7.557987 6.310009
-7.452746 2.535669 -2.109375
-22.165257 7.545671 0.408700
-9.003804 3.066897 -2.195972
-22.146963 7.548065 1.226232
-11.251961 3.834861 -2.310697
-29.438562 10.038909 2.721177
-14.793702 5.047716 -2.475732
-23.071421 7.876620 2.993355
-19.961103 6.818649 -2.589967
-22.043592 7.534316 3.689664
-21.871462 7.475483 -2.022187
-22.074196 7.549073 4.534767
-21.880726 7.487180 -1.211996
-25.378180 8.688892 6.192903
-32.095764 10.995086 -0.592195
-22.043041 7.555616 6.243751
-7.452983 2.564812 -2.111964
-21.923235 7.548778 0.404721
-8.980147 3.093864 -2.192823
-21.893894 7.547218 1.213671
-11.249643 3.877954 -2.312987
-29.489981 10.171493 2.729195
-14.622874 5.046478 -2.450077
-23.066301 7.964889 2.996280
-19.937180 6.888285 -2.589967
-21.789389 7.532473 3.651494
-21.656929 7.486683 -2.004756
-21.806507 7.542657 4.485157
-21.616642 7.481208 -1.198807
-25.395576 8.794001 6.204600
-32.094978 11.120156 -0.592893
-21.830355 7.567973 6.190952
-7.438510 2.588909 -2.110410
-21.685247 7.551600 0.400812
-8.956410 3.120704 -2.189673
-21.641104 7.544703 1.201110
-11.239744 3.918494 -2.313750
-29.473112 10.280926 2.730938
-14.478347 5.053228 -2.428802
-23.964167 8.368664 3.116687
-19.883032 6.947356 -2.586068
-21.572763 7.541992 3.619581
-21.397449 7.480701 -1.983142
-21.553961 7.539646 4.438599
-21.390574 7.486677 -1.187712
-25.364721 8.882601 6.204600
-32.093708 11.245346 -0.593591
-21.716299 7.613446 6.166105
-7.423962 2.612933 -2.108858
-21.451277 7.554185 0.396972
-8.952815 3.154537 -2.191473
-21.418739 7.551131 1.190224
-11.203779 3.949869 -2.309170
-29.512201 10.410255 2.737911
-14.337676 5.060349 -2.408153
-23.968502 8.464156 3.121074
-19.832457 7.007460 -2.582655
-21.404760 7.567215 3.595803
-21.175846 7.486287 -1.965013
-21.327620 7.544125 4.397385
-21.160967 7.489331 -1.176408
-25.377649 8.986699 6.215397
-32.084419 11.367985 -0.594150
-21.671381 7.682749 6.160929
-7.416616 2.639479 -2.109375
-21.240164 7.563276 0.393552
-8.939914 3.185118 -2.191023
-21.196594 7.556104 1.179339
-11.189923 3.988953 -2.309170
-21.139845 7.540033 1.963619
-14.171090 5.057247 -2.383123
-23.964983 8.557117 3.124486
-19.774225 7.064624 -2.578268
-21.199644 7.578048 3.565768
-20.946964 7.487725 -1.946188
-21.112600 7.551089 4.358459
-20.939121 7.493171 -1.165522
-25.364473 9.081792 6.219897
-32.085957 11.494748 -0.594918
-21.658978 7.763570 6.165070
-7.400086 2.662736 -2.107305
-20.987856 7.556092 0.389363
-8.930573 3.216965 -2.191473
-20.952131 7.551494 1.167197
-11.157461 4.021333 -2.305354
-20.910978 7.540785 1.944793
-14.004699 5.053048 -2.358093
-23.998451 8.663637 3.132774
-19.779318 7.144397 -2.582168
-20.976139 7.580835 3.532604
-20.725826 7.490371 -1.928059
-20.897795 7.556644 4.319534
-20.706247 7.491467 -1.154008
-20.894600 7.563737 5.130234
-20.708206 7.500351 -0.384442
-20.919771 7.581109 5.962156
-7.392562 2.689210 -2.107822
-20.713310 7.539029 0.384756
-8.904641 3.242785 -2.187874
-20.722977 7.550734 1.155892
-11.169183 4.069663 -2.310697
-20.716059 7.552314 1.929105
-13.864493 5.057227 -2.337444
-20.667395 7.542747 2.701356
-19.731882 7.205226 -2.579243
-20.764009 7.586222 3.501317
-20.512413 7.494300 -1.910628
-20.664772 7.554053 4.276793
-20.484896 7.492352 -1.143122
-20.791208 7.608500 5.111338
-20.527918 7.516212 -0.381579
-20.722670 7.591621 5.913498
-7.394008 2.719000 -2.110928
-20.502949 7.543617 0.381335
-8.889610 3.272500 -2.186974
-20.501577 7.551238 1.145006
-11.147538 4.105914 -2.309170
-20.525055 7.563954 1.913766
-13.720726 5.059119 -2.316169
-20.480774 7.555756 2.680395
-19.680538 7.264436 -2.575831
-20.529861 7.582003 3.466275
-20.299229 7.496826 -1.893197
-20.450438 7.556732 4.237868
-20.286270 7.500093 -1.133492
-20.490366 7.579615 5.043852
-20.329023 7.523966 -0.378368
-20.518501 7.598166 5.862769
-7.371796 2.740083 -2.107305
-20.221592 7.520339 0.376588
-8.887265 3.306908 -2.189224
-20.280430 7.550284 1.134120
-11.122098 4.140692 -2.306881
-20.300619 7.561830 1.895289
-13.591922 5.065595 -2.297397
-20.279436 7.562007 2.657483
-19.617865 7.319208 -2.570956
-20.181257 7.533422 3.411836
-20.090010 7.499360 -1.876114
-20.232662 7.556633 4.198180
-20.057911 7.495350 -1.122188
-20.255695 7.573294 4.992564
-20.115343 7.524820 -0.374878
-20.339876 7.612855 5.819288
-7.363996 2.766476 -2.107822
-20.015522 7.523337 0.373237
-8.875667 3.337913 -2.189224
-20.100668 7.563350 1.125537
-11.114927 4.182253 -2.308407
-20.076448 7.558237 1.876812
-13.496516 5.083764 -2.284256
-20.191620 7.609643 2.649440
-19.584768 7.384841 -2.569981
-19.988497 7.541067 3.383678
-19.862383 7.493487 -1.857289
-20.026161 7.559263 4.160781
-19.855989 7.498993 -1.112349
-20.043198 7.573693 4.946674
-20.049675 7.580134 -0.374145
-20.284267 7.672878 5.811006
-7.341651 2.787364 -2.104199
-19.779768 7.513631 0.369328
-8.862141 3.368180 -2.188774
-19.861326 7.552542 1.113605
-11.070901 4.209862 -2.302302
-19.860003 7.556011 1.859032
-13.438074 5.115381 -2.277373
-20.198324 7.692796 2.653827
-19.532898 7.443269 -2.566569
-19.762711 7.534787 3.349888
-19.661110 7.496050 -1.840904
-19.794207 7.550752 4.118040
-19.646826 7.498466 -1.102091
-19.845510 7.578259 4.904383
-20.058586 7.663636 -0.374808
-20.279015 7.751915 5.817217
-7.326466 2.810899 -2.102646
-19.585403 7.518130 0.366186
-8.832137 3.392107 -2.184275
-19.681965 7.563080 1.105021
-11.067134 4.252707 -2.304591
-19.658695 7.558076 1.842647
-13.434885 5.167932 -2.279876
-20.199137 7.773956 2.657483
-19.499390 7.508549 -2.565594
-19.585138 7.545493 3.324233
-19.456341 7.495872 -1.824170
-19.591867 7.552018 4.081405
-19.437914 7.496565 -1.091833
-19.658945 7.585752 4.864791
-20.059692 7.744414 -0.375331
-20.295082 7.839361 5.829640
-7.327417 2.840647 -2.105752
-19.394978 7.522814 0.363115
-8.822061 3.423623 -2.184725
-19.476707 7.562338 1.094973
-11.059541 4.294154 -2.306118
-19.457619 7.558834 1.826261
-13.398352 5.207641 -2.276747
-20.171879 7.844412 2.657483
-19.365761 7.534821 -2.551457
-19.381960 7.545019 3.294197
-19.270384 7.501585 -1.809179
-19.440990 7.571906 4.055455
-19.229252 7.493303 -1.081575
-19.454411 7.584960 4.820701
-19.984100 7.795495 -0.374424
-20.292791 7.919986 5.836887
-7.326451 2.869730 -2.108340
-19.208483 7.527721 0.360113
-8.804614 3.452260 -2.183375
-19.271700 7.560256 1.084924
-11.015243 4.321262 -2.300012
-19.290161 7.571385 1.813014
-13.289997 5.218998 -2.261417
-20.203497 7.938007 2.665283
-19.150898 7.528297 -2.526595
-19.175350 7.541779 3.263536
-19.069792 7.500262 -1.792794
-19.198868 7.554892 4.010424
-19.054306 7.501847 -1.073201
-19.242878 7.579973 4.774811
-20.060953 7.906261 -0.376379
-20.311749 8.009198 5.850346
-7.300221 2.888888 -2.103681
-18.996162 7.521108 0.356622
-8.799756 3.485846 -2.185175
-19.089224 7.565667 1.076132
-11.000092 4.359686 -2.300012
-19.137674 7.588729 1.801160
-13.207433 5.239861 -2.250467
-20.194117 8.015806 2.667720
-18.984291 7.539412 -2.508071
-19.002047 7.550309 3.238507
-18.873152 7.499094 -1.776757
-19.015482 7.559489 3.977604
-18.857264 7.500407 -1.063571
-19.056965 7.583685 4.735220
-20.061100 7.987335 -0.376902
-20.312380 8.091495 5.858628
-7.281125 2.910766 -2.101093
-18.806404 7.522026 0.353551
-8.792961 3.518714 -2.186524
-18.914368 7.572862 1.067758
-10.977516 4.395136 -2.298485
-18.878029 7.562141 1.779197
-13.159724 5.274174 -2.245461
-20.206549 8.102499 2.673083
-18.803097 7.543552 -2.487597
-18.909580 7.590103 3.227243
-18.687845 7.501101 -1.761766
-18.821369 7.558506 3.942496
-18.679003 7.505123 -1.054988
-18.860416 7.581837 4.692929
-20.072054 8.072982 -0.377635
-20.309105 8.172441 5.865875
-7.274503 2.937612 -2.102129
-18.620577 7.523203 0.350549
-8.749912 3.536968 -2.178876
-18.754505 7.584924 1.060222
-10.965747 4.434900 -2.299248
-18.714844 7.572689 1.766298
-13.130249 5.315628 -2.243583
-20.200216 8.181931 2.676007
-18.600033 7.537568 -2.464198
-18.861002 7.647152 3.223489
-18.502758 7.501903 -1.746775
-18.627495 7.556268 3.907387
-18.489832 7.504182 -1.045777
-18.682165 7.586040 4.655137
-20.065985 8.152030 -0.378054
-20.312666 8.256377 5.875193
-7.258836 2.960799 -2.100575
-18.442387 7.526195 0.347687
-8.746532 3.571173 -2.181125
-18.568903 7.585393 1.051220
-10.946565 4.471669 -2.298485
-18.533377 7.574649 1.751656
-13.118927 5.364419 -2.244835
-20.208279 8.267426 2.680882
-18.430311 7.543795 -2.445187
-18.845163 7.717435 3.225366
-18.321581 7.503019 -1.732133
-18.448406 7.558721 3.875331
-18.300901 7.502016 -1.036566
-18.493303 7.584656 4.614646
-20.079956 8.239484 -0.378857
-20.326612 8.344840 5.887616
-7.255603 2.989061 -2.102646
-18.271795 7.531088 0.344964
-8.739418 3.603911 -2.182475
-18.344234 7.564691 1.039916
-10.927259 4.508353 -2.297722
-18.348440 7.573919 1.736665
-13.100121 5.410183 -2.244835
-22.612043 9.343106 3.004080
-18.236406 7.535130 -2.422763
-18.797562 7.770831 3.221612
-18.159035 7.510582 -1.719234
-18.269526 7.560015 3.843275
-18.138046 7.509312 -1.028820
-18.298801 7.575866 4.572355
-30.649652 12.695502 -0.579071
-21.341074 8.844127 6.189916
-7.224246 3.004204 -2.096434
-18.091635 7.527114 0.342032
-8.732817 3.635119 -2.183825
-18.182600 7.568683 1.032170
-10.894125 4.537016 -2.293906
-18.183449 7.576485 1.723418
-13.067523 5.447512 -2.242332
-22.566277 9.411926 3.002130
-18.068411 7.535960 -2.403751
-18.804504 7.846817 3.227243
-17.968557 7.501672 -1.703546
-18.132038 7.573644 3.819615
-17.954563 7.503190 -1.019819
-18.133329 7.577896 4.537262
-30.636906 12.809415 -0.579629
-21.372223 8.940195 6.207516
-7.221369 3.031134 -2.098505
-17.919077 7.525126 0.339240
-8.711732 3.660285 -2.181576
-17.994043 7.564003 1.022959
-10.871780 4.570078 -2.292379
-18.014971 7.576495 1.709821
-13.038461 5.486219 -2.240455
-22.578852 9.505194 3.007979
-17.913937 7.545044 -2.386689
-18.729670 7.892465 3.219109
-17.795389 7.502432 -1.689601
-17.976572 7.578818 3.792138
-17.789724 7.503696 -1.011863
-17.977497 7.586595 4.504870
-30.643587 12.938059 -0.580607
-7.203096 3.054566 -2.096434
-17.741735 7.523612 0.336378
-8.684550 3.684581 -2.177976
-17.831482 7.569015 1.015213
-10.862185 4.612961 -2.293906
-17.833050 7.577022 1.695179
-13.021901 5.535516 -2.241080
-22.560152 9.590158 3.009929
-17.741352 7.545377 -2.367190
-19.778063 8.415670 3.404327
-17.626104 7.503628 -1.676005
-17.858362 7.606184 3.773057
-17.611433 7.504650 -1.003280
-17.804367 7.590531 4.468428
-30.646067 13.065330 -0.581514
-17.854881 7.615750 5.201228
-7.188839 3.078169 -2.095399
-17.578020 7.530318 0.333795
-8.670986 3.716389 -2.177976
-17.653103 7.569772 1.006630
-10.853235 4.653942 -2.295432
-17.660009 7.576387 1.681234
-12.991609 5.576263 -2.239203
-22.543091 9.680614 3.012367
-17.560369 7.544528 -2.346716
-19.772495 8.499021 3.408707
-17.484484 7.515541 -1.665023
-17.698238 7.611081 3.744818
-17.442028 7.504506 -0.995116
-17.622038 7.585600 4.429286
-30.664093 13.206048 -0.582771
-17.677818 7.616927 5.157746
-7.188690 3.107843 -2.098505
-17.426825 7.537650 0.331421
-8.657962 3.746632 -2.177976
-17.476278 7.566278 0.998047
-10.815305 4.682438 -2.290853
-17.490852 7.576217 1.667638
-12.982939 5.626292 -2.241080
-22.534657 9.770301 3.015779
-17.384592 7.541003 -2.326730
-19.768076 8.578998 3.413088
-17.306446 7.510694 -1.650555
-17.523895 7.608698 3.713525
-17.294823 7.512824 -0.988208
-17.448898 7.583374 4.392394
-30.647152 13.325757 -0.583329
-17.505861 7.615396 5.115300
-7.168944 3.129055 -2.095917
-17.253799 7.534415 0.328629
-8.637688 3.773711 -2.176177
-17.328974 7.574445 0.991138
-10.798893 4.720165 -2.290853
-17.336517 7.581346 1.655436
-12.941505 5.662073 -2.237326
-22.529514 9.861638 3.019679
-17.249062 7.553862 -2.312105
-19.770578 8.662213 3.418719
-17.132307 7.506290 -1.636436
-17.360575 7.609920 3.684522
-17.125822 7.510581 -0.980043
-17.295618 7.588645 4.360451
-30.648058 13.453553 -0.584237
-17.319981 7.606544 5.068713
-7.149138 3.150166 -2.093328
-17.088331 7.533287 0.325976
-8.628027 3.805414 -2.177076
-17.167210 7.575222 0.983393
-10.789536 4.761003 -2.292379
-17.153198 7.572611 1.640445
-12.921660 5.707216 -2.237326
-22.542160 9.961082 3.026016
-17.070082 7.546600 -2.291631
-19.765512 8.742366 3.423100
-16.976627 7.508831 -1.624060
-17.193869 7.608506 3.654756
-16.971663 7.513714 -0.972716
-17.130043 7.587414 4.325359
-17.518097 7.762951 -0.334458
-17.152039 7.604313 5.027301
-7.143395 3.177456 -2.094882
-16.926735 7.532726 0.323393
-8.604010 3.830753 -2.174377
-17.009304 7.576584 0.975856
-10.762091 4.793840 -2.290090
-17.010189 7.580536 1.629289
-12.898050 5.750677 -2.236700
-22.525383 10.047791 3.028453
-16.920364 7.551133 -2.275057
-19.774555 8.829024 3.429982
-16.810228 7.505499 -1.610638
-16.944931 7.569185 3.607435
-16.803099 7.509352 -0.964552
-16.962914 7.584325 4.289817
-30.673862 13.721073 -0.586540
-17.037224 7.624687 5.001420
-7.137547 3.204746 -2.096434
-16.783594 7.539329 0.321159
-8.585254 3.858365 -2.173027
-16.840668 7.572027 0.967692
-10.763196 4.839429 -2.293906
-16.849165 7.579388 1.616390
-12.856284 5.785934 -2.232946
-22.529995 10.144288 3.033816
-16.759968 7.549816 -2.257020
-19.772434 8.910979 3.434988
-16.667677 7.511737 -1.599482
-16.778807 7.565344 3.577669
-16.649343 7.510472 -0.957225
-16.806673 7.584969 4.256974
-30.658583 13.842882 -0.587169
-16.855574 7.614126 4.955867
-7.115759 3.224856 -2.093328
-16.636974 7.543364 0.318855
-8.575283 3.889920 -2.173927
-16.679548 7.569687 0.959946
-10.714059 4.862367 -2.287037
-16.702873 7.583788 1.604886
-12.839605 5.832409 -2.233572
-22.545046 10.245873 3.040640
-16.581720 7.539254 -2.236547
-18.619200 8.469562 3.239758
-16.503521 7.507175 -1.586234
-16.637934 7.571827 3.553246
-16.506693 7.515573 -0.950526
-16.684328 7.599967 4.232679
-30.657387 13.971379 -0.588076
-16.691790 7.610401 4.915492
-7.097431 3.246461 -2.091258
-16.512352 7.556458 0.316971
-8.565195 3.921452 -2.174827
-16.536810 7.574633 0.953247
-10.689881 4.896466 -2.285510
-16.556755 7.587265 1.593381
-12.819168 5.877193 -2.233572
-16.540388 7.586751 2.234353
-16.414576 7.532511 -2.217535
-18.564390 8.522965 3.235378
-16.482950 7.570854 3.525769
-16.358767 7.517272 -0.943513
-16.512506 7.591415 4.195787
-30.655668 14.100026 -0.588984
-16.535255 7.608861 4.877186
-7.079040 3.267978 -2.089187
-16.387842 7.568775 0.315086
-8.549687 3.950507 -2.174377
-16.399191 7.577485 0.946757
-10.662032 4.928808 -2.283221
-16.396351 7.583124 1.580482
-12.777061 5.911951 -2.229817
-16.412924 7.597744 2.220703
-16.254885 7.528030 -2.199498
-18.532440 8.582821 3.234752
-16.321051 7.565593 3.496766
-16.211029 7.518030 -0.936500
-16.348026 7.585032 4.160695
-30.652277 14.221807 -0.589822
-16.397785 7.611597 4.844058
-7.072842 3.295115 -2.090740
-16.322773 7.604499 0.314318
-8.529473 3.975544 -2.172577
-16.245930 7.575602 0.939430
-10.644762 4.965996 -2.283221
-16.261456 7.589748 1.570023
-12.757387 5.954286 -2.229817
-16.261732 7.593338 2.203642
-16.093143 7.518038 -2.180974
-18.534580 8.662510 3.240384
-16.111765 7.533589 -1.556079
-16.182053 7.566454 3.472342
-16.059372 7.512507 -0.929173
-16.220413 7.591292 4.134601
-30.667643 14.359242 -0.591078
-16.248657 7.611425 4.807823
-7.067122 3.321017 -2.092293
-16.299749 7.663128 0.314388
-8.506727 4.001149 -2.170328
-16.094206 7.569929 0.932104
-10.628235 5.001268 -2.283221
-16.135250 7.596108 1.560262
-12.734736 5.997943 -2.229504
-16.120201 7.595902 2.188042
-15.937524 7.513219 -2.163425
-16.045458 7.570952 3.448682
-15.921071 7.515654 -0.922683
-16.059895 7.584619 4.100408
-30.670485 14.484775 -0.592055
-16.108046 7.610797 4.773658
-7.041523 3.339043 -2.088152
-16.299543 7.729134 0.314876
-8.503977 4.034346 -2.173027
-15.944990 7.567829 0.924986
-10.592979 5.029914 -2.279404
-15.989861 7.595961 1.548757
-12.716562 6.040985 -2.229817
-15.983762 7.596487 2.172930
-15.776272 7.501245 -2.144901
-18.485889 8.793567 3.242261
-15.799253 7.518939 -1.530803
-15.910356 7.571814 3.425022
-15.782454 7.514319 -0.916089
-15.916779 7.581686 4.070265
-30.666674 14.614115 -0.592963
-15.969777 7.613766 4.740530
-7.026339 3.361934 -2.087117
-16.274712 7.790554 0.314946
-8.475071 4.058754 -2.169428
-15.819880 7.579613 0.919333
-10.557652 5.058377 -2.275588
-15.830296 7.588006 1.535859
-12.697898 6.089262 -2.230443
-15.841269 7.600062 2.157331
-15.637713 7.505765 -2.129789
-18.482027 8.874938 3.247267
-15.650780 7.515393 -1.518950
-15.809942 7.595218 3.409375
-15.653995 7.523667 -0.910227
-15.792292 7.593524 4.045520
-30.648943 14.743753 -0.593661
-15.816429 7.611933 4.703260
-7.019780 3.388960 -2.088670
-16.236616 7.842093 0.314737
-8.459098 4.087465 -2.168978
-15.685437 7.582635 0.913053
-10.504579 5.078110 -2.267956
-15.699681 7.592901 1.525748
-12.644558 6.118062 -2.224811
-15.707436 7.603422 2.142707
-15.504222 7.508389 -2.115165
-18.486488 8.956625 3.253524
-15.531214 7.524806 -1.509886
-15.760365 7.639230 3.404414
-15.523409 7.527716 -0.904156
-15.653478 7.594165 4.016726
-30.662054 14.882081 -0.594918
-15.675066 7.611403 4.669096
-6.995750 3.407522 -2.085046
-16.227119 7.907483 0.315086
-8.450034 4.119530 -2.170328
-15.572706 7.595314 0.908029
-10.425030 5.084625 -2.254599
-15.551322 7.588245 1.513895
-12.630225 6.165629 -2.226063
-15.559508 7.598964 2.126133
-15.381606 7.515405 -2.102003
-18.483509 9.034982 3.258530
-15.386713 7.521227 -1.498381
-15.723022 7.689020 3.402124
-15.367863 7.518660 -0.896620
-15.525352 7.599074 3.990632
-30.663799 15.015407 -0.595965
-15.537374 7.611677 4.635967
-6.997684 3.438737 -2.089187
-16.809566 8.264043 0.326953
-8.425110 4.143841 -2.167628
-15.449327 7.602010 0.902377
-10.350847 5.093247 -2.242388
-15.406761 7.584405 1.502391
-12.601538 6.206189 -2.224811
-15.415361 7.595325 2.110046
-15.230640 7.507615 -2.084941
-18.494375 9.120419 3.266039
-15.265655 7.528190 -1.489143
-15.713693 7.752543 3.405941
-15.243022 7.523640 -0.890863
-15.421850 7.615257 3.970836
-30.654230 15.143601 -0.596803
