# This PCD file was generated using the MATLAB® pcwrite function
# from Computer Vision Toolbox®.
# .PCD v.7 - Point Cloud Data file format
VERSION .7
FIELDS x y z
SIZE 4 4 4
TYPE F F F
COUNT 1 1 1
WIDTH 1572
HEIGHT 1
VIEWPOINT 0 0 0 1 0 0 0
POINTS 1572
DATA ascii
-12.001464 -7.569433 2.247338
-12.128419 -7.649504 -1.254520
-12.012166 -7.573248 2.760243
-12.133701 -7.646918 -0.751649
-11.995234 -7.556728 3.273038
-12.125795 -7.636019 -0.250128
-11.974002 -7.537515 3.791182
-1.047139 -0.657379 -0.331288
-12.156405 -7.628656 0.250512
-6.720490 -4.215757 -1.831551
-12.149329 -7.618306 0.751544
-8.233324 -5.162753 -1.889009
-12.173368 -7.630419 1.256960
-9.953214 -6.236379 -1.860319
-12.074236 -7.562413 1.749313
-12.316157 -7.710942 -1.784167
-12.104840 -7.575700 2.261730
-12.209091 -7.640944 -1.260098
-12.071815 -7.552099 2.767875
-12.214510 -7.638404 -0.754999
-12.081026 -7.551996 3.289234
-12.216816 -7.633915 -0.251454
-12.085442 -7.548891 3.818099
-1.069105 -0.665977 -0.337500
-12.245767 -7.625287 0.251803
-6.746746 -4.199481 -1.834701
-12.228419 -7.608560 0.754789
-8.257964 -5.138130 -1.890536
-12.257451 -7.623656 1.262887
-9.959823 -6.192214 -1.857503
-12.178117 -7.568419 1.760525
-12.353116 -7.674189 -1.785630
-12.171486 -7.558410 2.269239
-12.310163 -7.644528 -1.267767
-12.151479 -7.543048 2.780087
-12.288616 -7.625205 -0.757929
-12.166932 -7.546758 3.305431
-12.290976 -7.620729 -0.252432
-12.147842 -7.529047 3.829487
-1.063206 -0.657162 -0.334912
-12.319943 -7.611925 0.252781
-6.758048 -4.173855 -1.833801
-12.310987 -7.600451 0.758243
-8.302578 -5.125774 -1.896641
-12.322984 -7.604892 1.266896
-9.386228 -5.790265 -1.746747
-12.234875 -7.544617 1.764912
-12.464319 -7.683106 -1.797817
-12.238157 -7.540747 2.276747
-12.362216 -7.617188 -1.270382
-12.241258 -7.539710 2.794589
-12.381487 -7.623105 -0.762012
-12.226394 -7.524670 3.314429
-12.368599 -7.609213 -0.253479
-12.210254 -7.508862 3.840875
-1.070434 -0.656477 -0.336465
-12.389059 -7.595002 0.253653
-6.782546 -4.156349 -1.836500
-12.395346 -7.592905 0.761802
-8.340508 -5.109069 -1.901221
-12.391935 -7.587837 1.271254
-10.112325 -6.189559 -1.877840
-12.332253 -7.545380 1.775149
-12.504612 -7.647833 -1.799767
-12.311596 -7.526832 2.285508
-12.446527 -7.609324 -1.276309
-12.327806 -7.533792 2.808327
-12.462564 -7.613153 -0.765361
-12.329091 -7.528663 3.335124
-12.463357 -7.607670 -0.254875
-12.292459 -7.500405 3.858474
-1.084272 -0.659766 -0.340088
-12.483835 -7.593273 0.255049
-6.803672 -4.136699 -1.838300
-12.478097 -7.583822 0.765256
-8.378424 -5.092160 -1.905800
-12.489863 -7.587984 1.278575
-10.118672 -6.144996 -1.875024
-12.406030 -7.531128 1.781974
-12.636452 -7.667986 -1.814878
-12.432374 -7.541184 2.303029
-12.546259 -7.610264 -1.283804
-12.404394 -7.521247 2.819776
-12.538596 -7.599626 -0.768397
-12.415295 -7.521935 3.351321
-12.549705 -7.600371 -0.256097
-12.358229 -7.481462 3.870898
-1.099798 -0.663965 -0.344229
-12.566764 -7.583749 0.256201
-6.826415 -4.117957 -1.840549
-12.564359 -7.576313 0.768920
-8.382698 -5.054770 -1.902747
-12.577703 -7.581370 1.284850
-10.221275 -6.158572 -1.890041
-12.462853 -7.506210 1.786361
-12.707356 -7.650453 -1.821216
-12.489087 -7.516075 2.308660
-12.622255 -7.596217 -1.288859
-12.487771 -7.512311 2.832751
-12.609548 -7.582576 -0.771118
-12.468200 -7.494615 3.358519
-12.636150 -7.592565 -0.257318
-12.480321 -7.495973 3.900921
-1.107082 -0.663100 -0.345782
-12.644629 -7.570653 0.257248
-6.840747 -4.094103 -1.840549
-12.638718 -7.561122 0.771851
-8.405346 -5.028504 -1.903892
-12.662228 -7.572186 1.290776
-10.449566 -6.246509 -1.928211
-12.560547 -7.505429 1.796598
-12.740801 -7.610121 -1.822191
-12.545778 -7.490659 2.314292
-12.708570 -7.587856 -1.294960
-12.567863 -7.500874 2.844962
-12.709693 -7.582515 -0.775619
-12.571278 -7.496958 3.379215
-12.708952 -7.576058 -0.258261
-12.559516 -7.484007 3.917485
-1.102746 -0.655284 -0.343712
-12.734592 -7.564255 0.258540
-6.868402 -4.078159 -1.844149
-12.726866 -7.553656 0.775619
-8.416094 -4.995124 -1.902366
-12.739988 -7.558438 1.296006
-10.484900 -6.218056 -1.930714
-12.631067 -7.487857 1.802935
-12.852676 -7.616200 -1.834378
-12.646629 -7.491120 2.328058
-12.784688 -7.572897 -1.300015
-12.651406 -7.490967 2.857937
-12.789367 -7.569639 -0.778864
-12.661102 -7.490740 3.396311
-12.795564 -7.567278 -0.259482
-12.608849 -7.453881 3.924732
-1.116676 -0.658298 -0.347335
-12.809155 -7.548185 0.259517
-6.889312 -4.058115 -1.845948
-12.815114 -7.545667 0.779387
-8.430096 -4.963725 -1.901603
-12.817806 -7.544239 1.301235
-10.508244 -6.182420 -1.931027
-12.725573 -7.483974 1.812685
-12.896296 -7.581348 -1.836815
-12.747637 -7.490963 2.341824
-12.867731 -7.561535 -1.305767
-12.748576 -7.488522 2.873965
-12.886326 -7.566412 -0.783155
-12.717424 -7.464255 3.404409
-12.887441 -7.561018 -0.260809
-12.711446 -7.454777 3.948544
-1.122303 -0.656347 -0.348370
-12.907934 -7.545809 0.260983
-6.910166 -4.037974 -1.847748
-12.891387 -7.530104 0.782423
-8.438894 -4.929318 -1.899694
-12.909445 -7.537626 1.307859
-10.454694 -6.101889 -1.917261
-12.816772 -7.477524 1.821947
-13.145605 -7.666291 -1.868501
-12.814666 -7.470296 2.349333
-12.801780 -7.459791 2.880071
-15.976007 -9.305726 -0.968948
-12.824238 -7.466883 3.426004
-12.934497 -7.528054 -0.261228
-12.794163 -7.443393 3.966143
-1.132942 -0.657272 -0.350959
-12.986092 -7.530801 0.262030
-6.925904 -4.014808 -1.848198
-12.976351 -7.519101 0.785981
-8.420378 -4.879158 -1.891680
-13.001192 -7.530465 1.314483
-10.460543 -6.056452 -1.914445
-12.904650 -7.468532 1.830721
-13.189468 -7.630298 -1.870938
-12.888543 -7.453210 2.358093
-12.922925 -7.470079 2.901442
-12.883972 -7.441568 3.435003
-32.117725 -18.543179 -0.647345
-12.897035 -7.443107 3.989954
-1.136904 -0.654277 -0.351476
-6.960148 -4.002264 -1.853597
-8.454378 -4.859519 -1.895497
-32.182388 -18.490757 3.247249
-10.543286 -6.055317 -1.925708
-12.985731 -7.455067 1.838521
-13.240126 -7.598046 -1.874351
-12.986450 -7.449454 2.371234
-20.595379 -11.814186 -2.077270
-13.000016 -7.454221 2.912890
-12.980888 -7.437234 3.453899
-12.976585 -7.428758 4.006519
-1.124081 -0.641685 -0.346818
-32.324059 -18.444799 0.649613
-6.974077 -3.977942 -1.853597
-8.472996 -4.830953 -1.895878
-32.333286 -18.427631 3.255964
-10.593540 -6.035098 -1.931027
-13.046174 -7.429342 1.843396
-13.270018 -7.553747 -1.874838
-13.090049 -7.451303 2.385626
-13.083979 -7.441802 2.925865
-13.077929 -7.432317 3.472794
-13.054903 -7.416217 4.023083
-1.148168 -0.650131 -0.353547
-7.012669 -3.969194 -1.860345
-8.491515 -4.802313 -1.896260
-10.632409 -6.010631 -1.934469
-13.136412 -7.423150 1.852658
-13.336475 -7.533131 -1.880688
-13.146944 -7.423044 2.391258
-13.149618 -7.421531 2.935024
-13.153427 -7.417624 3.486291
-15.895668 -8.960402 -0.318506
-13.137933 -7.402848 4.040683
-1.141897 -0.641589 -0.350959
-32.623211 -18.322271 0.653104
-7.019684 -3.940875 -1.858546
-8.495410 -4.767402 -1.893589
-10.655049 -5.974446 -1.934782
-13.231510 -7.416071 1.862407
-13.425035 -7.521461 -1.889462
-13.245163 -7.417645 2.404398
-13.226836 -7.404354 2.946473
-13.267679 -7.421133 3.509686
-6.009210 -3.348806 -1.843309
-7.036803 -3.918243 -1.859445
-8.493130 -4.727216 -1.889391
-10.701735 -5.951618 -1.939475
-13.319777 -7.404562 1.871182
-13.510206 -7.507333 -1.897750
-13.340047 -7.409736 2.416913
-13.369321 -7.422943 2.972423
-13.337808 -7.399357 3.521384
-6.027625 -3.331548 -1.845380
-7.064085 -3.901193 -1.863045
-8.485515 -4.684258 -1.884048
-10.774335 -5.942847 -1.948861
-13.394217 -7.384861 1.878007
-13.668458 -7.532950 -1.916274
-13.435040 -7.401252 2.429428
-13.439866 -7.400849 2.982345
-13.418190 -7.382815 3.535781
-42.358917 -23.296633 -0.843824
-6.032442 -3.306773 -1.843309
-7.086205 -3.881193 -1.865294
-8.488040 -4.647066 -1.880995
-10.817541 -5.917527 -1.952928
-13.520934 -7.393297 1.892144
-13.750411 -7.515658 -1.924073
-13.516264 -7.384620 2.439439
-13.524199 -7.385887 2.995320
-13.515726 -7.375136 3.554677
-42.376774 -23.114168 -0.842567
-6.037159 -3.282003 -1.841239
-7.116834 -3.865736 -1.869793
-8.518011 -4.624902 -1.884048
-10.850286 -5.886325 -1.955118
-13.612970 -7.382014 1.901406
-13.839388 -7.501669 -1.932848
-13.625328 -7.382561 2.454457
-13.622404 -7.377902 3.011348
-21.317287 -11.540644 -1.270403
-13.603087 -7.361300 3.570873
-6.070684 -3.272829 -1.847968
-7.119991 -3.835322 -1.867094
-8.563489 -4.610966 -1.890536
-14.016049 -7.543713 1.392574
-10.884686 -5.855899 -1.957621
-13.684112 -7.358894 1.907743
-13.928433 -7.487154 -1.941623
-13.713658 -7.368614 2.465720
-13.696503 -7.356316 3.022033
-21.427828 -11.503957 -1.274590
-13.697386 -7.350631 3.588869
-6.085479 -3.253440 -1.849003
-7.143648 -3.815956 -1.869793
-8.602045 -4.593066 -1.895497
-14.077454 -7.513501 1.396061
-10.887631 -5.808570 -1.954492
-13.765765 -7.340977 1.915542
-14.017550 -7.472102 -1.950397
-13.784624 -7.344851 2.473855
-13.798340 -7.349072 3.038824
-21.534849 -11.464748 -1.278567
-13.767689 -7.326576 3.600567
-6.095092 -3.231273 -1.848486
-7.163814 -3.794646 -1.871593
-8.597206 -4.551988 -1.890917
-14.184600 -7.507187 1.404079
-10.928794 -5.781617 -1.958247
-13.857990 -7.328143 1.924805
-14.068117 -7.436113 -1.953810
-13.887025 -7.337296 2.487621
-13.900294 -7.341199 3.055615
-13.872459 -7.320311 3.621262
-6.101203 -3.207282 -1.846933
-7.183916 -3.773241 -1.873392
-8.621735 -4.526510 -1.892825
-14.224831 -7.465038 1.405474
-10.966402 -5.752609 -1.961376
-14.006553 -7.344250 1.941866
-14.178380 -7.431196 -1.965509
-13.993042 -7.330944 2.502013
-13.988448 -7.325421 3.069354
-13.970448 -7.309787 3.640158
-6.119215 -3.189535 -1.849003
-7.205685 -3.752643 -1.875642
-8.627034 -4.490950 -1.890536
-14.218987 -7.398783 1.402336
-10.984662 -5.713382 -1.961063
-14.070850 -7.315461 1.947229
-14.338103 -7.451228 -1.984033
-14.064127 -7.305727 2.510148
-14.485826 -7.524782 -1.428134
-14.080142 -7.310930 3.083855
-14.541587 -7.547307 -0.858624
-14.071992 -7.300459 3.659954
-14.537109 -7.538544 -0.285836
-6.144041 -3.175251 -1.853144
-14.566699 -7.524879 0.286185
-7.218741 -3.727466 -1.875642
-8.625213 -4.451804 -1.886719
-14.294305 -7.374682 1.407217
-11.036141 -5.691300 -1.966694
-14.159822 -7.299043 1.956003
-14.434611 -7.437502 -1.993783
-14.194910 -7.310861 2.528920
-14.476577 -7.455929 -1.424648
-14.192852 -7.306667 3.102936
-14.493255 -7.458118 -0.854228
-14.170171 -7.288734 3.678849
-14.527769 -7.469467 -0.285137
-6.156806 -3.154666 -1.853662
-14.543042 -7.448462 0.285207
-7.236912 -3.704909 -1.876992
-14.599040 -7.470706 0.859461
-8.623222 -4.412725 -1.882903
-14.401555 -7.366477 1.415235
-11.124535 -5.687813 -1.978896
-14.277131 -7.296547 1.968678
-14.471093 -7.392490 -1.995245
-14.280160 -7.291810 2.539557
-14.484770 -7.396289 -1.422905
-14.249746 -7.273145 3.109805
-14.494293 -7.394775 -0.852762
-14.254553 -7.269328 3.694146
-14.532374 -7.407811 -0.284719
-6.181559 -3.140156 -1.857803
-14.558257 -7.392215 0.284998
-7.258489 -3.684034 -1.879241
-14.601871 -7.407956 0.858100
-8.621063 -4.373717 -1.879087
-14.512478 -7.359415 1.423602
-11.190132 -5.672167 -1.987031
-14.376883 -7.284351 1.978915
-14.567646 -7.377806 -2.004995
-14.372498 -7.275821 2.551446
-14.547829 -7.364579 -1.426565
-14.397671 -7.285408 3.136518
-14.541406 -7.354952 -0.854018
-14.370274 -7.265246 3.717541
-14.540297 -7.348019 -0.284369
-6.187307 -3.115952 -1.856250
-14.578615 -7.338655 0.284893
-7.286972 -3.666560 -1.883290
-14.593742 -7.339887 0.856112
-8.632771 -4.341831 -1.878324
-14.605721 -7.342717 1.430226
-11.241633 -5.649039 -1.992663
-14.476728 -7.271540 1.989152
-14.689110 -7.375008 -2.018157
-14.482551 -7.268140 2.566464
-14.632210 -7.343247 -1.432317
-14.475659 -7.261515 3.147967
-14.643762 -7.342643 -0.858519
-14.433874 -7.234253 3.727439
-14.635586 -7.332151 -0.285731
-6.205060 -3.097786 -1.858321
-14.677501 -7.324332 0.286324
-7.310189 -3.646320 -1.885990
-14.651448 -7.304941 0.857996
-8.637333 -4.306415 -1.876034
-14.677624 -7.314798 1.434758
-11.268356 -5.613287 -1.993914
-14.573102 -7.256354 1.998901
-14.750304 -7.341381 -2.023031
-14.592728 -7.259772 2.581482
-14.739813 -7.332945 -1.440336
-14.588814 -7.254649 3.167048
-14.742629 -7.327933 -0.862811
-14.577715 -7.242784 3.758032
-14.748849 -7.324601 -0.287441
-6.226224 -3.081249 -1.861427
-14.765711 -7.304085 0.287546
-7.324620 -3.621642 -1.886440
-14.775335 -7.302428 0.863753
-8.639992 -4.270151 -1.873363
-14.820965 -7.321761 1.446262
-11.321536 -5.590534 -1.999858
-14.694464 -7.252888 2.012063
-14.864852 -7.333763 -2.035218
-14.685305 -7.241990 2.593371
-14.842157 -7.319341 -1.447831
-14.680964 -7.236669 3.181550
-14.841576 -7.312619 -0.867102
-14.658851 -7.219405 3.772429
-14.838913 -7.304872 -0.288698
-6.240410 -3.061199 -1.862462
-14.880893 -7.296518 0.289291
-7.347716 -3.601200 -1.889139
-14.862241 -7.284155 0.867416
-8.658371 -4.241693 -1.874126
-14.832121 -7.262969 1.444868
-11.372917 -5.566614 -2.005490
-14.780320 -7.231213 2.020350
-14.965261 -7.318453 -2.045455
-14.801516 -7.238377 2.609640
-14.951743 -7.308614 -1.456024
-14.787276 -7.225023 3.199104
-14.953156 -7.302835 -0.872127
-14.792535 -7.221198 3.800323
-14.954701 -7.300362 -0.290478
-6.264956 -3.046154 -1.866603
-14.994927 -7.290851 0.291036
-7.368381 -3.581073 -1.891388
-14.968418 -7.271503 0.872127
-8.643101 -4.196865 -1.867638
-14.896813 -7.230293 1.448703
-11.393091 -5.529732 -2.005803
-14.897091 -7.227215 2.033025
-15.064463 -7.305168 -2.055692
-14.890684 -7.217687 2.620903
-15.057852 -7.295470 -1.463868
-14.906563 -7.222171 3.219711
-15.047397 -7.287158 -0.876209
-14.862006 -7.194180 3.812021
-15.050297 -7.282083 -0.291839
-6.266323 -3.021167 -1.864015
-15.092340 -7.273192 0.292433
-7.393126 -3.561250 -1.894538
-15.076488 -7.259065 0.876941
-8.660509 -4.169884 -1.868402
-14.981748 -7.210229 1.454629
-11.463948 -5.514762 -2.014876
-14.990211 -7.207859 2.042287
-15.182910 -7.297253 -2.068367
-15.008376 -7.210145 2.637173
-15.157389 -7.281731 -1.471189
-14.995395 -7.200687 3.233449
-15.168173 -7.280397 -0.881756
-15.006504 -7.199577 3.842614
-15.154961 -7.267549 -0.293375
-6.287289 -3.004274 -1.867121
-15.189816 -7.254935 0.293829
-7.417823 -3.541299 -1.897687
-15.168427 -7.238223 0.880814
-8.653749 -4.129483 -1.863822
-15.103933 -7.204207 1.464042
-11.495609 -5.480662 -2.017066
-15.097712 -7.194776 2.053499
-15.244134 -7.261284 -2.073241
-15.119063 -7.198472 2.652190
-15.260069 -7.265607 -1.478684
-15.112622 -7.192166 3.253294
-15.278263 -7.267730 -0.886676
-15.091381 -7.175602 3.857911
-15.266930 -7.255800 -0.295050
-6.306468 -2.986442 -1.869709
-15.303612 -7.243789 0.295539
-7.430138 -3.515386 -1.897687
-15.309157 -7.239874 0.887513
-8.646814 -4.089177 -1.859243
-15.211848 -7.190608 1.472061
-11.507526 -5.437129 -2.015815
-15.180176 -7.169154 2.061298
-15.369914 -7.255482 -2.086891
-15.186973 -7.165886 2.659699
-15.377230 -7.255658 -1.487574
-15.212213 -7.174546 3.269321
-15.379415 -7.250123 -0.891072
-15.243258 -7.182690 3.890303
-15.388045 -7.247628 -0.296900
-6.318603 -2.965230 -1.870227
-15.404841 -7.225996 0.297005
-7.445893 -3.491083 -1.898587
-15.395825 -7.215208 0.891072
-8.668147 -4.062301 -1.860770
-15.323458 -7.178036 1.480427
-11.538959 -5.402787 -2.018005
-15.356133 -7.186803 2.081772
-15.423914 -7.215248 -2.090791
-15.333575 -7.169722 2.680974
-15.490902 -7.243286 -1.496115
-15.350993 -7.174602 3.293745
-15.496913 -7.239510 -0.896410
-15.296492 -7.142625 3.897502
-15.489356 -7.229390 -0.298366
-6.337673 -2.947230 -1.872815
-15.522453 -7.215167 0.298785
-7.475707 -3.473279 -1.903086
-15.511489 -7.203487 0.896306
-8.705421 -4.042770 -1.865731
-15.453238 -7.173157 1.490538
-11.590002 -5.377440 -2.023637
-15.427948 -7.154874 2.088109
-15.301324 -7.092906 -2.070804
-15.423033 -7.146050 2.692237
-15.606480 -7.231047 -1.504831
-15.440077 -7.150679 3.307483
-15.607277 -7.224801 -0.901330
-15.427448 -7.138287 3.924496
-15.605247 -7.217248 -0.300112
-15.589060 -7.206459 4.601803
-6.346167 -2.924281 -1.872297
-15.645623 -7.206112 0.300670
-7.493096 -3.449610 -1.904436
-15.616372 -7.186034 0.900911
-8.771200 -4.036158 -1.876797
-15.557829 -7.155800 1.498207
-11.617675 -5.341079 -2.025201
-15.546623 -7.144077 2.100784
-15.437834 -7.090818 -2.085916
-15.534055 -7.131731 2.707255
-15.707675 -7.211441 -1.512152
-15.557730 -7.139318 3.327327
-15.715911 -7.208581 -0.906145
-15.537301 -7.123374 3.946092
-15.704875 -7.196890 -0.301543
-6.354579 -2.901309 -1.871779
-15.737994 -7.182173 0.301962
-7.517503 -3.429094 -1.907585
-15.737679 -7.175393 0.906459
-8.915640 -4.064971 -1.904655
-15.644353 -7.129545 1.504134
-11.629057 -5.297217 -2.023949
-15.683480 -7.140766 2.115896
-15.668467 -7.130624 -2.113702
-15.663142 -7.124907 2.725402
-15.812549 -7.192869 -1.519822
-15.668342 -7.123967 3.345645
-15.831893 -7.194995 -0.911378
-15.833690 -7.189145 -0.303532
-6.384029 -2.887867 -1.877473
-15.861362 -7.171681 0.303846
-7.534753 -3.405239 -1.908935
-15.857278 -7.163169 0.911902
-8.983450 -4.058072 -1.916104
-15.788993 -7.129005 1.515638
-11.706894 -5.283407 -2.034274
-15.769835 -7.113725 2.124183
-15.772884 -7.111793 -2.124427
-15.770760 -7.107523 2.739793
-15.951996 -7.189202 -1.530803
-15.789774 -7.112773 3.366252
-15.937041 -7.175771 -0.915984
-15.944402 -7.172388 -0.305173
-6.395834 -2.866355 -1.877991
-15.977548 -7.157145 0.305592
-7.551930 -3.381308 -1.910284
-15.971514 -7.147750 0.917031
-9.028025 -4.040322 -1.922591
-15.915628 -7.119406 1.525400
-11.683790 -5.223962 -2.027078
-15.896060 -7.103994 2.137832
-15.822988 -7.068026 -2.127839
-15.903701 -7.100746 2.758566
-16.064322 -7.172461 -1.539171
-15.940003 -7.113623 3.392966
-16.060490 -7.164033 -0.921636
-16.071627 -7.162275 -0.307127
-6.421691 -2.851067 -1.882650
-16.108444 -7.148378 0.307616
-7.563687 -3.354924 -1.910284
-16.080355 -7.129191 0.921846
-9.051046 -4.012762 -1.924500
-16.027817 -7.102556 1.533767
-11.730851 -5.195949 -2.032084
-16.026039 -7.095073 2.151969
-15.836670 -7.007934 -2.126376
-15.993426 -7.073958 2.769829
-16.191298 -7.161478 -1.548932
-16.018604 -7.081753 3.404414
-16.185879 -7.152323 -0.927393
-16.173361 -7.140049 -0.308593
-6.420994 -2.823969 -1.879544
-16.221169 -7.130732 0.309292
-7.600330 -3.339476 -1.916583
-16.209375 -7.118798 0.927812
-9.052415 -3.975620 -1.921828
-16.125488 -7.078594 1.540739
-11.806803 -5.180367 -2.042096
-16.108883 -7.064600 2.159769
-15.861037 -6.952606 -2.126376
-16.130198 -7.067236 2.789227
-16.296492 -7.140096 -1.556602
-16.129549 -7.063597 3.422732
-16.309546 -7.139030 -0.933046
-16.295292 -7.126014 -0.310443
-6.441439 -2.806167 -1.882650
-16.335800 -7.113180 0.311002
-7.619088 -3.316038 -1.918383
-16.322039 -7.100416 0.932836
-9.066237 -3.943996 -1.921828
-16.270691 -7.074697 1.552244
-11.839307 -5.145420 -2.044599
-16.257254 -7.062113 2.176343
-15.659424 -6.799164 -2.096153
-16.263496 -7.058073 2.807999
-16.420013 -7.125998 -1.566014
-16.240561 -7.044752 3.441050
-16.433317 -7.124958 -0.938698
-16.424660 -7.114394 -0.312433
-6.454743 -2.785194 -1.883685
-16.448669 -7.094126 0.312677
-7.628826 -3.288650 -1.917933
-16.445774 -7.086071 0.938488
-9.123222 -3.930968 -1.930987
-16.364822 -7.047805 1.558868
-11.886225 -5.116561 -2.049605
-16.372980 -7.044545 2.188530
-16.219202 -6.975027 -2.167812
-16.367886 -7.035587 2.821765
-16.539968 -7.109555 -1.575078
-16.405752 -7.048467 3.470816
-16.546179 -7.105379 -0.943722
-16.548630 -7.099591 -0.314318
-6.480414 -2.769479 -1.888344
-16.594702 -7.088514 0.314981
-7.642053 -3.262766 -1.918383
-16.567768 -7.070168 0.944036
-9.167585 -3.912197 -1.937475
-16.550594 -7.059430 1.574207
-11.918552 -5.081234 -2.052108
-16.510696 -7.035597 2.203642
-16.320158 -6.951044 -2.178049
-16.519573 -7.032568 2.843666
-16.682011 -7.101719 -1.586234
-16.495289 -7.018829 3.484554
-16.659098 -7.085102 -0.948746
-16.678217 -7.086355 -0.316307
-6.493599 -2.748348 -1.889379
-16.713270 -7.070279 0.316761
-7.671344 -3.243658 -1.922882
-16.684330 -7.051171 0.949270
-9.166718 -3.874060 -1.934422
-16.644880 -7.031075 1.580831
-11.950774 -5.045745 -2.054610
-16.611967 -7.010340 2.213879
-16.274818 -6.864716 -2.168787
-16.616829 -7.005556 2.856181
-16.815016 -7.089110 -1.596519
-16.649948 -7.016101 3.512030
-16.808897 -7.079621 -0.955864
-16.793165 -7.066100 -0.318018
-6.494245 -2.721931 -1.886791
-16.837444 -7.053622 0.318646
-7.686214 -3.218367 -1.923781
-16.815704 -7.037611 0.955341
-9.198297 -3.849618 -1.938238
-16.735495 -7.000606 1.587106
-11.982894 -5.010098 -2.057113
-16.764549 -7.005890 2.230941
-16.423239 -6.859886 -2.185361
-16.750555 -6.993175 2.874953
-16.922396 -7.064917 -1.604363
-16.757683 -6.992717 3.529585
-16.938578 -7.064726 -0.961830
-16.922943 -7.051277 -0.320007
-6.515725 -2.705566 -1.890414
-16.967865 -7.042202 0.320671
-7.716644 -3.201074 -1.928730
-16.949646 -7.027707 0.961621
-9.212825 -3.819846 -1.938620
-16.858006 -6.986263 1.596519
-12.003092 -4.971844 -2.057739
-16.850048 -6.976075 2.239228
-16.475245 -6.817534 -2.189261
-16.868574 -6.976849 2.891222
-17.044538 -7.046144 -1.613601
-16.882381 -6.979109 3.550956
-17.067129 -7.051991 -0.967797
-17.062685 -7.043188 -0.322206
-6.525597 -2.681666 -1.890414
-17.092222 -7.023975 0.322555
-7.778244 -3.194849 -1.941328
-17.084930 -7.014009 0.967901
-9.297600 -3.815120 -1.953503
-16.979357 -6.963742 1.605583
-12.024890 -4.929316 -2.058365
-16.995523 -6.966908 2.255314
-16.333622 -6.692248 -2.167325
-16.995195 -6.959846 2.908743
-17.181511 -7.032645 -1.624234
-16.980532 -6.946921 3.566220
-17.187143 -7.027946 -0.973135
-17.127987 -7.000268 4.271821
-17.190826 -7.025951 -0.324161
-6.551023 -2.665424 -1.895073
-17.236404 -7.009493 0.324789
-7.856698 -3.193472 -1.957974
-17.198122 -6.990432 0.972925
-9.363606 -3.804070 -1.964570
-17.143858 -6.961399 1.618831
-12.047514 -4.889539 -2.059304
-17.112919 -6.941879 2.267501
-16.405869 -6.651730 -2.173662
-17.147530 -6.952435 2.930644
-17.314901 -7.016777 -1.634519
-17.132055 -6.939198 3.592934
-17.339308 -7.019622 -0.980357
-17.319052 -7.007904 -0.326116
-6.562079 -2.643261 -1.895591
-17.350443 -6.988906 0.326500
-7.905207 -3.182684 -1.967422
-17.355827 -6.984035 0.980462
-9.373186 -3.769897 -1.963806
-17.297453 -6.953536 1.631032
-12.006843 -4.826723 -2.049605
-17.272152 -6.939859 2.285538
-16.210472 -6.509996 -2.144901
-17.281685 -6.936689 2.949416
-17.442839 -6.997836 -1.644280
-17.282516 -6.933517 3.619647
-17.457035 -6.999994 -0.985696
-17.447361 -6.989047 -0.328070
-6.563632 -2.618623 -1.893520
-17.493608 -6.975707 0.328734
-7.937992 -3.163728 -1.972821
-17.478439 -6.962583 0.986009
-9.389283 -3.740246 -1.964570
-17.427780 -6.938883 1.641143
-12.052986 -4.796465 -2.054610
-17.440145 -6.936750 2.304550
-16.590961 -6.595642 -2.192186
-17.397585 -6.912790 2.965059
-17.575193 -6.983362 -1.654565
-17.401497 -6.910828 3.639491
-17.609449 -6.989862 -0.992918
-17.594339 -6.976751 -0.330374
-6.583512 -2.599954 -1.896626
-17.622015 -6.955714 0.330688
-7.979805 -3.148155 -1.980469
-17.615974 -6.946225 0.992395
-9.396803 -3.705290 -1.963425
-17.533453 -6.910150 1.648812
-12.088035 -4.761602 -2.057739
-17.560301 -6.913650 2.317224
-16.628662 -6.543504 -2.194136
-17.561319 -6.906968 2.988837
-17.732958 -6.974474 -1.667115
-17.575338 -6.908944 3.670784
-17.737846 -6.969248 -0.998780
-17.737715 -6.962056 -0.332608
-6.601544 -2.580474 -1.899214
-17.763533 -6.940000 0.332887
-7.987114 -3.118865 -1.979569
-17.770355 -6.935522 0.999722
-9.438941 -3.683887 -1.969531
-17.702251 -6.905377 1.662409
-12.091699 -4.714358 -2.055549
-17.706402 -6.899881 2.333311
-16.714294 -6.509909 -2.202423
-17.692087 -6.887191 3.006984
-17.872309 -6.957348 -1.677922
-17.672533 -6.876027 3.686048
-17.873751 -6.950720 -1.005060
-15.264170 -5.929781 -0.285836
-6.610512 -2.557415 -1.899214
-12.121413 -4.686990 0.226846
-7.997952 -3.090966 -1.979569
-17.895063 -6.912310 1.005374
-9.484708 -3.663650 -1.976400
-17.856354 -6.893776 1.674610
-12.058322 -4.652921 -2.047102
-17.822987 -6.873742 2.345498
-16.799891 -6.475805 -2.210710
-17.819246 -6.865161 3.024504
-18.017332 -6.941477 -1.689252
-17.813684 -6.859443 3.710472
-14.427178 -5.552528 -0.810161
-18.039736 -6.935644 -0.337355
-6.635635 -2.540540 -1.903873
-18.065546 -6.913017 0.337634
-8.015974 -3.065814 -1.981369
-18.027288 -6.891164 1.011445
-9.488271 -3.627014 -1.974492
-17.954756 -6.859847 1.681583
-12.072645 -4.610096 -2.046789
-17.935892 -6.845467 2.357197
-16.929968 -6.458158 -2.224847
-17.957541 -6.846549 3.043902
-18.164324 -6.925388 -1.700757
-17.995293 -6.857345 3.743291
-18.179411 -6.923874 -1.019505
-18.172235 -6.913873 -0.339379
-6.631818 -2.512571 -1.900250
-18.198034 -6.890987 0.339659
-8.037561 -3.041954 -1.984068
-18.200680 -6.884726 1.019819
-9.528417 -3.604291 -1.980216
-18.127684 -6.853498 1.695528
-12.097903 -4.571417 -2.048353
-18.141668 -6.851549 2.381083
-16.952408 -6.399021 -2.224847
-18.118099 -6.835417 3.067055
-18.298374 -6.903430 -1.711042
-18.121992 -6.833278 3.764662
-18.313738 -6.901929 -1.025680
-18.301058 -6.889857 -0.341334
-6.647783 -2.492119 -1.902320
-18.379272 -6.886362 0.342591
-8.075506 -3.024129 -1.990817
-18.333092 -6.861757 1.025890
-9.561166 -3.578578 -1.984414
-18.285854 -6.840444 1.708078
-12.100834 -4.524317 -2.046163
-18.224981 -6.810416 2.388883
-17.034149 -6.362037 -2.232647
-18.238083 -6.808058 3.083324
-18.441820 -6.884111 -1.722197
-18.267134 -6.815271 3.789849
-18.474331 -6.888896 -1.033321
-18.467415 -6.878982 -0.343987
-6.665498 -2.472259 -1.904908
-18.493200 -6.855523 0.344266
-8.084187 -2.995244 -1.990367
-18.484293 -6.844888 1.033007
-9.588326 -3.550637 -1.987467
-18.361940 -6.795931 1.712959
-12.118406 -4.482735 -2.046476
-18.378973 -6.794948 2.405945
-16.881222 -6.237856 -2.209735
-18.395155 -6.793627 3.105850
-18.600306 -6.869393 -1.734748
-18.601322 -6.862391 -1.039078
-18.607647 -6.857347 -0.346151
-6.684969 -2.452970 -1.908014
-11.814618 -4.332891 0.219656
-8.109229 -2.972374 -1.993966
-18.639349 -6.828416 1.040334
-18.576385 -6.801668 1.730739
-8.817124 -3.226611 -1.487066
-18.570370 -6.792115 2.427881
-8.882131 -3.246883 -1.161171
-18.541210 -6.774118 3.126499
-8.894762 -3.249743 -0.828502
-18.786369 -6.859968 3.887542
-18.754622 -6.844666 -1.046301
-12.852466 -4.685538 -0.238784
-6.693491 -2.429618 -1.908014
-11.829671 -4.291626 0.219656
-8.145204 -2.953349 -2.000265
-18.775740 -6.804135 1.046615
-8.798888 -3.188627 -1.819173
-18.746132 -6.789710 1.744335
-8.824618 -3.194469 -1.486441
-18.657434 -6.750213 2.436168
-8.848606 -3.199657 -1.155321
-18.687357 -6.753669 3.147149
-8.842344 -3.195651 -0.822576
-8.863195 -3.199687 -0.493842
-8.858194 -3.194387 -0.164367
-6.705567 -2.407546 -1.909049
-8.836851 -3.171014 0.163878
-8.175641 -2.932135 -2.005214
-8.909915 -3.193722 0.496040
-8.817357 -3.160545 -1.820700
-8.963773 -3.211262 0.833035
-8.846874 -3.167639 -1.488318
-8.958226 -3.205745 1.168240
-8.844768 -3.163404 -1.153372
-9.030822 -3.228168 1.518979
-8.847816 -3.162751 -0.822053
-8.870547 -3.167387 -0.493633
-6.713931 -2.384124 -1.909049
-8.198684 -2.908137 -2.008363
-8.909714 -3.158597 0.495412
-8.872746 -3.145491 -1.829858
-8.922345 -3.161322 0.828154
-8.895120 -3.149926 -1.494575
-8.943162 -3.165185 1.164827
-8.878214 -3.140455 -1.156296
-8.937740 -3.159753 1.501458
-8.883224 -3.140480 -0.824319
-8.968590 -3.168901 1.848939
-8.892849 -3.140392 -0.494261
-8.980564 -3.169604 2.198672
-9.033190 -3.184633 2.566450
-6.736794 -2.365794 -1.913190
-8.214300 -2.881437 -2.009713
-8.920685 -3.127476 0.495412
-9.691446 -3.397695 -1.996244
-8.944608 -3.134108 0.829200
-12.273098 -4.297979 -2.059616
-8.942914 -3.130013 1.163365
-17.336039 -6.064199 -2.255071
-8.959903 -3.132449 1.503335
-8.957355 -3.129804 1.844360
-14.360657 -5.014965 -0.797181
-8.973174 -3.131818 2.194173
-8.980406 -3.130823 2.548332
-6.737711 -2.339730 -1.911120
-8.229833 -2.854662 -2.011062
-8.969288 -3.109404 0.497506
-9.705102 -3.364490 -1.996625
-12.168562 -4.213743 -2.039593
-9.013817 -3.119551 1.171165
-17.372107 -6.008842 -2.257020
-19.507952 -6.743800 3.269168
-14.742378 -5.096365 -1.364685
-9.053585 -3.128007 1.861914
-12.350493 -4.264677 -0.684764
-9.002472 -3.106833 2.198672
-8.975658 -3.095824 -0.165728
-9.004063 -3.103865 2.551956
-6.773245 -2.325606 -1.918885
-8.265553 -2.834770 -2.017361
-9.733501 -3.336319 -2.000060
-19.578018 -6.706873 1.810573
-12.248608 -4.193636 -2.050543
-12.172478 -4.165198 1.579671
-17.426786 -5.959728 -2.261408
-19.471560 -6.655218 3.259156
-14.901475 -5.093201 -1.377758
-9.041297 -3.083193 -0.166740
-6.764857 -2.296360 -1.914226
-9.059384 -3.073483 0.166985
-8.290163 -2.810906 -2.020960
-15.142263 -5.131265 0.837899
-9.780417 -3.314294 -2.007311
-11.641521 -3.942703 1.075328
-12.367952 -4.186321 -2.068064
-12.175661 -4.118866 1.578208
-17.447483 -5.898861 -2.261408
-19.621927 -6.630208 3.280431
-14.611493 -4.937193 -1.349345
-6.783821 -2.276419 -1.917332
-8.320249 -2.788761 -2.025909
-11.667184 -3.910579 0.644884
-9.801235 -3.283252 -2.009219
-11.711892 -3.921020 1.080557
-12.397477 -4.148138 -2.070567
-19.848463 -6.637351 2.569737
-17.471731 -5.839183 -2.261895
-19.857388 -6.636487 3.316098
-6.795392 -2.253943 -1.918367
-8.323902 -2.759315 -2.024559
-20.443707 -6.772985 1.128677
-9.835001 -3.256426 -2.013798
-20.025484 -6.626672 1.845436
-12.489930 -4.133067 -2.083707
-12.131797 -4.012208 1.568946
-17.509848 -5.787443 -2.264333
-20.011732 -6.610499 3.337999
-12.039145 -3.967585 -0.221262
-6.817514 -2.236213 -1.922508
-8.346447 -2.734489 -2.027709
-11.720104 -3.839777 0.646349
-9.834551 -3.220129 -2.011509
-20.236704 -6.622197 1.862867
-12.526811 -4.096812 -2.087462
-12.402341 -4.053712 1.602095
-17.537493 -5.728747 -2.265308
-20.183762 -6.593170 3.363029
-14.631255 -4.776578 -1.346556
-15.752934 -5.136683 -0.868358
-11.287920 -3.678561 -0.207230
-6.828954 -2.213593 -1.923543
-11.050197 -3.581900 0.202762
-8.374008 -2.712802 -2.032208
-9.851334 -3.187593 -2.012653
-11.926055 -3.856607 1.096593
-12.602352 -4.075306 -2.097786
-20.315079 -6.565511 2.621410
-17.522388 -5.659580 -2.260920
-20.334484 -6.563938 3.384304
-11.758089 -3.793230 -1.080905
-12.028906 -3.878279 -0.662364
-11.228360 -3.615846 -0.205903
-6.865692 -2.200368 -1.931825
-15.385609 -4.927934 0.281996
-8.388993 -2.685338 -2.033557
-11.255835 -3.600856 0.619344
-9.891769 -3.164478 -2.018759
-11.824913 -3.780635 1.086135
-12.543116 -4.007845 -2.085585
-20.530754 -6.556151 2.646271
-17.504217 -5.586306 -2.256046
-20.511591 -6.542142 3.409959
-15.286032 -4.875457 -1.403730
-12.341146 -3.931442 -0.678797
-11.242820 -3.577236 -0.205938
-6.959893 -2.203798 -1.956154
-15.406530 -4.875404 0.282066
-8.415038 -2.661328 -2.037607
-11.161689 -3.527837 0.613482
-9.928964 -3.138213 -2.024102
-11.838038 -3.739336 1.086135
-12.600355 -3.977714 -2.092780
-12.144314 -3.831419 1.563584
-17.512249 -5.521593 -2.254583
-20.696333 -6.521560 3.436866
-20.920185 -6.592097 -1.918995
-15.182013 -4.778134 -0.834131
-13.004570 -4.087851 -0.237946
-7.033918 -2.200254 -1.974790
-11.388659 -3.560260 0.208277
-8.426137 -2.632518 -2.038057
-11.545700 -3.604930 0.633893
-9.960471 -3.109972 -2.028300
-11.892861 -3.711046 1.089970
-12.665081 -3.949585 -2.101228
-20.898209 -6.513070 2.687707
-17.698202 -5.512378 -2.276032
-20.884949 -6.500941 3.464398
-11.807940 -3.675504 -1.081951
-12.135612 -3.772854 -0.666027
-11.674296 -3.624967 -0.213373
-7.131997 -2.203630 -2.000154
-21.195154 -6.544785 0.387199
-8.429688 -2.601367 -2.036707
-11.250937 -3.469840 0.617041
-9.991903 -3.081548 -2.032497
-11.833391 -3.647210 1.083346
-12.680677 -3.905935 -2.101541
-21.106747 -6.497316 2.711593
-17.812204 -5.479750 -2.288219
-21.107660 -6.489533 3.497562
-12.253001 -3.767175 -1.121520
-15.761052 -4.839702 -0.864067
-11.598935 -3.557223 -0.211768
-7.222794 -2.204095 -2.023447
-21.378538 -6.519763 0.390131
-8.453630 -2.576469 -2.040306
-11.874372 -3.616766 0.650536
-9.981940 -3.040358 -2.028300
-11.567767 -3.521176 1.057896
-12.698016 -3.862794 -2.102167
-21.319223 -6.481339 2.735967
-15.301271 -4.648886 -1.963559
-21.258715 -6.454839 3.518837
-12.076071 -3.664387 -1.104089
-21.565292 -6.539711 -1.181013
-11.886875 -3.600182 -0.216794
-7.347361 -2.212704 -2.056059
-12.744578 -3.838111 0.232326
-8.471904 -2.549753 -2.042556
-11.068322 -3.329082 0.605736
-10.030618 -3.015058 -2.035932
-11.748513 -3.529193 1.073236
-12.725330 -3.820206 -2.104357
-21.482410 -6.449124 2.754004
-15.440994 -4.632520 -1.979402
-21.470333 -6.437324 3.550124
-12.092606 -3.623358 -1.104438
-12.131083 -3.630270 -0.663620
-11.493208 -3.437201 -0.209394
-7.421702 -2.206864 -2.074694
-11.368844 -3.378401 0.207020
-8.492399 -2.522015 -2.045255
-12.222902 -3.629874 0.668226
-10.076843 -2.990636 -2.043183
-12.066384 -3.578810 1.101126
-12.763209 -3.783060 -2.108424
-12.754320 -3.778001 1.633293
-15.461675 -4.577025 -1.979890
-21.632835 -6.403836 3.573277
-12.089894 -3.576603 -1.103043
-12.436737 -3.674490 -0.679635
-11.462944 -3.384600 -0.208626
-7.514627 -2.205976 -2.098505
-11.349285 -3.331670 0.206462
-8.498846 -2.493290 -2.044805
-11.098962 -3.253975 0.606155
-10.117366 -2.964278 -2.049289
-11.845525 -3.468365 1.079860
-12.787059 -3.744045 -2.110301
-12.019938 -3.517152 1.537748
-15.514875 -4.536870 -1.984764
-21.814327 -6.374827 3.599557
-15.447273 -4.511245 -1.407914
-11.678110 -3.408284 -0.637557
-12.284847 -3.580706 -0.223356
-7.583130 -2.198798 -2.115587
-11.237922 -3.256413 0.204228
-8.505626 -2.463066 -2.044355
-11.106416 -3.214105 0.605946
-10.153542 -2.938351 -2.054631
-12.189991 -3.525377 1.110190
-12.841800 -3.711453 -2.117184
-11.997813 -3.465261 1.533360
-18.149252 -5.238515 -2.319418
-22.056618 -6.362144 3.635850
-15.136709 -4.366123 -1.378281
-11.684178 -3.365840 -0.637243
-12.258837 -3.526745 -0.222658
-21.956656 -6.312567 6.121588
-7.592616 -2.172846 -2.116105
-11.345351 -3.244658 0.205973
-8.510424 -2.432290 -2.043455
-12.761484 -3.644839 0.695545
-10.173176 -2.905586 -2.056540
-12.236708 -3.492647 1.113327
-12.860376 -3.668230 -2.118123
-11.983109 -3.415741 1.529948
-18.236155 -5.194707 -2.328192
-12.357951 -3.517922 -1.124135
-11.720831 -3.332134 -0.638603
-11.590094 -3.290595 -0.210301
-7.603873 -2.147380 -2.117140
-11.602945 -3.274559 0.210441
-8.396951 -2.368185 -2.014212
-13.154757 -3.707548 0.716270
-10.170030 -2.866329 -2.053868
-11.734861 -3.305155 1.066612
-12.865496 -3.621175 -2.116871
-11.253515 -3.165341 1.435377
-18.277109 -5.137461 -2.331117
-12.345220 -3.467761 -1.121869
-12.495833 -3.505360 -0.680158
-11.455167 -3.209120 -0.207649
-7.622488 -2.123937 -2.120246
-15.428593 -4.296132 0.279553
-8.384514 -2.333113 -2.009263
-12.490284 -3.473258 0.679425
-10.221583 -2.842385 -2.062264
-12.272310 -3.410334 1.114373
-12.461226 -3.460489 -2.048353
-12.813865 -3.556012 1.632806
-18.340841 -5.086367 -2.336967
-12.583811 -3.487435 -1.142437
-15.778396 -4.366842 -0.857996
-11.508703 -3.180831 -0.208417
-7.633581 -2.098340 -2.121281
-11.984182 -3.291994 0.216933
-8.392607 -2.303833 -2.009263
-12.182600 -3.341925 0.662050
-10.256059 -2.813437 -2.067225
-12.118892 -3.322175 1.099383
-12.448461 -3.410187 -2.044286
-12.351369 -3.381269 1.572358
-12.631511 -3.455590 -1.607944
-12.417851 -3.394811 2.038967
-12.461377 -3.406710 -1.130236
-11.543139 -3.151351 -0.627090
-12.125530 -3.305800 -0.219377
-7.648318 -2.073702 -2.123352
-12.453034 -3.374083 0.225206
-8.400598 -2.274523 -2.009263
-12.066947 -3.264951 0.655142
-10.279082 -2.781209 -2.069896
-11.634194 -3.145685 1.054410
-12.853128 -3.472857 -2.108737
-12.573908 -3.395055 1.599170
-12.497839 -3.372176 -1.589420
-12.296118 -3.315445 2.017066
-12.498201 -3.369934 -1.132502
-12.425784 -3.345755 -0.674401
-11.658082 -3.134681 -0.210720
-7.655509 -2.046993 -2.123352
-12.526558 -3.347111 0.226323
-8.412253 -2.246189 -2.010163
-12.498955 -3.335059 0.677960
-10.313387 -2.751890 -2.074857
-11.637403 -3.103002 1.053713
-13.082775 -3.485947 -2.144404
-12.336308 -3.284743 1.567484
-18.427629 -4.903217 -2.341354
-12.578701 -3.344582 2.061494
-12.599046 -3.347638 -1.140520
-12.190300 -3.236757 -0.661003
-12.434383 -3.296917 -0.224543
-7.668564 -2.020397 -2.124904
-12.567170 -3.311007 0.226846
-8.440771 -2.222268 -2.015111
-11.772675 -3.097291 0.637975
-10.368973 -2.726054 -2.084016
-12.338565 -3.241565 1.116116
-13.089730 -3.436471 -2.143465
-11.483686 -3.014833 1.457801
-18.521437 -4.859007 -2.351104
-11.963554 -3.136348 1.958873
-18.847559 -4.937538 -1.704592
-11.776988 -3.080849 -0.637975
-23.610666 -6.172132 5.634124
-15.026682 -3.928168 -0.271106
-7.671831 -1.992643 -2.123869
-12.916011 -3.352337 0.232920
-8.526198 -2.211377 -2.033557
-13.136720 -3.407174 0.711246
-10.401232 -2.695751 -2.088595
-11.620736 -3.009656 1.050227
-13.103559 -3.391253 -2.143778
-12.713120 -3.287835 1.612332
-18.592937 -4.805002 -2.357928
-12.372237 -3.197377 2.023949
-12.257508 -3.165445 -1.107575
-12.073902 -3.113534 -0.653467
-23.820780 -6.138299 5.679114
-12.158887 -3.133184 -0.219167
-7.686226 -1.967769 -2.125940
-12.384635 -3.170620 0.223146
-8.639210 -2.210138 -2.058752
-15.486051 -3.958858 0.837689
-10.450523 -2.669634 -2.096609
-11.770165 -3.004555 1.062777
-11.524199 -2.941767 -1.883784
-11.631406 -2.966969 1.473888
-18.674170 -4.759988 -2.366215
-12.390982 -3.156120 2.025201
-12.276208 -3.124602 -1.108272
-16.336746 -4.155078 -0.883431
-12.036016 -3.056758 -0.216759
-7.698328 -1.943688 -2.127493
-11.910892 -3.005073 0.214420
-8.767807 -2.210459 -2.087546
-11.665018 -2.938710 0.630439
-10.485971 -2.641678 -2.101952
-11.996461 -3.019982 1.082300
-11.593783 -2.916461 -1.893483
-18.652166 -4.685102 -2.361341
-12.528376 -3.144584 2.045850
-12.470629 -3.127779 -1.124832
-11.562046 -2.897752 -0.624682
-24.240082 -6.070698 5.769095
-12.583957 -3.149201 -0.226428
-7.711025 -1.916858 -2.129046
-12.332725 -3.065750 0.221820
-8.924880 -2.216952 -2.123088
-11.702343 -2.904709 0.631904
-10.529883 -2.611735 -2.108821
-11.875945 -2.943400 1.070447
-11.763543 -2.913362 -1.919451
-12.418733 -3.075627 1.570896
-18.672262 -4.620919 -2.361828
-12.566122 -3.107475 2.050231
-12.218420 -3.019228 -1.101126
-15.982119 -3.943337 -0.862706
-15.903283 -3.920942 -0.285905
-7.697028 -1.884876 -2.123352
-12.297261 -3.009120 0.220982
-9.055989 -2.214311 -2.152332
-12.011188 -2.936897 0.648024
-10.565635 -2.581488 -2.114164
-11.924858 -2.911378 1.073933
-13.370328 -3.261807 -2.179758
-12.468493 -3.039492 1.575771
-18.738420 -4.567935 -2.368165
-12.346581 -3.007490 2.012686
-12.588955 -3.064202 -1.133548
-11.702813 -2.844185 -0.631172
-15.811939 -3.839921 -0.284020
-7.733283 -1.866594 -2.131634
-12.143880 -2.928940 0.218050
-9.180740 -2.212576 -2.180226
-12.475211 -3.006549 0.672517
-10.614220 -2.556090 -2.122178
-12.225012 -2.941736 1.100080
-13.365705 -3.213757 -2.177255
-12.362695 -2.970305 1.561146
-18.784346 -4.513195 -2.372065
-12.406427 -2.978520 2.020821
-25.436398 -6.102044 -2.288535
-12.117496 -2.904684 2.422129
-16.160091 -3.870747 -0.870870
-12.324002 -2.949634 -0.221192
-7.739430 -1.840939 -2.131634
-12.807213 -3.044025 0.229778
-9.282828 -2.204633 -2.202721
-12.244155 -2.907936 0.659538
-10.636008 -2.524050 -2.124849
-12.831799 -3.042768 1.153768
-13.403199 -3.175792 -2.181635
-12.308731 -2.914200 1.553103
-18.884203 -4.471001 -2.382790
-12.477750 -2.951914 2.030833
-25.708557 -6.077245 -2.311196
-12.226418 -2.887953 2.441974
-18.486019 -4.363097 -0.995430
-12.551702 -2.960158 -0.225101
-7.758658 -1.818349 -2.135257
-14.947277 -3.500350 0.267964
-9.295779 -2.175170 -2.204070
-12.102042 -2.831822 0.651373
-10.695936 -2.500834 -2.135153
-12.007555 -2.805295 1.078814
-13.427123 -3.134471 -2.183825
-12.482649 -2.911696 1.573821
-18.949188 -4.420078 -2.389127
-12.275852 -2.861200 1.996417
-26.011875 -6.057938 -2.336645
-12.224455 -2.844722 2.439684
-17.912888 -4.165163 -0.963819
-12.510807 -2.906752 -0.224194
-7.745186 -1.782424 -2.129563
-14.805303 -3.404465 0.265172
-9.310134 -2.139148 -2.205420
-11.194546 -2.572121 0.601968
-10.700150 -2.456560 -2.134008
-11.964346 -2.744596 1.073933
-13.424192 -3.077019 -2.181322
-11.716370 -2.683409 1.475838
-12.566335 -2.875766 -1.582839
-12.306494 -2.816302 1.999546
-26.315668 -6.017431 -2.361746
-12.231948 -2.794753 2.438921
-12.076296 -2.756969 -0.649175
-12.658846 -2.887642 -0.226637
-7.743824 -1.753670 -2.127493
-12.589254 -2.850968 0.225311
-9.338083 -2.112993 -2.210369
-11.187871 -2.529505 0.601131
-10.679934 -2.412705 -2.128284
-11.678442 -2.636136 1.047438
-13.499838 -3.047273 -2.191960
-11.752315 -2.650655 1.479250
-12.688120 -2.859390 -1.596976
-26.647520 -5.995509 -2.389636
-12.202289 -2.743191 -0.655456
-15.642409 -3.510831 -0.279832
-7.759025 -1.730083 -2.130081
-12.540574 -2.793960 0.224263
-9.335893 -2.078267 -2.208120
-12.416609 -2.764067 0.666655
-10.611219 -2.360225 -2.113019
-12.037208 -2.675199 1.078814
-13.415900 -2.979148 -2.176629
-11.765371 -2.610476 1.479738
-12.864696 -2.852036 -1.617938
-26.939590 -5.967434 -2.414040
-12.442374 -2.753853 2.477082
-27.005569 -5.972161 -1.449497
-18.489136 -4.085406 -0.330514
-7.778226 -1.705887 -2.133704
-12.315377 -2.700955 0.220075
-9.346539 -2.048131 -2.209019
-12.960766 -2.837755 0.695336
-10.623229 -2.324009 -2.113782
-11.902437 -2.601681 1.065915
-13.539565 -2.959530 -2.195089
-12.363535 -2.700209 1.553834
-19.119116 -4.172138 -2.402776
-27.275625 -5.942064 -2.442278
-12.451439 -2.712577 2.477082
-12.482188 -2.716992 -0.669482
-11.683506 -2.538875 -0.208696
-7.776286 -1.678453 -2.131634
-12.406831 -2.675652 0.221541
-9.363157 -2.017545 -2.211269
-10.650070 -2.292903 -2.117598
-11.782441 -2.534542 1.054410
-13.601957 -2.923457 -2.203536
-15.977631 -3.428225 -2.006457
-16.070084 -3.445128 -1.437895
-12.433956 -2.663337 2.471740
-12.134255 -2.592498 -0.216584
-7.766980 -1.648090 -2.127493
-12.752564 -2.703663 0.227544
-9.381580 -1.987274 -2.213968
-12.081431 -2.556970 0.647186
-10.642644 -2.252458 -2.114545
-13.720310 -2.898830 -2.221057
-11.379864 -2.402262 1.428065
-16.040003 -3.383083 -2.012794
-16.015724 -3.375047 -1.431969
-12.977251 -2.732371 2.577830
-16.038458 -3.373987 -0.858938
-16.092472 -3.379485 -0.287022
-7.780251 -1.622544 -2.129563
-12.029762 -2.506577 0.214490
-9.392276 -1.955308 -2.214868
-12.700373 -2.641680 0.679844
-10.750392 -2.236084 -2.134390
-11.807652 -2.453848 1.055107
-13.807711 -2.866983 -2.233572
-13.639485 -2.827088 -1.710315
-16.155758 -3.339820 -0.864590
-12.171643 -2.511766 -0.216933
-7.778574 -1.592469 -2.127493
-11.995338 -2.455746 0.213722
-9.408591 -1.924461 -2.217118
-12.736911 -2.602933 0.681310
-10.935483 -2.232802 -2.169498
-16.248022 -3.314557 1.450794
-13.883936 -2.829769 -2.244209
-16.251333 -3.312282 2.036437
-13.678450 -2.785401 -1.713971
-28.792944 -5.852757 -2.570571
-20.446705 -4.148781 -1.093403
-16.231302 -3.290497 -0.289082
-7.780298 -1.564545 -2.126457
-13.404070 -2.692999 0.238644
-9.404117 -1.887665 -2.214418
-11.970891 -2.400711 0.639859
-11.181902 -2.242483 -2.216819
-11.934308 -2.391211 1.064869
-13.994451 -2.801450 -2.260478
-12.054939 -2.411002 1.509474
-13.513372 -2.700237 -1.692034
-16.332119 -3.260519 2.637798
-29.176609 -5.824772 -2.602993
-20.092819 -4.004002 -1.073725
-12.259912 -2.438648 -0.218190
-7.797083 -1.539623 -2.129563
-12.106775 -2.388425 0.215398
-9.429769 -1.858595 -2.218917
-12.339770 -2.429916 0.659119
-11.432370 -2.251233 -2.264903
-12.102885 -2.381075 1.079162
-13.643622 -2.681720 -2.202285
-12.600899 -2.474481 1.576746
-19.269186 -3.780467 -2.411063
-19.827524 -3.886410 -1.767693
-20.106672 -3.933844 -1.073725
-29.633627 -5.787034 -0.527028
-7.802411 -1.512396 -2.129563
-12.048289 -2.333223 0.214211
-9.440025 -1.826406 -2.219817
-12.481101 -2.414777 0.666237
-11.630988 -2.248199 -2.302683
-13.625746 -2.628836 -2.197904
-12.044188 -2.321527 1.506062
-19.309553 -3.718436 -2.414475
-30.073515 -5.785800 -2.679342
-30.151001 -5.789802 -1.609017
-30.029716 -5.761071 -0.533729
-7.796255 -1.482985 -2.126457
-12.112930 -2.304093 0.215223
-9.434544 -1.792913 -2.217118
-13.325355 -2.529898 0.710827
-11.679271 -2.215268 -2.310697
-13.622744 -2.581437 -2.196027
-12.785190 -2.420410 1.597707
-19.352987 -3.660285 -2.418375
-30.555571 -5.768015 -2.720479
-19.866062 -3.746552 -1.059489
-12.351189 -2.324853 -0.219377
-7.804928 -1.457833 -2.127493
-12.111070 -2.259965 0.215049
-9.461817 -1.763895 -2.222066
-11.705854 -2.180120 -2.314513
-14.342484 -2.665991 -2.310537
-12.988733 -2.412010 1.622081
-19.416393 -3.602122 -2.424713
-31.001598 -5.745809 -2.758479
-12.205451 -2.255538 -0.216654
-7.798568 -1.428493 -2.124387
-12.240451 -2.242129 0.217213
-9.450362 -1.729354 -2.218017
-11.740431 -2.144186 -2.319856
-12.918578 -2.357021 1.148887
-14.378451 -2.623378 -2.314917
-12.883390 -2.348278 1.607944
-19.467293 -3.544827 -2.429587
-20.271278 -3.683917 -1.802555
-31.858776 -5.783979 -1.696941
-12.583170 -2.279945 -0.223216
-7.818472 -1.405358 -2.128528
-20.672161 -3.712064 0.366605
-9.454424 -1.696009 -2.217567
-11.751342 -2.105931 -2.320619
-12.828262 -2.296616 1.140171
-14.391412 -2.573868 -2.315543
-12.903234 -2.305387 1.609407
-19.530355 -3.485925 -2.435925
-32.072712 -5.713020 -2.850167
-29.255638 -5.205956 -1.557309
-12.744625 -2.263280 -0.225939
-7.819766 -1.376023 -2.127493
-12.988435 -2.285539 0.230197
-9.458367 -1.662659 -2.217118
-11.762849 -2.063524 -2.321382
-12.895468 -2.259897 1.145401
-14.424097 -2.525194 -2.319298
-18.826723 -3.292561 -2.346716
-20.049198 -3.499150 -1.780592
-19.385172 -3.376282 -1.031228
-13.177988 -2.292821 -0.233478
-7.813099 -1.346747 -2.124387
-9.466317 -1.628313 -2.217567
-11.902981 -2.045305 0.632951
-11.777720 -2.023781 -2.322909
-12.942551 -2.221613 1.148887
-14.413353 -2.471490 -2.316169
-18.869970 -3.228896 -2.350616
-20.273396 -3.465394 -1.799417
-29.516588 -5.034766 -1.569241
-20.622204 -3.510202 -0.365139
-7.817752 -1.319468 -2.124387
-12.318248 -2.076843 0.218050
-9.473866 -1.595581 -2.218017
-11.882473 -1.999107 0.631486
-11.800201 -1.985265 -2.325962
-14.367347 -2.412002 -2.307409
-19.022089 -3.186622 -2.368165
-20.316809 -3.399866 -1.802206
-12.696987 -2.115638 -0.224682
-7.829935 -1.293430 -2.126457
-12.364882 -2.040343 0.218748
-9.469763 -1.560918 -2.215768
-11.810933 -1.944700 -2.326725
-14.391272 -2.364401 -2.309911
-19.087948 -3.129190 -2.374990
-20.326584 -3.328609 -1.802032
-20.412735 -3.331743 -0.361020
-7.838216 -1.266707 -2.127493
-12.292618 -1.986567 0.217352
-9.476810 -1.529817 -2.216218
-20.670267 -3.333046 1.097276
-11.852538 -1.909080 -2.333594
-14.387331 -2.314781 -2.308034
-19.015900 -3.052664 -2.364753
-19.962322 -3.197448 -1.768739
-20.297640 -3.247519 -1.077284
-20.361052 -3.250381 -0.359904
-7.850006 -1.241914 -2.129563
-20.599205 -3.255228 0.364022
-9.480169 -1.496423 -2.215768
-11.847168 -1.867930 -2.331304
-14.485088 -2.278666 -2.322426
-19.116648 -3.000425 -2.375965
-19.811954 -3.102471 -1.754445
-12.678585 -1.978614 -0.223984
-7.846869 -1.211955 -2.127493
-11.944530 -1.844841 0.210965
-9.491114 -1.464213 -2.217118
-11.861696 -1.825690 -2.332831
-14.813550 -2.274734 -2.373737
-19.578302 -3.002896 -2.432025
-19.743885 -3.021240 -1.747473
-19.454132 -2.966478 -0.343498
-7.851051 -1.184556 -2.127493
-12.965601 -1.953922 0.228871
-9.498343 -1.429707 -2.217567
-20.653231 -3.105074 1.094554
-11.875762 -1.785441 -2.334357
-13.281783 -1.994459 1.175034
-15.196477 -2.279264 -2.433808
-19.534203 -2.922897 -2.425200
-29.611546 -4.420193 -2.619379
-19.706829 -2.938179 -1.044207
-19.733871 -2.935165 -0.348245
-7.851518 -1.155212 -2.126457
-13.011910 -1.914473 0.229569
-9.489779 -1.394559 -2.214418
-11.901652 -1.744749 -2.338174
-15.552645 -2.274434 -2.489498
-19.560001 -2.856982 -2.427150
-29.827896 -4.346110 -2.637158
-19.982315 -2.904420 -1.058233
-19.522356 -2.834091 -0.344336
-7.866581 -1.132191 -2.129563
-13.018188 -1.871313 0.229569
-9.494351 -1.363082 -2.214418
-12.152853 -1.742595 0.643418
-11.883754 -1.704009 -2.333594
-15.708330 -2.246815 -2.513276
-20.076387 -2.864447 -2.490035
-29.391684 -4.188289 -2.597415
-20.220718 -2.874233 -1.070375
-19.848429 -2.814252 -0.349921
-7.870485 -1.104725 -2.129563
-20.672680 -2.898000 0.364371
-9.510632 -1.331555 -2.217118
-11.881851 -1.661429 -2.332067
-15.798249 -2.203433 -2.526417
-20.322203 -2.827168 -2.519283
-22.325447 -3.101887 -1.971986
-20.527380 -2.844757 -1.086076
-19.969059 -2.760284 -0.351875
-7.866637 -1.076197 -2.127493
