# This PCD file was generated using the MATLAB® pcwrite function
# from Computer Vision Toolbox®.
# .PCD v.7 - Point Cloud Data file format
VERSION .7
FIELDS x y z
SIZE 4 4 4
TYPE F F F
COUNT 1 1 1
WIDTH 1573
HEIGHT 1
VIEWPOINT 0 0 0 1 0 0 0
POINTS 1573
DATA ascii
-11.553525 -7.722738 -0.728307
-11.428105 -7.636015 3.173160
-11.542048 -7.709239 -0.242274
-11.384727 -7.601283 3.667984
-0.998543 -0.664939 -0.321453
-11.564131 -7.697749 0.242484
-6.557716 -4.363538 -1.818504
-11.572681 -7.697609 0.728412
-7.803901 -5.190792 -1.821844
-11.575668 -7.696686 1.216171
-9.569794 -6.360564 -1.819959
-11.486347 -7.631512 1.693253
-11.748953 -7.803027 -1.731764
-11.511774 -7.642615 2.188519
-11.620877 -7.715048 -1.220355
-11.491529 -7.626285 2.680866
-11.617030 -7.706650 -0.730610
-11.493667 -7.621926 3.183957
-11.617224 -7.700944 -0.243287
-11.498152 -7.619120 3.695936
-1.000743 -0.661624 -0.321453
-11.641311 -7.693537 0.243566
-6.573776 -4.342842 -1.818954
-11.629810 -7.680101 0.730401
-7.835816 -5.174621 -1.825279
-11.651011 -7.691186 1.221401
-9.613916 -6.344026 -1.824339
-11.564618 -7.628357 1.701053
-11.773106 -7.762933 -1.731520
-11.573339 -7.628314 2.195401
-11.692977 -7.707170 -1.225235
-11.585610 -7.633502 2.696894
-11.692559 -7.701042 -0.733750
-11.551432 -7.605202 3.192955
-11.706173 -7.704152 -0.244613
-11.552405 -7.600060 3.705254
-1.014352 -0.665545 -0.325077
-11.723276 -7.689045 0.244718
-6.606822 -4.331622 -1.823903
-11.696638 -7.665737 0.732913
-7.839052 -5.137554 -1.821844
-11.731121 -7.685406 1.226979
-9.693842 -6.348306 -1.835289
-11.631036 -7.614037 1.706902
-11.859928 -7.760920 -1.740294
-11.642879 -7.615985 2.203536
-11.776499 -7.703390 -1.231162
-11.638476 -7.610205 2.703000
-11.776212 -7.697334 -0.737309
-11.639902 -7.605339 3.210052
-11.764805 -7.684019 -0.245276
-11.627389 -7.591373 3.720783
-1.008575 -0.656730 -0.322489
-11.793621 -7.676436 0.245625
-6.631703 -4.314910 -1.826603
-11.783599 -7.664063 0.736681
-7.871749 -5.119792 -1.825279
-11.791284 -7.666129 1.230465
-9.714286 -6.313353 -1.834976
-11.720798 -7.614487 1.716164
-11.998491 -7.791912 -1.756625
-11.699217 -7.594657 2.209168
-11.844767 -7.686204 -1.235345
-11.717671 -7.603731 2.715212
-11.843225 -7.682266 -0.739821
-11.708891 -7.592227 3.221749
-11.836863 -7.672272 -0.246219
-11.702457 -7.582254 3.736312
-1.012598 -0.654077 -0.323006
-11.860659 -7.661262 0.246463
-6.649998 -4.293850 -1.827502
-11.862303 -7.656457 0.739926
-7.900361 -5.097291 -1.827569
-11.881252 -7.662818 1.236914
-9.765585 -6.295902 -1.840295
-11.787350 -7.599340 1.722014
-12.048978 -7.765035 -1.760037
-11.798721 -7.600846 2.222934
-11.911727 -7.670700 -1.239529
-11.785081 -7.586236 2.724371
-11.928406 -7.675556 -0.743380
-11.782530 -7.578778 3.234346
-11.910663 -7.661196 -0.247196
-11.764602 -7.564344 3.747700
-1.027886 -0.658878 -0.327147
-11.944220 -7.653343 0.247615
-6.665692 -4.269446 -1.827502
-11.936048 -7.645165 0.742857
-7.929678 -5.077094 -1.830240
-11.949881 -7.648149 1.241272
-9.857389 -6.306487 -1.853436
-11.855258 -7.581757 1.727864
-12.047578 -7.704751 -1.755894
-11.875114 -7.591531 2.232320
-11.993834 -7.664478 -1.245281
-11.877668 -7.587330 2.739636
-12.003945 -7.665040 -0.746415
-11.883151 -7.587908 3.255042
-12.003072 -7.661533 -0.248557
-11.859334 -7.566877 3.769441
-1.034955 -0.658578 -0.328700
-12.018465 -7.644817 0.248627
-6.692969 -4.255683 -1.831102
-12.005156 -7.633405 0.745578
-8.024345 -5.100267 -1.848176
-12.035718 -7.646944 1.247547
-9.916601 -6.298121 -1.860632
-11.940668 -7.580704 1.736638
-12.086470 -7.673268 -1.757844
-11.943585 -7.579632 2.240455
-12.084799 -7.666286 -1.252079
-11.949188 -7.577338 2.750321
-12.073154 -7.652996 -0.749137
-11.937873 -7.567242 3.263140
-12.067263 -7.646305 -0.249360
-11.913737 -7.546115 3.778758
-1.042033 -0.658237 -0.330253
-12.104620 -7.643356 0.249884
-6.707044 -4.233467 -1.831102
-12.085779 -7.625560 0.748928
-8.173285 -5.154965 -1.878324
-12.114937 -7.641001 1.253125
-9.935760 -6.264148 -1.860319
-12.022840 -7.577050 1.744925
-12.272740 -7.731551 -1.780999
-12.020121 -7.569472 2.249841
-12.153636 -7.650593 -1.256437
-12.022091 -7.564857 2.761006
-12.155587 -7.645895 -0.752591
-12.003806 -7.550424 3.273938
-12.151436 -7.640328 -0.250547
-11.992345 -7.537378 3.795323
-1.047713 -0.656465 -0.331288
-12.188479 -7.633966 0.251035
-6.730773 -4.214026 -1.833351
-12.167824 -7.615118 0.752277
-8.228741 -5.147881 -1.886719
-12.171576 -7.614510 1.256088
-9.946928 -6.220360 -1.858129
-12.104395 -7.566605 1.752725
-12.319514 -7.698088 -1.783680
-12.087990 -7.550483 2.257349
-12.220469 -7.630263 -1.260446
-12.113026 -7.560245 2.775508
-12.239447 -7.636182 -0.756045
-12.110758 -7.555893 3.295533
-12.223475 -7.623249 -0.251454
-12.092024 -7.538342 3.818099
-1.056675 -0.656699 -0.333359
-12.262239 -7.617733 0.251978
-6.752796 -4.193440 -1.835151
-12.250324 -7.607368 0.755731
-8.266676 -5.131550 -1.891299
-12.267120 -7.611866 1.263061
-9.962946 -6.179696 -1.856877
-12.182660 -7.553570 1.760037
-12.393550 -7.684327 -1.790504
-12.191508 -7.556111 2.271742
-12.311387 -7.627437 -1.267070
-12.186077 -7.546858 2.786193
-12.315275 -7.623898 -0.759081
-12.186769 -7.544344 3.309030
-12.306124 -7.615262 -0.252606
-12.147838 -7.514380 3.827416
-1.067068 -0.658263 -0.335947
-12.333390 -7.605367 0.252920
-6.769981 -4.173071 -1.836051
-12.321387 -7.595002 0.758557
-8.325434 -5.129856 -1.900839
-12.334706 -7.597268 1.267419
-10.013659 -6.165267 -1.862509
-12.261741 -7.546424 1.767837
-12.500113 -7.693129 -1.802204
-12.253513 -7.538412 2.278625
-12.385829 -7.616834 -1.272125
-12.261211 -7.537250 2.797642
-12.386434 -7.611248 -0.761907
-12.234963 -7.518173 3.315329
-12.389243 -7.609997 -0.253793
-12.241834 -7.516510 3.849157
-1.089015 -0.666826 -0.342159
-12.419944 -7.602008 0.254177
-6.787107 -4.152632 -1.836950
-12.407461 -7.588416 0.762221
-8.349990 -5.104860 -1.902366
-12.427827 -7.597891 1.274391
-10.126755 -6.188681 -1.879717
-12.334130 -7.534696 1.774661
-12.516725 -7.643240 -1.800742
-12.330334 -7.526472 2.288011
-12.473570 -7.610912 -1.278400
-12.361196 -7.539385 2.814433
-12.472611 -7.604358 -0.765570
-12.327686 -7.515999 3.333325
-12.484035 -7.608330 -0.255189
-12.304292 -7.495843 3.860545
-1.094754 -0.664836 -0.343194
-12.516097 -7.597946 0.255573
-6.805615 -4.129748 -1.837850
-12.483003 -7.571895 0.765152
-8.370322 -5.075238 -1.902747
-12.516924 -7.589478 1.280666
-10.110518 -6.127971 -1.872521
-12.399014 -7.512071 1.780024
-12.636346 -7.652843 -1.813903
-12.438952 -7.530330 2.303029
-12.574677 -7.609502 -1.285896
-12.445861 -7.528577 2.827408
-12.558511 -7.593727 -0.769129
-12.411851 -7.505046 3.348621
-12.556331 -7.589420 -0.256097
-12.384595 -7.482663 3.877109
-1.083945 -0.652845 -0.339053
-12.590117 -7.579868 0.256515
-6.832392 -4.111812 -1.840999
-12.574387 -7.567410 0.769129
-8.382940 -5.042953 -1.901603
-12.585633 -7.568195 1.284850
-10.298827 -6.190609 -1.903182
-12.501334 -7.511559 1.790748
-12.676595 -7.616866 -1.815853
-12.512575 -7.515346 2.311789
-12.637036 -7.587094 -1.289556
-12.505732 -7.505292 2.835040
-12.648310 -7.587862 -0.773002
-12.488104 -7.491752 3.362118
-12.632481 -7.575364 -0.257109
-12.500114 -7.493022 3.905062
-1.096053 -0.655195 -0.342159
-12.666680 -7.568848 0.257563
-6.852683 -4.093129 -1.842799
-12.659426 -7.561515 0.772793
-8.404674 -5.018146 -1.902747
-12.679095 -7.567261 1.291822
-10.465191 -6.243460 -1.930089
-12.601192 -7.514798 1.801473
-12.763162 -7.611389 -1.824628
-12.564576 -7.489994 2.316795
-12.713472 -7.575747 -1.294786
-12.601393 -7.505976 2.851068
-12.731750 -7.580617 -0.776561
-12.583204 -7.492172 3.381014
-12.731422 -7.577413 -0.258610
-12.548138 -7.465357 3.912309
-1.114834 -0.661414 -0.347335
-12.738150 -7.554342 0.258505
-6.874600 -4.075350 -1.845049
-12.745881 -7.552916 0.776456
-8.422957 -4.991251 -1.903129
-12.755547 -7.555636 1.297052
-10.485837 -6.208721 -1.930089
-12.639708 -7.481061 1.803423
-12.945122 -7.658776 -1.846808
-12.682462 -7.500389 2.333690
-12.808837 -7.575128 -1.301932
-12.666776 -7.488125 2.860227
-12.801524 -7.564773 -0.779282
-12.659616 -7.477935 3.394511
-12.807732 -7.562406 -0.259622
-12.653977 -7.468644 3.937155
-1.117136 -0.657518 -0.347335
-12.828213 -7.547350 0.259797
-6.895503 -4.055280 -1.846848
-12.818656 -7.535706 0.779282
-8.438635 -4.960823 -1.902747
-12.850554 -7.551441 1.304024
-10.469975 -6.150070 -1.923205
-12.717099 -7.467048 1.810735
-12.942674 -7.596460 -1.842665
-12.763086 -7.488060 2.343701
-12.885036 -7.559607 -1.306987
-12.753803 -7.479618 2.873965
-12.901943 -7.563475 -0.783783
-12.749533 -7.471138 3.411608
-12.911697 -7.563135 -0.261193
-12.729981 -7.453713 3.952684
-1.137775 -0.664330 -0.353029
-12.935652 -7.549901 0.261437
-6.919714 -4.037079 -1.849548
-12.910445 -7.529149 0.783260
-8.416895 -4.908588 -1.893970
-12.935359 -7.540654 1.309951
-10.457245 -6.093595 -1.916948
-12.839144 -7.478562 1.824384
-13.140660 -7.651119 -1.867038
-12.830123 -7.467307 2.351210
-12.844317 -7.472572 2.888467
-12.812602 -7.448132 3.421506
-15.652529 -9.095368 -0.315993
-12.809379 -7.440281 3.969249
-1.136744 -0.658417 -0.351994
-6.942199 -4.017779 -1.851797
-12.995426 -7.518042 0.786819
-8.416984 -4.869347 -1.890154
-13.009893 -7.523385 1.314831
-10.471610 -6.053100 -1.915697
-12.927049 -7.469454 1.833159
-13.215418 -7.633005 -1.873863
-12.907432 -7.452110 2.360596
-20.583012 -11.883609 -2.079362
-12.945141 -7.470870 2.905258
-12.906048 -7.442304 3.439502
-32.094280 -18.499781 -0.646612
-12.892185 -7.428311 3.986849
-1.132335 -0.650596 -0.349923
-32.211731 -18.500139 0.648392
-6.973082 -4.003224 -1.856296
-32.177200 -18.465374 1.944281
-8.462876 -4.856550 -1.896641
-32.219490 -18.482157 3.249689
-10.556082 -6.052867 -1.927273
-13.015042 -7.459824 1.841933
-13.259208 -7.596694 -1.876301
-13.005360 -7.448240 2.373737
-20.612593 -11.800174 -2.077967
-13.005215 -7.445148 2.912890
-13.009760 -7.441717 3.460197
-12.978415 -7.417777 4.005484
-1.133034 -0.645485 -0.349406
-6.978546 -3.974039 -1.854047
-8.482327 -4.826468 -1.897023
-32.435947 -18.448660 3.264680
-10.602235 -6.027807 -1.931653
-13.068614 -7.430045 1.845833
-13.289096 -7.552325 -1.876788
-13.072503 -7.426215 2.381246
-13.083639 -7.426502 2.924339
-20.421618 -11.586955 -1.230523
-13.070849 -7.413211 3.469195
-15.632116 -8.865849 -0.313690
-13.068091 -7.408633 4.025154
-1.138644 -0.643427 -0.350441
-6.998156 -3.951307 -1.855396
-8.495703 -4.794902 -1.896260
-10.638699 -5.999491 -1.934469
-13.164931 -7.421084 1.855583
-13.347816 -7.521111 -1.881175
-13.178806 -7.422845 2.395638
-13.188177 -7.425092 2.941893
-13.174775 -7.411490 3.489891
-15.912015 -8.947674 -0.318646
-13.149048 -7.390977 4.041718
-1.149309 -0.644171 -0.353029
-7.032310 -3.938282 -1.860795
-8.488405 -4.751791 -1.890917
-10.680264 -5.973890 -1.938223
-13.287783 -7.429337 1.869232
-13.443303 -7.513207 -1.890925
-13.266719 -7.411479 2.406901
-13.272293 -7.411559 2.954868
-13.248215 -7.392044 3.502488
-6.005959 -3.338757 -1.841239
-7.057937 -3.920335 -1.863944
-8.491209 -4.714508 -1.887864
-10.714869 -5.944241 -1.940726
-13.351829 -7.404088 1.874594
-13.542368 -7.506655 -1.901162
-13.337432 -7.390019 2.415035
-13.359911 -7.399427 2.968606
-13.331907 -7.377838 3.517785
-42.413853 -23.462017 -0.846058
-6.012501 -3.314975 -1.839686
-7.073287 -3.896615 -1.864394
-8.486979 -4.673472 -1.883285
-10.780551 -5.931561 -1.948861
-13.433255 -7.388045 1.882394
-13.700693 -7.532022 -1.919686
-13.449707 -7.390985 2.430679
-13.471699 -7.400004 2.987687
-13.446414 -7.380012 3.541179
-42.320175 -23.217640 -0.842567
-6.038714 -3.303362 -1.844345
-7.082749 -3.871268 -1.863495
-8.486921 -4.636835 -1.879850
-10.819235 -5.906190 -1.952302
-13.541321 -7.389102 1.894094
-13.774390 -7.513162 -1.926511
-13.517949 -7.373288 2.438814
-13.530641 -7.374079 2.995320
-21.320324 -11.614568 -1.272392
-13.518734 -7.361475 3.553777
-6.065491 -3.290554 -1.849003
-7.109252 -3.855191 -1.867094
-8.541032 -4.627756 -1.888246
-10.847447 -5.874983 -1.953867
-13.625103 -7.376288 1.902381
-13.858588 -7.499564 -1.934798
-13.644378 -7.380566 2.456960
-13.655183 -7.383331 3.017454
-21.320068 -11.522911 -1.270089
-13.625370 -7.361066 3.575372
-6.076370 -3.270422 -1.849003
-7.132965 -3.835889 -1.869793
-8.564976 -4.604057 -1.890154
-14.021314 -7.533924 1.392574
-10.883551 -5.845495 -1.956682
-13.713729 -7.362489 1.911155
-13.937157 -7.479303 -1.942110
-13.725761 -7.362774 2.466972
-13.732779 -7.363451 3.028902
-21.448179 -11.495594 -1.275323
-13.719691 -7.350270 3.593368
-6.084908 -3.246309 -1.847968
-7.158346 -3.817387 -1.872942
-8.593923 -4.579094 -1.892825
-14.055865 -7.486232 1.393272
-10.906646 -5.806493 -1.956995
-13.788411 -7.340691 1.917980
-14.040285 -7.471640 -1.952834
-13.793234 -7.337085 2.474481
-13.801283 -7.335183 3.038061
-21.592464 -11.471258 -1.281394
-13.791288 -7.323699 3.605066
-13.957995 -7.409104 4.234280
-6.091078 -3.222339 -1.846415
-7.177460 -3.793855 -1.874292
-8.608118 -4.548152 -1.892444
-14.162955 -7.479919 1.401290
-10.933836 -5.772075 -1.958247
-13.906515 -7.338282 1.930654
-14.092157 -7.433095 -1.956247
-13.914392 -7.336226 2.491375
-13.917115 -7.334563 3.057905
-13.892637 -7.315464 3.624861
-6.105711 -3.202853 -1.847450
-7.190658 -3.768780 -1.874292
-8.629159 -4.520810 -1.893589
-14.206630 -7.439678 1.403033
-10.969666 -5.742121 -1.961063
-14.009436 -7.330187 1.941379
-14.195416 -7.424338 -1.966971
-14.009938 -7.324222 2.503890
-14.001795 -7.316849 3.070880
-13.976822 -7.297594 3.640158
-6.125423 -3.185977 -1.850039
-7.210686 -3.747251 -1.876092
-8.627465 -4.481608 -1.889772
-14.225437 -7.386373 1.402336
-10.993152 -5.705615 -1.961689
-14.087803 -7.308661 1.948691
-14.337553 -7.435059 -1.983058
-14.107801 -7.315916 2.517031
-14.502997 -7.517642 -1.429180
-14.114408 -7.313088 3.089961
-14.518018 -7.519001 -0.856844
-14.109507 -7.304307 3.668052
-14.542369 -7.528394 -0.285836
-6.145092 -3.169003 -1.852627
-14.598610 -7.528453 0.286708
-7.240396 -3.732248 -1.880591
-14.659789 -7.553526 0.864276
-8.620366 -4.439781 -1.884811
-14.329078 -7.376798 1.410006
-11.047137 -5.687212 -1.967946
-14.182565 -7.298240 1.958441
-14.446859 -7.431056 -1.994758
-14.200010 -7.300949 2.528920
-14.483079 -7.443290 -1.424648
-14.194460 -7.294960 3.102173
-14.494905 -7.446175 -0.854018
-14.185658 -7.284182 3.681549
-14.518749 -7.452014 -0.284858
-6.155568 -3.148607 -1.852627
-14.555362 -7.441945 0.285347
-7.253379 -3.706951 -1.880591
-14.572237 -7.444159 0.857577
-8.614062 -4.400453 -1.880232
-14.424439 -7.365482 1.416978
-11.156652 -5.694414 -1.983902
-14.306975 -7.299208 1.972090
-14.483323 -7.385992 -1.996220
-14.278207 -7.278250 2.538306
-14.491219 -7.383646 -1.422905
-14.286308 -7.279239 3.116674
-14.503011 -7.386467 -0.852971
-14.297832 -7.278826 3.704044
-14.514374 -7.385875 -0.284265
-6.165343 -3.125151 -1.852109
-14.547362 -7.373914 0.284684
-7.276703 -3.686895 -1.883290
-14.592787 -7.390539 0.857263
-8.630133 -4.368851 -1.880232
-14.501116 -7.337753 1.421859
-11.193315 -5.661509 -1.986718
-14.420938 -7.294021 1.984277
-14.618854 -7.390922 -2.011332
-14.409307 -7.281823 2.557078
-14.557808 -7.353679 -1.426914
-14.418042 -7.279921 3.139571
-14.560299 -7.348560 -0.854751
-14.404446 -7.266747 3.724740
-14.554349 -7.342370 -0.284544
-6.186571 -3.108817 -1.855215
-14.595735 -7.331316 0.285103
-7.288428 -3.659324 -1.882840
-14.602432 -7.331490 0.856321
-8.640065 -4.336060 -1.879087
-14.633492 -7.340690 1.432317
-11.225369 -5.628600 -1.988908
-14.486617 -7.260688 1.989639
-14.723936 -7.376413 -2.022056
-14.498219 -7.263333 2.568341
-14.661773 -7.342070 -1.434584
-14.481992 -7.248877 3.147967
-14.660882 -7.335224 -0.859147
-14.482012 -7.242571 3.738236
-14.665740 -7.334455 -0.286219
-6.211218 -3.094094 -1.859356
-14.695139 -7.320326 0.286568
-7.310988 -3.640345 -1.885540
-14.667270 -7.300054 0.858624
-8.644603 -4.300624 -1.876797
-14.741093 -7.330373 1.440336
-11.270504 -5.604537 -1.993601
-14.585273 -7.249717 1.999876
-14.762539 -7.334612 -2.024006
-14.590716 -7.246069 2.580230
-14.765835 -7.329829 -1.442253
-14.622010 -7.258434 3.173154
-14.756689 -7.322075 -0.863334
-14.600225 -7.241264 3.762532
-14.773664 -7.324077 -0.287825
-6.224909 -3.075191 -1.860391
-14.808463 -7.312366 0.288279
-7.328893 -3.617392 -1.886889
-14.784011 -7.293879 0.863962
-8.628884 -4.257169 -1.870310
-14.822500 -7.309647 1.445914
-11.330750 -5.585252 -2.000797
-14.717332 -7.251403 2.014500
-14.873530 -7.325134 -2.035706
-14.693899 -7.233484 2.593997
-14.868712 -7.319541 -1.449923
-14.703628 -7.235082 3.185365
-14.869977 -7.313712 -0.868463
-14.681373 -7.217771 3.776928
-14.863751 -7.304208 -0.289082
-6.239077 -3.055141 -1.861427
-14.905740 -7.295798 0.289675
-7.353729 -3.597782 -1.890039
-14.891916 -7.282585 0.868777
-8.648986 -4.229609 -1.871455
-14.812125 -7.240367 1.442428
-11.376800 -5.558674 -2.005490
-14.788933 -7.222631 2.020838
-14.981069 -7.313233 -2.046918
-14.814926 -7.228927 2.610892
-14.972959 -7.306038 -1.457593
-14.820552 -7.228466 3.205209
-14.977999 -7.302026 -0.873278
-14.808084 -7.215991 3.803022
-14.973653 -7.293436 -0.290722
-6.253178 -3.035032 -1.862462
-15.003082 -7.278636 0.291071
-7.385531 -3.581445 -1.894988
-15.000446 -7.274124 0.873697
-8.654861 -4.195112 -1.869547
-14.941303 -7.239003 1.452538
-11.415692 -5.528396 -2.008932
-14.910539 -7.217672 2.033999
-15.081554 -7.297207 -2.057155
-14.913498 -7.215893 2.624032
-15.070116 -7.288423 -1.464565
-14.930536 -7.217702 3.223527
-15.080724 -7.287063 -0.877779
-14.906885 -7.199851 3.821919
-15.080587 -7.283747 -0.292328
-6.275920 -3.019048 -1.866085
-15.111833 -7.269587 0.292712
-7.385073 -3.551022 -1.891838
-15.104956 -7.259787 0.878302
-8.664145 -4.162325 -1.868402
-15.005997 -7.205778 1.456372
-11.467795 -5.506758 -2.014876
-15.020294 -7.209419 2.045699
-15.205898 -7.295240 -2.070804
-15.031217 -7.208207 2.640301
-15.185298 -7.278833 -1.473281
-15.021664 -7.200397 3.238029
-15.180455 -7.273258 -0.882175
-15.029103 -7.197514 3.847113
-15.201516 -7.276822 -0.294178
-6.289385 -2.999883 -1.867121
-15.218343 -7.255518 0.294282
-7.416774 -3.534445 -1.896787
-15.204133 -7.242230 0.882594
-8.658403 -4.124283 -1.864204
-15.126948 -7.202226 1.465785
-11.495867 -5.470935 -2.016440
-15.109901 -7.187642 2.054474
-15.224100 -7.238707 -2.069829
-15.124085 -7.187912 2.652190
-15.290330 -7.266922 -1.481125
-15.163744 -7.203521 3.263216
-15.285135 -7.257918 -0.886781
-15.110472 -7.171746 3.861510
-15.291863 -7.254573 -0.295434
-6.310297 -2.982864 -1.870227
-15.326744 -7.241651 0.295888
-7.436116 -3.511861 -1.898587
-15.306984 -7.225775 0.887095
-8.639014 -4.078111 -1.856953
-15.242090 -7.191894 1.474501
-11.518466 -5.432462 -2.017066
-15.239043 -7.183949 2.068610
-15.389338 -7.251523 -2.088841
-15.202694 -7.160329 2.661576
-15.411132 -7.258502 -1.490363
-15.256294 -7.182322 3.277717
-15.404351 -7.248735 -0.892223
-15.237693 -7.167068 3.887604
-15.402150 -7.241138 -0.297075
-6.322420 -2.961639 -1.870744
-15.438860 -7.228805 0.297564
-7.462449 -3.492491 -1.902186
-15.417138 -7.212079 0.892014
-8.676313 -4.058746 -1.861914
-15.353734 -7.179148 1.482868
-11.548097 -5.397240 -2.018943
-15.389921 -7.189528 2.085672
-15.392977 -7.187678 -2.085916
-15.374378 -7.175725 2.687232
-15.509855 -7.235662 -1.497336
-15.388021 -7.178823 3.300614
-15.521877 -7.237972 -0.897562
-15.333269 -7.146765 3.905600
-15.512526 -7.227019 -0.298715
-6.334986 -2.939258 -1.871262
-15.536556 -7.208533 0.298960
-7.485201 -3.471341 -1.904886
-15.538259 -7.202737 0.897562
-8.723197 -4.041773 -1.868783
-15.477571 -7.168044 1.492281
-11.600068 -5.369814 -2.024575
-15.447351 -7.150770 2.090060
-15.309876 -7.083886 -2.071291
-15.445948 -7.143574 2.695366
-15.623633 -7.222442 -1.505877
-15.460568 -7.143785 3.310536
-15.640776 -7.223741 -0.902900
-15.465518 -7.139524 3.932594
-15.626622 -7.213896 -0.300426
-15.551987 -7.176149 4.589379
-6.352228 -2.920356 -1.873332
-15.660993 -7.196632 0.300845
-7.501417 -3.445508 -1.905785
-15.639537 -7.183464 0.901958
-8.806836 -4.043245 -1.883667
-15.582174 -7.150535 1.499950
-11.616946 -5.328466 -2.024262
-15.538418 -7.123886 2.098834
-15.505370 -7.105465 -2.094203
-15.571352 -7.135702 2.712887
-15.742944 -7.211006 -1.514941
-15.592515 -7.138811 3.333433
-15.729461 -7.198189 -0.906564
-15.642751 -7.155207 3.971286
-15.749905 -7.204221 -0.302311
-6.374689 -2.903771 -1.876956
-15.773940 -7.185277 0.302555
-7.509253 -3.419000 -1.904886
-15.760862 -7.172673 0.907506
-8.951350 -4.071822 -1.911525
-15.715864 -7.145574 1.510409
-11.647140 -5.295636 -2.026452
-15.670390 -7.121598 2.113458
-15.673438 -7.119688 -2.113702
-15.689699 -7.123767 2.729156
-15.856920 -7.196355 -1.523482
-15.662585 -7.108160 3.343355
-15.846005 -7.188071 -0.911902
-15.862384 -7.188821 -0.303986
-6.389565 -2.885000 -1.878509
-15.884590 -7.168832 0.304195
-7.533577 -3.398374 -1.908035
-15.861028 -7.154862 0.911902
-8.986281 -4.051800 -1.916104
-15.801230 -7.121255 1.516336
-11.712382 -5.276042 -2.034587
-15.814616 -7.120648 2.129545
-15.792326 -7.107297 -2.126376
-15.788891 -7.105752 2.742296
-15.980633 -7.188686 -1.533069
-15.837708 -7.121075 3.375411
-15.954802 -7.170371 -0.916717
-15.966395 -7.172233 -0.305522
-6.397834 -2.861890 -1.877991
-15.999546 -7.156944 0.305941
-7.560816 -3.380531 -1.912084
-15.993489 -7.147536 0.918077
-9.032635 -4.034819 -1.922973
-15.906041 -7.101791 1.524005
-11.708168 -5.227509 -2.030833
-15.888900 -7.090816 2.136370
-15.815808 -7.054888 -2.126376
-15.900201 -7.089201 2.757314
-16.078421 -7.165303 -1.540042
-15.943727 -7.105277 3.392966
-16.084307 -7.164562 -0.922788
-16.084509 -7.157924 -0.307302
-6.415346 -2.841551 -1.880062
-16.127478 -7.139982 0.307860
-7.577304 -3.353056 -1.912984
-16.108490 -7.124852 0.923102
-9.054544 -4.004862 -1.924500
-16.055878 -7.098231 1.535859
-11.737189 -5.186506 -2.032397
-16.050385 -7.089106 2.154407
-15.835517 -6.990901 -2.125401
-16.035738 -7.075944 2.776086
-16.206656 -7.151364 -1.549803
-16.024778 -7.067772 3.404414
-16.212214 -7.147061 -0.928545
-16.214357 -7.141248 -0.309257
-6.430533 -2.821468 -1.881615
-16.245699 -7.124601 0.309641
-7.592533 -3.328149 -1.913884
-16.241196 -7.115868 0.929277
-9.054083 -3.966929 -1.921447
-16.171810 -7.082104 1.544574
-11.816747 -5.172438 -2.043034
-16.140503 -7.061680 2.163181
-15.903473 -6.954670 -2.131251
-16.168941 -7.067400 2.794858
-16.328274 -7.137044 -1.559042
-16.157297 -7.058951 3.427312
-16.335903 -7.133584 -0.934197
-16.325331 -7.122188 -0.310897
-6.443885 -2.800544 -1.882650
-16.369513 -7.110878 0.311525
-7.613041 -3.305506 -1.916133
-16.350807 -7.099356 0.934197
-9.084085 -3.942334 -1.924881
-16.328037 -7.082696 1.557124
-11.849230 -5.137444 -2.045537
-16.270697 -7.051077 2.177318
-15.690852 -6.796543 -2.099565
-16.308298 -7.063992 2.814882
-16.451822 -7.122749 -1.568455
-16.304359 -7.055528 3.453262
-16.443195 -7.112201 -0.938907
-16.457155 -7.114829 -0.312957
-6.473141 -2.786437 -1.888344
-16.486677 -7.096879 0.313306
-7.631121 -3.283322 -1.917933
-16.470898 -7.083268 0.939640
-9.119433 -3.919906 -1.929461
-16.466158 -7.074420 1.567932
-11.889795 -5.108259 -2.049605
-16.410728 -7.047213 2.192917
-16.224066 -6.963706 -2.167812
-16.387316 -7.030385 2.824268
-16.584621 -7.111605 -1.578739
-16.407059 -7.035466 3.470052
-16.578671 -7.105628 -0.945292
-16.570127 -7.095122 -0.314632
-6.466352 -2.758134 -1.883685
-16.614363 -7.083198 0.315260
-7.651500 -3.260484 -1.920182
-16.598423 -7.069561 0.945501
-9.150445 -3.897336 -1.933277
-16.537189 -7.040067 1.572464
-11.929365 -5.076005 -2.053359
-16.500988 -7.017858 2.201692
-16.339621 -6.945857 -2.179999
-16.531752 -7.024123 2.844918
-16.692467 -7.092409 -1.586757
-16.558010 -7.031873 3.496766
-16.702650 -7.089855 -0.950944
-16.681318 -7.073934 -0.316273
-6.483059 -2.738552 -1.885756
-16.729256 -7.063272 0.316971
-7.675401 -3.239061 -1.923331
-16.722376 -7.053495 0.951154
-9.182083 -3.873001 -1.937093
-16.682835 -7.033383 1.583969
-11.954293 -5.037405 -2.054610
-16.642469 -7.009525 2.217291
-16.316198 -6.868752 -2.173662
-16.621714 -6.993958 2.856181
-16.830978 -7.082011 -1.597565
-16.662083 -7.007517 3.513557
-16.832245 -7.075624 -0.956911
-16.825752 -7.065986 -0.318541
-6.506837 -2.721868 -1.889897
-16.857124 -7.048033 0.318925
-7.684863 -3.211498 -1.922882
-16.846416 -7.036644 0.956806
-9.204605 -3.844707 -1.939001
-16.788177 -7.008883 1.591638
-11.977273 -4.997927 -2.055549
-16.747452 -6.985012 2.228016
-16.439014 -6.853006 -2.186824
-16.766373 -6.986038 2.876830
-16.953072 -7.063830 -1.606803
-16.780685 -6.988561 3.533401
-16.950880 -7.055974 -0.962249
-16.955561 -7.050975 -0.320531
-6.528792 -2.704315 -1.893520
-16.990633 -7.034278 0.320985
-7.726638 -3.197320 -1.930530
-16.970537 -7.019021 0.962458
-9.217969 -3.812556 -1.939001
-16.889875 -6.982207 1.598959
-12.023858 -4.968155 -2.060555
-16.867138 -6.965916 2.240690
-16.440819 -6.786492 -2.183899
-16.903873 -6.974176 2.896228
-17.082609 -7.047919 -1.616739
-16.917505 -6.976350 3.557061
-17.089891 -7.043949 -0.968739
-17.089163 -7.036671 -0.322590
-6.543554 -2.683707 -1.895073
-17.122400 -7.018918 0.323009
-7.802668 -3.196927 -1.946726
-17.094744 -7.000612 0.968111
-9.303894 -3.810116 -1.954266
-17.032154 -6.971510 1.610115
-12.041126 -4.926156 -2.060555
-17.030994 -6.964096 2.259214
-16.332106 -6.674989 -2.166350
-17.015890 -6.950989 2.911246
-17.217770 -7.033457 -1.627198
-17.058081 -6.964750 3.581485
-17.212387 -7.024243 -0.974286
-17.187002 -7.010390 4.285317
-17.206209 -7.014721 -0.324336
-6.551092 -2.660123 -1.894555
-17.282059 -7.014004 0.325557
-7.867956 -3.191647 -1.960224
-17.237534 -6.988926 0.974810
-9.355344 -3.793107 -1.962280
-17.200415 -6.970382 1.623711
-12.041770 -4.877419 -2.057739
-17.161922 -6.947810 2.273351
-16.454674 -6.658146 -2.179512
-17.182890 -6.949318 2.935649
-17.343805 -7.014398 -1.636785
-17.169657 -6.940480 3.599803
-17.373835 -7.019483 -0.982032
-17.334433 -6.996531 -0.326290
-6.553168 -2.634358 -1.892485
-17.386225 -6.985693 0.327058
-7.924258 -3.182318 -1.971471
-17.373032 -6.973355 0.981090
-9.386746 -3.767743 -1.966096
-17.306002 -6.942938 1.631381
-12.005552 -4.814036 -2.048666
-17.300312 -6.933647 2.288463
-16.337767 -6.544567 -2.160987
-17.309738 -6.930412 2.953170
-17.475466 -6.996766 -1.646895
-17.306791 -6.925724 3.623463
-17.489100 -6.995142 -0.987161
-17.481310 -6.984945 -0.328594
-6.576684 -2.617180 -1.896626
-17.521988 -6.969304 0.329152
-7.931695 -3.153200 -1.970571
-17.508638 -6.956916 0.987370
-9.392544 -3.732052 -1.964570
-17.448643 -6.929552 1.642537
-12.055330 -4.785220 -2.054298
-17.442501 -6.920065 2.304062
-16.552423 -6.563597 -2.186336
-17.436665 -6.910712 2.970691
-17.610912 -6.979772 -1.657354
-17.440374 -6.908655 3.646360
-17.630402 -6.980371 -0.993755
-17.635752 -6.975369 -0.331037
-6.600159 -2.599871 -1.900767
-17.659708 -6.952788 0.331282
-7.971669 -3.136911 -1.977770
-17.618313 -6.929383 0.992185
-9.410995 -3.701398 -1.965714
-17.576563 -6.909426 1.652298
-12.099541 -4.753942 -2.058991
-17.544157 -6.889613 2.314299
-16.630669 -6.527540 -2.193648
-17.611475 -6.908955 2.996346
-17.755733 -6.965547 -1.668684
-17.606951 -6.903634 3.676126
-17.766232 -6.962516 -1.000036
-17.767992 -6.956048 -0.333062
-6.609193 -2.576818 -1.900767
-17.814299 -6.941926 0.333725
-7.998913 -3.115429 -1.981819
-17.772678 -6.918563 0.999512
-9.442152 -3.675649 -1.969531
-17.745403 -6.904379 1.665895
-12.093968 -4.703086 -2.055236
-17.719818 -6.887304 2.334286
-16.723667 -6.496763 -2.202910
-17.705458 -6.874606 3.008235
-17.908091 -6.953283 -1.680711
-17.729776 -6.880487 3.696734
-17.900293 -6.943067 -1.006211
-15.256287 -5.911398 -0.285591
-6.609136 -2.550254 -1.898179
-12.119904 -4.674250 0.226742
-8.004283 -3.085388 -1.980469
-17.927181 -6.906744 1.006839
-9.476910 -3.651137 -1.974110
-17.873520 -6.882484 1.675656
-12.075282 -4.647363 -2.049292
-17.847504 -6.865318 2.347935
-16.824066 -6.468262 -2.213148
-17.851048 -6.859525 3.028885
-18.053143 -6.937183 -1.692042
-17.826992 -6.846716 3.711998
-14.402186 -5.528481 -0.808486
-15.034101 -5.765035 -0.281054
-6.621608 -2.528547 -1.899214
-18.097727 -6.907233 0.338123
-8.013184 -3.056734 -1.980019
-18.078083 -6.892508 1.013957
-9.502438 -3.622930 -1.976781
-17.990522 -6.855528 1.684372
-12.048973 -4.589014 -2.042096
-17.964123 -6.838283 2.360122
-16.961573 -6.453260 -2.228259
-17.993052 -6.842110 3.048908
-18.183397 -6.914492 -1.701977
-18.023293 -6.850005 3.747870
-18.209721 -6.917222 -1.020865
-18.206306 -6.908656 -0.339903
-6.643043 -2.510197 -1.902838
-12.195267 -4.605776 0.227544
-8.043860 -3.036314 -1.984968
-18.240318 -6.881527 1.021703
-9.546253 -3.601516 -1.983269
-18.178398 -6.854548 1.699711
-12.101888 -4.560859 -2.048353
-18.143929 -6.834312 2.380596
-16.976562 -6.391220 -2.227284
-18.138847 -6.825174 3.069558
-18.326765 -6.895883 -1.713133
-18.102222 -6.807782 3.759319
-18.345926 -6.895784 -1.027146
-18.338892 -6.885830 -0.341928
-6.659003 -2.489700 -1.904908
-18.385277 -6.870317 0.342591
-8.065363 -3.012310 -1.987668
-18.354042 -6.851345 1.026727
-9.571643 -3.572980 -1.985940
-18.299284 -6.827266 1.708775
-12.121437 -4.519965 -2.048979
-18.268118 -6.808375 2.393758
-17.009932 -6.336079 -2.228747
-18.288446 -6.808678 3.090833
-18.479565 -6.879829 -1.725161
-18.276756 -6.800698 3.790612
-18.502798 -6.881132 -1.034577
-18.501530 -6.873310 -0.344511
-6.683960 -2.472472 -1.909567
-11.720706 -4.333299 0.218120
-8.097764 -2.992241 -1.993066
-18.511549 -6.840286 1.034263
-9.591422 -3.542267 -1.987467
-18.408983 -6.795089 1.716794
-12.120460 -4.471475 -2.046163
-18.444500 -6.800880 2.413744
-16.941448 -6.246673 -2.217047
-18.451792 -6.799910 3.114611
-18.643682 -6.866931 -1.738234
-18.641045 -6.858567 -1.040962
-18.640583 -6.854708 -0.346675
-6.684866 -2.447636 -1.907496
-18.698275 -6.842602 0.347547
-8.122284 -2.970726 -1.996666
-18.669184 -6.828256 1.041800
-8.815764 -3.222623 -1.824516
-18.584869 -6.790070 1.731087
-8.830508 -3.224519 -1.488943
-18.586296 -6.783233 2.429344
-8.846533 -3.228620 -1.156296
-18.574451 -6.775238 3.131505
-8.874567 -3.235342 -0.826411
-8.891759 -3.238094 -0.495936
-12.886862 -4.690435 -0.239377
-6.691130 -2.424797 -1.906979
-11.907123 -4.312671 0.221052
-8.154078 -2.951737 -2.002064
-18.820618 -6.809252 1.048917
-8.819575 -3.189159 -1.822989
-18.712212 -6.766338 1.740849
-8.807712 -3.183134 -1.483312
-18.765520 -6.778209 2.449818
-8.846546 -3.193676 -1.154834
-18.713192 -6.751925 3.150903
-8.833328 -3.185420 -0.821530
-8.857910 -3.190791 -0.493423
-8.842933 -3.183652 -0.164053
-6.707247 -2.402864 -1.909049
-8.776935 -3.142597 0.162726
-8.168513 -2.923142 -2.002964
-8.919663 -3.190192 0.496459
-8.831204 -3.156813 -1.822989
-8.935995 -3.194271 0.830246
-8.849083 -3.161462 -1.488318
-8.926810 -3.187477 1.163852
-8.850714 -3.158561 -1.153859
-9.033072 -3.221863 1.518979
-8.841190 -3.151686 -0.821181
-9.049033 -3.223996 1.867257
-8.863901 -3.156294 -0.493109
-6.728756 -2.382777 -1.912673
-8.184683 -2.895135 -2.004314
-8.903052 -3.147490 0.494889
-8.901949 -3.145355 -1.835201
-8.913829 -3.149552 0.827108
-12.187299 -4.303782 -2.047102
-8.927202 -3.150771 1.162390
-8.907160 -3.141951 -1.159709
-8.944220 -3.153266 1.502084
-8.897782 -3.135149 -0.825365
-8.953384 -3.152987 1.845123
-8.877295 -3.124447 -0.493214
-8.964945 -3.155297 2.194173
-8.992224 -3.161374 2.554026
-6.746561 -2.361291 -1.915261
-8.213634 -2.871548 -2.008813
-8.905100 -3.111546 0.494365
-9.691883 -3.384556 -1.995481
-8.947885 -3.124741 0.829200
-12.285052 -4.287729 -2.060868
-8.949936 -3.121954 1.163852
-17.334879 -6.043428 -2.254096
-8.963179 -3.123065 1.503335
-8.987131 -3.127891 1.849702
-12.412468 -4.317624 -0.688741
-8.970926 -3.120499 2.192823
-8.983679 -3.121418 2.548332
-6.748878 -2.337009 -1.913708
-8.256262 -2.855761 -2.016911
-15.287151 -5.287677 0.847738
-9.709890 -3.356659 -1.997007
-12.177835 -4.205058 -2.040531
-19.446066 -6.711010 2.525864
-17.387558 -6.000600 -2.258483
-19.393141 -6.688952 3.249144
-14.720448 -5.074408 -1.362244
-12.361766 -4.256496 -0.685182
-9.048862 -3.115772 2.209469
-8.985379 -3.092162 -0.165868
-9.017189 -3.101349 2.555062
-6.752935 -2.313364 -1.912673
-8.274906 -2.831521 -2.019161
-9.737686 -3.330159 -2.000442
-11.671943 -3.989374 1.079162
-12.238447 -4.180615 -2.048353
-12.167868 -4.154134 1.578696
-17.422388 -5.948038 -2.260433
-19.534868 -6.665431 3.269168
-14.938971 -5.094372 -1.380896
-9.042910 -3.078459 -0.166740
-6.773377 -2.295297 -1.916296
-9.053416 -3.066174 0.166845
-8.291634 -2.806563 -2.020960
-15.175218 -5.133576 0.839573
-9.791450 -3.312319 -2.009219
-11.662459 -3.942988 1.077071
-12.381371 -4.183639 -2.069941
-12.177815 -4.112491 1.578208
-17.443045 -5.887186 -2.260433
-19.696524 -6.643926 3.292320
-14.617852 -4.930816 -1.349694
-6.796003 -2.276549 -1.920437
-8.318012 -2.783168 -2.025009
-12.499554 -4.179867 0.690730
-9.808538 -3.279988 -2.010364
-11.729061 -3.919940 1.081951
-12.438993 -4.154788 -2.077137
-19.900890 -6.643300 2.576074
-17.486084 -5.833800 -2.263358
-19.847025 -6.617620 3.313595
-6.807575 -2.254028 -1.921473
-8.335077 -2.756563 -2.026809
-11.694839 -3.865437 0.645512
-9.810607 -3.242651 -2.008456
-20.028950 -6.616187 1.845436
-12.492811 -4.124347 -2.083707
-20.033297 -6.609873 2.590211
-17.510113 -5.773970 -2.263845
-20.035103 -6.602710 3.341128
-14.878993 -4.903478 -1.370611
-11.249757 -3.698730 -0.206706
-6.804386 -2.226646 -1.918367
-8.359467 -2.732296 -2.030408
-11.715857 -3.827069 0.645930
-9.829331 -3.210821 -2.009982
-12.775121 -4.170618 1.175731
-12.552203 -4.095422 -2.091216
-12.473110 -4.067205 1.610869
-17.530161 -5.712812 -2.263845
-20.189507 -6.575560 3.363029
-14.615640 -4.760197 -1.344813
-14.738496 -4.794517 -0.812254
-11.258794 -3.658204 -0.206636
-6.819469 -2.205257 -1.920437
-11.062831 -3.575331 0.202937
-8.393060 -2.710886 -2.036257
-9.857294 -3.181918 -2.013417
-11.860482 -3.826262 1.090318
-12.607783 -4.064917 -2.098099
-20.332138 -6.551429 2.622872
-17.519764 -5.641854 -2.259945
-20.399231 -6.569123 3.394315
-14.962174 -4.815353 -1.375143
-12.057003 -3.875726 -0.663725
-11.236594 -3.609839 -0.206008
-6.889692 -2.201432 -1.938037
-15.238563 -4.869109 0.279238
-8.389009 -2.678889 -2.033108
-11.220292 -3.580851 0.617250
-9.900138 -3.157634 -2.019904
-11.847190 -3.776366 1.087878
-12.534618 -3.995488 -2.083707
-12.076823 -3.847239 1.556272
-17.508112 -5.574090 -2.256046
-20.561331 -6.542197 3.417468
-15.275089 -4.857283 -1.402336
-12.364825 -3.929483 -0.679949
-11.256750 -3.573014 -0.206148
-20.487671 -6.499077 5.759242
-6.978008 -2.204175 -1.960813
-11.037330 -3.484294 0.202029
-8.409460 -2.653107 -2.035807
-11.171768 -3.522446 0.613901
-9.944259 -3.135413 -2.026773
-11.920457 -3.756220 1.093456
-12.620088 -3.974257 -2.095596
-20.762539 -6.534456 2.672595
-17.531250 -5.514131 -2.256533
-20.727262 -6.515399 3.441246
-20.956343 -6.583394 -1.921784
-15.168195 -4.762150 -0.833189
-13.009329 -4.079370 -0.237981
-20.694578 -6.485292 5.811006
-7.059810 -2.201590 -1.981519
-11.469411 -3.576717 0.209708
-8.431694 -2.627795 -2.038956
-11.668350 -3.634287 0.640487
-9.961306 -3.100695 -2.027918
-11.922729 -3.708953 1.092410
-12.689272 -3.944982 -2.104670
-20.929287 -6.506729 2.691119
-17.690674 -5.496488 -2.274570
-20.923441 -6.496904 3.470030
-11.833978 -3.672285 -1.084043
-12.161793 -3.769355 -0.667284
-11.560305 -3.580725 -0.211244
-7.163457 -2.206506 -2.008436
-11.211054 -3.451113 0.204752
-8.446856 -2.598593 -2.040306
-11.662500 -3.585626 0.639441
-9.983329 -3.069366 -2.030208
-11.828952 -3.634542 1.082649
-12.665197 -3.889066 -2.098412
-21.165545 -6.495202 2.718418
-17.790407 -5.456056 -2.284807
-21.101982 -6.467638 3.495685
-12.267714 -3.759985 -1.122566
-19.624945 -6.007442 -1.075609
-12.013184 -3.672797 -0.219272
-7.224715 -2.197791 -2.023447
-21.397614 -6.505171 0.390375
-8.468926 -2.573059 -2.043455
-11.881347 -3.607564 0.650745
-9.990225 -3.033358 -2.029445
-11.555585 -3.506450 1.056502
-12.688148 -3.847702 -2.099977
-21.324869 -6.462733 2.735967
-15.320520 -4.640131 -1.965509
-21.294592 -6.445437 3.523843
-12.050023 -3.647296 -1.101474
-11.795889 -3.565883 -0.645826
-11.679433 -3.526230 -0.212954
-7.369256 -2.213687 -2.061753
-12.717278 -3.817789 0.231768
-8.468525 -2.540679 -2.041206
-11.070644 -3.321352 0.605736
-10.038364 -3.009744 -2.037077
-11.815866 -3.540437 1.079162
-12.716641 -3.807919 -2.102479
-12.732309 -3.810189 1.631831
-15.433620 -4.615635 -1.977940
-21.512672 -6.433659 3.556381
-12.091314 -3.613771 -1.104089
-12.238873 -3.653220 -0.669377
-11.461113 -3.418885 -0.208766
-21.523643 -6.416479 6.018061
-7.458431 -2.212121 -2.084529
-11.351440 -3.366762 0.206671
-8.482509 -2.514246 -2.042556
-12.271394 -3.634952 0.670738
-10.101518 -2.990291 -2.047762
-11.816688 -3.495779 1.078117
-12.776553 -3.779740 -2.110301
-11.991034 -3.545077 1.535310
-15.475492 -4.572304 -1.981352
-21.686562 -6.403272 3.581411
-12.153540 -3.586203 -1.108621
-15.501867 -4.571270 -0.847005
-14.768509 -4.349411 -0.268732
-7.539882 -2.209103 -2.105234
-11.318982 -3.314193 0.205869
-8.504326 -2.488449 -2.045705
-10.117032 -2.958429 -2.048907
-12.011806 -3.510224 1.094850
-12.793463 -3.736223 -2.110927
-12.064313 -3.520998 1.543110
-15.359866 -4.479905 -1.964534
-21.898428 -6.382809 3.612698
-15.097678 -4.400571 -1.375841
-11.697745 -3.405155 -0.638499
-12.279664 -3.569896 -0.223216
-7.575384 -2.190821 -2.112999
-11.284377 -3.261337 0.205031
-8.507343 -2.457128 -2.044355
-11.120169 -3.209673 0.606574
-10.155591 -2.931262 -2.054631
-12.200107 -3.519072 1.110887
-12.842490 -3.701937 -2.116871
-12.015490 -3.461281 1.535310
-18.179611 -5.233528 -2.322830
-15.166559 -4.363267 -1.380721
-11.705723 -3.363196 -0.638289
-12.299737 -3.529219 -0.223356
-21.961058 -6.297232 6.121588
-7.584843 -2.164894 -2.113516
-11.382228 -3.246610 0.206602
-8.517742 -2.427951 -2.044805
-12.796679 -3.645231 0.697324
-10.180866 -2.900097 -2.057684
-11.694926 -3.329179 1.063823
-12.845834 -3.654386 -2.115307
-11.974034 -3.404118 1.528485
-18.247417 -5.184142 -2.329167
-12.406404 -3.522357 -1.128318
-18.557978 -5.261874 -1.010921
-11.492338 -3.254170 -0.208486
-7.616527 -2.145215 -2.120246
-11.612929 -3.268622 0.210581
-8.385469 -2.358629 -2.011062
-13.161189 -3.699441 0.716479
-10.181479 -2.861883 -2.055776
-11.729493 -3.294804 1.065915
-12.849003 -3.606854 -2.113743
-11.221319 -3.147830 1.430990
-18.311274 -5.133278 -2.335017
-12.201829 -3.418295 -1.108621
-12.482889 -3.492334 -0.679321
-11.407331 -3.187129 -0.206741
-7.631414 -2.120682 -2.122316
-11.942188 -3.316352 0.216340
-8.371118 -2.323092 -2.005664
-12.450364 -3.452792 0.677123
-10.231134 -2.837345 -2.063790
-12.355330 -3.424115 1.121694
-12.450311 -3.448101 -2.046163
-12.808693 -3.544945 1.631831
-12.455357 -3.444815 -1.586739
-12.651537 -3.496693 -1.148364
-15.640895 -4.317035 -0.850355
-11.553332 -3.184489 -0.209185
-7.633181 -2.092498 -2.120763
-15.240088 -4.174938 0.275818
-8.397973 -2.299001 -2.010163
-12.090533 -3.307596 0.656921
-10.267488 -2.808867 -2.069133
-11.836772 -3.235954 1.073584
-12.452744 -3.402014 -2.044599
-23.027990 -6.286788 2.930958
-12.632005 -3.446249 -1.607700
-12.404973 -3.381984 2.036464
-12.467598 -3.399058 -1.130584
-11.568462 -3.149588 -0.628346
-12.266770 -3.335108 -0.221890
-7.640438 -2.065843 -2.120763
-12.459249 -3.366432 0.225276
-8.405948 -2.269672 -2.010163
-10.282916 -2.774544 -2.070278
-11.651779 -3.141710 1.055805
-12.992879 -3.500883 -2.131263
-12.603110 -3.393502 1.602582
-12.498272 -3.362934 -1.589176
-12.264093 -3.297628 2.011435
-12.510172 -3.363795 -1.133373
-12.356746 -3.317916 -0.670528
-12.448306 -3.337844 -0.224962
-7.658803 -2.042146 -2.123869
-12.490248 -3.328066 0.225625
-8.425117 -2.243325 -2.012862
-12.420215 -3.304766 0.673564
-10.320995 -2.746207 -2.076002
-11.558699 -3.073371 1.046392
-13.094750 -3.479349 -2.145968
-12.367377 -3.283775 1.571140
-18.457911 -4.897475 -2.344766
-12.577214 -3.334788 2.060868
-11.750419 -3.111178 -0.637033
-11.655643 -3.081731 -0.210441
-7.677095 -2.018346 -2.126975
-12.548206 -3.296641 0.226462
-8.438550 -2.215388 -2.014212
-11.751653 -3.082988 0.636719
-10.396985 -2.727597 -2.089359
-12.320988 -3.230052 1.114373
-13.083884 -3.427614 -2.142214
-11.581807 -3.031949 1.469988
-18.555552 -4.854114 -2.355003
-12.110989 -3.165968 1.982651
-18.880983 -4.935731 -1.707381
-11.908078 -3.108481 -0.644988
-15.331287 -3.996359 -0.276551
-7.684094 -1.991534 -2.126975
-12.950673 -3.354097 0.233513
-8.538674 -2.209843 -2.036257
-11.681129 -3.020944 0.632323
-10.415947 -2.693746 -2.091267
-11.664748 -3.014539 1.054062
-13.114897 -3.386861 -2.145343
-12.730217 -3.285147 1.614281
-18.583916 -4.792292 -2.356466
-12.382120 -3.190708 2.025201
-12.261095 -3.159522 -1.107749
-15.737067 -4.049380 -0.851611
-23.823990 -6.125826 5.679114
-12.141703 -3.119719 -0.218818
-7.692870 -1.965179 -2.127493
-12.024521 -3.069484 0.216619
-8.657745 -2.208440 -2.062801
-12.616714 -3.215961 0.682356
-10.455725 -2.665132 -2.097373
-11.814215 -3.009211 1.066612
-11.543479 -2.938104 -1.886600
-12.385695 -3.150171 1.569190
-18.662098 -4.743039 -2.364265
-12.326119 -3.130435 -1.112630
-11.654580 -2.955559 -0.630125
-12.042023 -3.049340 -0.216829
-7.707177 -1.940200 -2.129563
-11.936258 -3.002612 0.214839
-8.807147 -2.213838 -2.096544
-11.678690 -2.933485 0.631067
-10.491621 -2.635314 -2.102715
-11.940594 -2.997053 1.077071
-11.620725 -2.914613 -1.897550
-18.659285 -4.673040 -2.361828
-12.515237 -3.132004 2.043347
-11.587319 -2.895488 -0.625938
-12.590033 -3.141384 -0.226497
-7.715777 -1.913750 -2.130081
-12.507607 -3.099954 0.224927
-8.954799 -2.217748 -2.129837
-11.733451 -2.903736 0.633475
-10.554117 -2.611881 -2.113400
-12.434514 -3.074929 1.120649
-11.768902 -2.908150 -1.920077
-12.424731 -3.067908 1.571383
-18.683189 -4.609784 -2.362803
-12.192916 -3.006154 -1.098685
-11.713717 -2.883671 -0.632218
-15.801156 -3.884059 -0.284020
-7.722410 -1.886807 -2.130081
-12.019094 -2.934385 0.215956
-9.072293 -2.213264 -2.155931
-12.009354 -2.927565 0.647815
-10.593689 -2.582464 -2.119506
-11.941868 -2.908906 1.075328
-13.341324 -3.247332 -2.174752
-12.485515 -3.036716 1.577721
-18.749321 -4.556728 -2.369140
-12.387070 -3.008193 2.018943
-12.675747 -3.078299 -1.141217
-15.772660 -3.824553 -0.850564
-15.814617 -3.828879 -0.284020
-7.732706 -1.860741 -2.131116
-12.610605 -3.032194 0.226393
-9.212600 -2.213452 -2.187424
-12.407915 -2.978877 0.668749
-10.616002 -2.548677 -2.122178
-13.390996 -3.209954 -2.181010
-12.353184 -2.958897 1.559684
-18.803724 -4.500494 -2.374015
-12.458973 -2.979639 2.028955
-25.506536 -6.100042 -2.294462
-12.100428 -2.891658 2.418313
-16.407562 -3.917914 -0.884059
-12.318790 -2.937023 -0.221052
-7.746674 -1.835519 -2.133187
-11.535299 -2.731084 0.206916
-9.280954 -2.195635 -2.201821
-12.359926 -2.921762 0.665609
-10.651583 -2.517927 -2.127520
-13.415577 -3.166364 -2.183200
-12.355708 -2.913936 1.558709
-18.915928 -4.457600 -2.386202
-12.461608 -2.934319 2.027704
-25.799181 -6.074902 -2.318866
-12.179246 -2.865589 2.432051
-18.528704 -4.356111 -0.997523
-25.460936 -5.981187 6.038136
-12.502232 -2.934675 -0.224159
-7.747389 -1.807152 -2.131634
-14.958724 -3.486512 0.268104
-9.305644 -2.167203 -2.205870
-12.077767 -2.812806 0.649908
-10.681340 -2.485628 -2.131718
-11.991081 -2.788205 1.077071
-13.415004 -3.116833 -2.181322
-12.535967 -2.910295 1.580158
-18.993252 -4.405893 -2.394001
-12.267296 -2.845663 1.994540
-26.072552 -6.043293 -2.341526
-12.196825 -2.824832 2.433578
-11.982446 -2.772975 -0.644570
-12.494360 -2.889145 -0.223845
-7.746119 -1.778368 -2.129563
-14.814283 -3.401091 0.265311
-9.327974 -2.139818 -2.209469
-11.223145 -2.572507 0.603434
-10.707174 -2.452272 -2.135153
-11.942474 -2.732997 1.071841
-13.436820 -3.074974 -2.183200
-11.748268 -2.686399 1.479738
-12.578948 -2.874035 -1.584302
-12.338780 -2.816893 2.004552
-26.373205 -6.016059 -2.366627
-12.153202 -2.770064 -0.653257
-15.503234 -3.527940 -0.277528
-7.763279 -1.755227 -2.132669
-12.520526 -2.828513 0.224054
-9.329685 -2.105959 -2.208120
-11.177504 -2.521011 0.600503
-10.655878 -2.403362 -2.123322
-11.955359 -2.694255 1.072190
-13.487942 -3.037167 -2.189770
-12.648446 -2.845814 1.591857
-12.732224 -2.862325 -1.602338
-26.707930 -5.999307 -2.394866
-12.203723 -2.736802 -0.655456
-15.710591 -3.517495 -0.281019
-7.759930 -1.726020 -2.130081
-12.700153 -2.822535 0.227091
-9.348392 -2.075913 -2.210819
-12.453631 -2.763186 0.668540
-10.627787 -2.358071 -2.116072
-12.003594 -2.661134 1.075676
-13.444459 -2.978105 -2.181010
-11.797748 -2.611179 1.483638
-19.041491 -4.210940 -2.394489
-27.028311 -5.972243 -2.421709
-12.363298 -2.729559 2.461055
-27.090607 -5.976085 -1.453893
-18.534945 -4.081954 -0.331282
-7.767795 -1.699335 -2.130599
-12.461825 -2.723954 0.222658
-9.370813 -2.046595 -2.214418
-11.877799 -2.591952 0.637138
-10.635953 -2.320958 -2.116072
-11.896010 -2.593751 1.065217
-13.568649 -2.955965 -2.199469
-12.485678 -2.717751 1.568946
-19.219013 -4.179884 -2.414963
-27.341034 -5.941321 -2.447856
-12.464562 -2.704046 -0.668435
-11.669641 -2.527329 -0.208417
-7.762347 -1.669772 -2.127493
-12.447797 -2.675395 0.222239
-9.366468 -2.011420 -2.211719
-12.790927 -2.744473 0.685601
-10.640151 -2.282994 -2.115309
-11.795897 -2.528822 1.055456
-13.650353 -2.923888 -2.211045
-15.972256 -3.415410 -2.005482
-16.014034 -3.421417 -1.432666
-12.439651 -2.655479 2.472503
-12.147797 -2.586528 -0.216794
-7.771908 -1.643466 -2.128528
-12.805317 -2.705510 0.228452
-9.394406 -1.983137 -2.216668
-12.075398 -2.546887 0.646768
-10.655741 -2.247459 -2.116835
-13.733930 -2.891690 -2.222934
-11.424274 -2.403308 1.433427
-16.057901 -3.375155 -2.014744
-16.014179 -3.363043 -1.431620
-12.982999 -2.724117 2.578593
-16.032993 -3.361147 -0.858519
-12.434688 -2.602273 -0.221750
-7.777598 -1.616328 -2.128528
-12.035425 -2.498992 0.214560
-9.393640 -1.948749 -2.214868
-12.631807 -2.618224 0.676076
-10.786552 -2.235754 -2.141258
-11.883500 -2.460954 1.061731
-13.813579 -2.858140 -2.234197
-13.676450 -2.824790 -1.714702
-28.584227 -5.898702 -2.553489
-20.712082 -4.266653 -1.108266
-12.200815 -2.508907 -0.217422
-7.783193 -1.589169 -2.128528
-12.008807 -2.449767 0.213932
-9.400384 -1.915949 -2.214868
-12.836580 -2.613968 0.686543
-10.990517 -2.238046 -2.180184
-16.280994 -3.312405 1.453583
-13.908647 -2.827218 -2.247964
-16.238077 -3.297776 2.034487
-13.674555 -2.774664 -1.713239
-16.264294 -3.297185 2.628412
-28.924879 -5.863807 -2.582076
-20.488028 -4.145998 -1.095496
-16.243399 -3.281145 -0.289256
-7.803846 -1.565028 -2.132669
-13.425085 -2.689909 0.238993
-9.412747 -1.884271 -2.216218
-12.179746 -2.435963 0.650955
-11.236978 -2.247409 -2.227504
-11.959004 -2.389644 1.066961
-14.038532 -2.802630 -2.267361
-12.433868 -2.480018 1.556759
-29.304712 -5.834394 -2.614149
-20.110584 -3.996595 -1.074562
-12.284724 -2.436898 -0.218609
-7.790307 -1.534047 -2.127493
-12.092327 -2.378998 0.215118
-9.438390 -1.855161 -2.220717
-12.358679 -2.426915 0.660061
-11.475929 -2.253567 -2.273299
-12.151052 -2.383944 1.083346
-13.631456 -2.671914 -2.200095
-12.598298 -2.467120 1.576258
-19.282852 -3.772665 -2.412526
-19.825645 -3.875264 -1.767344
-19.591211 -3.822346 -1.046091
-29.781900 -5.799804 -0.529611
-7.791821 -1.506111 -2.126457
-12.057364 -2.328431 0.214350
-9.440980 -1.821463 -2.219817
-12.508279 -2.410980 0.667598
-11.643730 -2.244338 -2.304973
-13.617422 -2.619836 -2.196340
-12.037603 -2.313721 1.505087
-19.338791 -3.713567 -2.417888
-12.577012 -2.412845 2.028330
-30.182201 -5.790324 -2.688755
-19.786865 -3.788864 -1.055826
-29.512445 -5.645815 6.937041
-12.411428 -2.372100 -0.220564
-7.808419 -1.481063 -2.129563
-12.110606 -2.294895 0.215153
-9.420475 -1.783424 -2.213518
-13.401691 -2.534700 0.714805
-11.703579 -2.213531 -2.315277
-14.028289 -2.648139 -2.261104
-12.829791 -2.419578 1.603069
-19.359442 -3.647505 -2.418863
-30.597746 -5.759387 -2.723966
-12.321362 -2.310334 -0.218818
-7.809742 -1.453092 -2.128528
-9.443887 -1.753731 -2.217567
-11.726676 -2.175529 -2.318329
-14.352111 -2.657417 -2.311789
-12.943566 -2.394276 1.616231
-19.414999 -3.587845 -2.424225
-31.095728 -5.740804 -2.766497
-31.920130 -5.881483 -1.701023
-12.427687 -2.285391 -0.220564
-7.812867 -1.425474 -2.128010
-20.434168 -3.724571 0.362556
-9.453785 -1.721453 -2.218467
