# This PCD file was generated using the MATLAB® pcwrite function
# from Computer Vision Toolbox®.
# .PCD v.7 - Point Cloud Data file format
VERSION .7
FIELDS x y z
SIZE 4 4 4
TYPE F F F
COUNT 1 1 1
WIDTH 1623
HEIGHT 1
VIEWPOINT 0 0 0 1 0 0 0
POINTS 1623
DATA ascii
-0.016918 -0.659264 0.057697
-0.019234 -0.744469 -0.117952
-0.023795 -0.914818 -0.112364
-0.023048 -0.874355 -0.076523
-0.240336 -9.057231 1.761167
-0.016905 -0.632905 -0.033181
-0.240388 -8.999970 2.078548
-0.016982 -0.631676 -0.011030
-0.242725 -8.970168 2.404429
-0.013981 -0.494356 -0.132515
-0.018088 -0.635646 0.011100
-0.018806 -0.656829 0.034437
-0.019335 -0.667170 0.058394
-0.021358 -0.732554 -0.116074
-0.217369 -7.411133 0.910364
-0.027062 -0.922671 -0.113339
-0.202794 -6.873296 1.089097
-0.019151 -0.645250 -0.056477
-0.270135 -9.048534 1.759641
-0.018764 -0.624860 -0.032762
-0.269998 -8.991332 2.076748
-0.019318 -0.639611 -0.011170
-0.272529 -8.971245 2.404947
-0.015987 -0.505893 -0.135621
-0.020260 -0.637581 0.011135
-0.021227 -0.660752 0.034646
-0.021740 -0.673077 0.058917
-0.023915 -0.736427 -0.116700
-0.296160 -9.071009 1.114373
-0.029761 -0.906699 -0.111389
-0.226524 -6.864649 1.087845
-0.024243 -0.730805 -0.063972
-0.300140 -9.047588 1.759641
-0.021102 -0.632779 -0.033181
-0.301381 -8.990335 2.076748
-0.022224 -0.659525 -0.011519
-0.303973 -8.974100 2.405982
-0.023119 -0.655493 0.011449
-0.024386 -0.684626 0.035902
-0.024207 -0.672992 0.058917
-0.027756 -0.767920 -0.121706
-0.031557 -0.868898 -0.106758
-0.251350 -6.887505 1.091600
-0.023801 -0.649083 -0.056826
-0.333370 -9.048390 1.760022
-0.023347 -0.630702 -0.033076
-0.247126 -6.644507 1.535066
-0.023858 -0.641459 -0.011204
-0.334936 -8.963331 2.403394
-0.018858 -0.486461 -0.130445
-0.025288 -0.649409 0.011344
-0.027523 -0.700497 0.036740
-0.026399 -0.668922 0.058569
-0.028402 -0.716499 -0.113571
-0.285093 -7.160510 0.879897
-0.035535 -0.888611 -0.109195
-0.363160 -9.041911 1.433253
-0.027506 -0.684830 -0.059963
-0.364479 -9.035401 1.757733
-0.025710 -0.634608 -0.033286
-0.364993 -8.970424 2.072699
-0.025963 -0.635373 -0.011100
-0.367628 -8.958183 2.402359
-0.027470 -0.647319 0.011309
-0.030821 -0.720352 0.037787
-0.028905 -0.672807 0.058917
-0.030903 -0.716396 -0.113571
-0.392803 -9.069324 1.114617
-0.037602 -0.864683 -0.106270
-0.395152 -9.050456 1.434817
-0.028419 -0.650891 -0.057000
-0.396445 -9.043880 1.759641
-0.027486 -0.624538 -0.032762
-0.396218 -8.967149 2.072249
-0.028004 -0.631283 -0.011030
-0.398895 -8.956846 2.402359
-0.029638 -0.645221 0.011274
-0.031186 -0.676352 0.035484
-0.030976 -0.666731 0.058394
-0.034691 -0.743909 -0.117952
-0.424644 -9.071864 1.115105
-0.039129 -0.832820 -0.102370
-0.285264 -6.071537 0.962698
-0.031347 -0.664719 -0.058220
-0.428198 -9.046365 1.760404
-0.029382 -0.618453 -0.032448
-0.427052 -8.955978 2.070000
-0.030192 -0.633184 -0.011065
-0.428688 -8.957402 2.402876
-0.030892 -0.627144 0.010960
-0.033349 -0.672250 0.035274
-0.032905 -0.658660 0.057697
-0.035975 -0.720114 -0.114197
-0.332471 -6.631806 0.815306
-0.042489 -0.844581 -0.103833
-0.455949 -9.031774 1.432314
-0.033365 -0.658636 -0.057697
-0.457996 -9.040973 1.759641
-0.031737 -0.624336 -0.032762
-0.457345 -8.966189 2.072699
-0.033629 -0.657040 -0.011484
-0.460348 -8.963571 2.404947
-0.034240 -0.648998 0.011344
-0.038112 -0.720003 0.037787
-0.033605 -0.630693 0.055257
-0.038911 -0.727875 -0.115449
-0.485534 -9.052906 1.113155
-0.044584 -0.828570 -0.101883
-0.485790 -9.028239 1.432001
-0.035119 -0.650564 -0.057000
-0.489658 -9.041279 1.760022
-0.034458 -0.634193 -0.033286
-0.488639 -8.964539 2.072699
-0.035263 -0.646941 -0.011309
-0.489226 -8.946561 2.400805
-0.036280 -0.646885 0.011309
-0.039049 -0.691948 0.036321
-0.036710 -0.646485 0.056651
-0.039980 -0.704075 -0.111694
-0.514648 -9.035390 1.111205
-0.046652 -0.816526 -0.100420
-0.518884 -9.054098 1.436381
-0.036475 -0.634525 -0.055605
-0.519074 -9.029806 1.758114
-0.036675 -0.636069 -0.033390
-0.517240 -8.943414 2.068200
-0.036943 -0.636832 -0.011135
-0.519891 -8.935158 2.398217
-0.037806 -0.630772 0.011030
-0.041585 -0.691800 0.036321
-0.039560 -0.654301 0.057348
-0.042923 -0.707860 -0.112320
-0.415347 -6.829997 0.840167
-0.048336 -0.792564 -0.097495
-0.554712 -9.095514 1.443265
-0.039895 -0.652285 -0.057174
-0.552540 -9.008151 1.754298
-0.038504 -0.625956 -0.032867
-0.552417 -8.954978 2.071349
-0.038907 -0.630705 -0.011030
-0.552757 -8.935120 2.398735
-0.041034 -0.648604 0.011344
-0.043493 -0.683678 0.035902
-0.041462 -0.648194 0.056826
-0.047287 -0.739255 -0.117326
-0.431768 -6.731511 0.828224
-0.051474 -0.800324 -0.098470
-0.582134 -9.026498 1.432627
-0.042815 -0.662083 -0.058046
-0.582662 -9.010188 1.755061
-0.040321 -0.621839 -0.032658
-0.581225 -8.939484 2.068200
-0.041108 -0.630565 -0.011030
-0.584950 -8.948557 2.402876
-0.041166 -0.616533 0.010786
-0.048019 -0.715406 0.037577
-0.044013 -0.654017 0.057348
-0.050133 -0.743028 -0.117952
-0.611616 -9.041283 1.112667
-0.052924 -0.780334 -0.096033
-0.612434 -9.006674 1.429811
-0.045126 -0.661929 -0.058046
-0.614645 -9.015934 1.756588
-0.043037 -0.629665 -0.033076
-0.612825 -8.943233 2.069550
-0.044132 -0.642388 -0.011239
-0.615520 -8.936825 2.400288
-0.045982 -0.654286 0.011449
-0.050234 -0.711250 0.037368
-0.048385 -0.681675 0.059789
-0.051174 -0.719194 -0.114197
-0.642187 -9.025232 1.110961
-0.055365 -0.776184 -0.095546
-0.645982 -9.034037 1.434504
-0.046012 -0.641895 -0.056303
-0.647545 -9.011662 1.756206
-0.045057 -0.625519 -0.032867
-0.645880 -8.944814 2.070450
-0.047526 -0.658186 -0.011519
-0.646432 -8.930768 2.399253
-0.047789 -0.646136 0.011309
-0.053308 -0.719037 0.037787
-0.051948 -0.697397 0.061183
-0.053684 -0.719011 -0.114197
-0.674521 -9.012921 1.109742
-0.058507 -0.779935 -0.096033
-0.676775 -9.021877 1.432940
-0.048849 -0.649677 -0.057000
-0.678554 -9.003474 1.755061
-0.047842 -0.633324 -0.033286
-0.677687 -8.950278 2.072249
-0.048313 -0.638076 -0.011170
-0.676871 -8.918825 2.396664
-0.051319 -0.663918 0.011623
-0.055817 -0.718847 0.037787
-0.051903 -0.665429 0.058394
-0.056375 -0.722768 -0.114823
-0.703013 -8.992823 1.107549
-0.060473 -0.771821 -0.095058
-0.709345 -9.033246 1.435130
-0.051430 -0.653475 -0.057348
-0.707021 -8.983558 1.751627
-0.049628 -0.629180 -0.033076
-0.706903 -8.942153 2.070899
-0.049908 -0.629930 -0.011030
-0.708612 -8.924111 2.398735
-0.052347 -0.647789 0.011344
-0.057033 -0.702722 0.036949
-0.056048 -0.689084 0.060486
-0.058898 -0.722567 -0.114823
-0.734561 -8.992291 1.107792
-0.063490 -0.775562 -0.095546
-0.738288 -8.999214 1.430124
-0.053922 -0.657273 -0.057697
-0.739341 -8.992776 1.753916
-0.051168 -0.621041 -0.032658
-0.737471 -8.931863 2.069100
-0.051942 -0.627759 -0.010995
-0.740237 -8.927360 2.400288
-0.054944 -0.651588 0.011414
-0.066227 -0.782124 0.041136
-0.057779 -0.680943 0.059789
-0.061755 -0.726293 -0.115449
-0.767293 -9.005497 1.109742
-0.066197 -0.775335 -0.095546
-0.770371 -9.004455 1.431376
-0.057745 -0.674947 -0.059266
-0.770559 -8.988185 1.753535
-0.054019 -0.628818 -0.033076
-0.768812 -8.931176 2.069550
-0.056883 -0.659451 -0.011553
-0.771560 -8.926645 2.400805
-0.057218 -0.651392 0.011414
-0.068956 -0.781888 0.041136
-0.058402 -0.660890 0.058046
-0.063592 -0.718203 -0.114197
-0.799250 -9.008696 1.110474
-0.068552 -0.771145 -0.095058
-0.800395 -8.985970 1.428873
-0.058156 -0.652911 -0.057348
-0.802976 -8.997173 1.755824
-0.055858 -0.624647 -0.032867
-0.800330 -8.932320 2.070450
-0.058827 -0.655265 -0.011484
-0.802371 -8.920050 2.399770
-0.060584 -0.663137 0.011623
-0.071685 -0.781643 0.041136
-0.063260 -0.688459 0.060486
-0.063926 -0.694372 -0.110443
-0.830692 -9.005851 1.110474
-0.070512 -0.762994 -0.094083
-0.832668 -8.992956 1.430437
-0.060251 -0.650720 -0.057174
-0.833833 -8.988450 1.754680
-0.059147 -0.636380 -0.033495
-0.831326 -8.927531 2.070000
-0.061299 -0.657046 -0.011519
-0.833861 -8.921041 2.400805
-0.063276 -0.666903 0.011693
-0.065663 -0.688234 0.060486
-0.064846 -0.678413 -0.107940
-0.603448 -6.301632 0.777283
-0.073933 -0.770648 -0.095058
-0.659002 -6.856543 1.090974
-0.062713 -0.652489 -0.057348
-0.863886 -8.971806 1.752008
-0.060601 -0.628218 -0.033076
-0.863420 -8.934274 2.072249
-0.063978 -0.660809 -0.011588
-0.864252 -8.910385 2.398735
-0.065212 -0.662698 0.011623
-0.068458 -0.691966 0.060835
-0.070331 -0.709634 -0.112946
-0.629363 -6.338995 0.782157
-0.075444 -0.758533 -0.093596
-0.894450 -8.977097 1.428873
-0.064990 -0.652267 -0.057348
-0.896174 -8.978503 1.753916
-0.062396 -0.624028 -0.032867
-0.893630 -8.921511 2.070000
-0.067083 -0.668541 -0.011728
-0.896122 -8.915003 2.400805
-0.069147 -0.678381 0.011903
-0.073309 -0.715507 0.062926
-0.070790 -0.689734 -0.109817
-0.923938 -8.986785 1.109255
-0.077278 -0.750366 -0.092621
-0.925782 -8.973920 1.428873
-0.068289 -0.661945 -0.058220
-0.927509 -8.975320 1.753916
-0.065191 -0.629766 -0.033181
-0.923762 -8.908645 2.067750
-0.068590 -0.660346 -0.011588
-0.927634 -8.915664 2.401841
-0.068998 -0.654272 0.011484
-0.964411 -9.114542 0.480339
-0.075387 -0.711284 0.062578
-0.071946 -0.677697 -0.107940
-0.954883 -8.979558 1.108767
-0.081158 -0.761936 -0.094083
-0.956681 -8.966704 1.428247
-0.069119 -0.647835 -0.057000
-0.960502 -8.987645 1.756969
-0.069090 -0.645422 -0.034018
-0.955476 -8.911179 2.069100
-0.071535 -0.666068 -0.011693
-0.956478 -8.891242 2.396147
-0.082114 -0.753423 0.013229
-0.984497 -9.003907 0.474687
-0.073097 -0.667444 0.058743
-0.074742 -0.681369 -0.108566
-0.986655 -8.980115 1.109255
-0.082949 -0.753755 -0.093108
-0.988841 -8.971164 1.429498
-0.071380 -0.647589 -0.057000
-0.989930 -8.966676 1.753535
-0.069586 -0.629295 -0.033181
-0.987434 -8.915536 2.070899
-0.074080 -0.667801 -0.011728
-0.989215 -8.903210 2.400288
-1.018934 -9.055467 0.159061
-1.016369 -9.004384 0.474897
-0.075874 -0.671145 0.059092
-0.074898 -0.661475 -0.105437
-1.017325 -8.970699 1.108524
-0.086476 -0.761350 -0.094083
-1.022606 -8.989247 1.432940
-0.074766 -0.657234 -0.057871
-1.020779 -8.959265 1.752772
-0.071556 -0.627064 -0.033076
-1.018328 -8.910099 2.070450
-0.074819 -0.653632 -0.011484
-1.020288 -8.899703 2.400288
-1.053764 -9.079664 0.159550
-1.050374 -9.036675 0.476781
-0.080062 -0.686708 0.060486
-0.074915 -0.641589 -0.102308
-1.053243 -9.006527 1.113398
-0.086824 -0.741328 -0.091646
-1.052410 -8.985807 1.432940
-0.076131 -0.649054 -0.057174
-1.054794 -8.979043 1.757351
-0.072811 -0.618876 -0.032658
-1.048512 -8.898748 2.068650
-0.076752 -0.651394 -0.011449
-1.050020 -8.898189 2.400805
-0.057268 -0.479556 -0.129410
-1.084816 -9.084063 0.159690
-1.086424 -9.070633 0.478769
-1.093350 -9.101549 0.802007
-0.077985 -0.649182 -0.103560
-1.092825 -9.083791 1.123392
-0.089756 -0.744977 -0.092133
-1.095364 -9.078176 1.448270
-0.080548 -0.666586 -0.058743
-1.093279 -9.047613 1.771471
-0.077502 -0.640442 -0.033809
-1.078484 -8.899093 2.069550
-0.075652 -0.623330 -0.010960
-1.081308 -8.896388 2.401323
-1.119058 -9.074713 0.479188
-1.119619 -9.066236 0.799218
-0.083645 -0.676352 -0.107940
-1.123795 -9.074012 1.122661
-0.091379 -0.736780 -0.091158
-1.126559 -9.070376 1.447645
-0.080169 -0.644552 -0.056826
-1.128731 -9.074912 1.777577
-0.079490 -0.638186 -0.033704
-1.109541 -8.895274 2.069550
-1.136180 -9.095919 -0.160004
-1.110916 -8.881058 2.398217
-1.149714 -9.088171 0.159899
-1.152487 -9.084621 0.479921
-1.158373 -9.105553 0.803053
-0.077136 -0.605498 -0.096677
-1.156716 -9.079878 1.123879
-0.094453 -0.740394 -0.091646
-1.159717 -9.078145 1.449522
-0.081407 -0.636364 -0.056128
-1.162234 -9.072663 1.777958
-0.081829 -0.637890 -0.033704
-1.142137 -8.891148 2.069550
-1.167160 -9.085947 -0.159899
-1.142650 -8.882874 2.399770
-1.181209 -9.070015 0.159655
-1.185225 -9.088466 0.480339
-1.191183 -9.109355 0.803750
-0.080788 -0.616977 -0.098554
-1.190505 -9.079515 1.124367
-0.096649 -0.736107 -0.091158
-0.897727 -6.837358 1.092226
-0.085186 -0.647928 -0.057174
-1.197485 -9.095800 1.783301
-0.081967 -0.621760 -0.032867
-1.174186 -8.894834 2.071349
-1.200439 -9.093712 -0.160108
-1.173397 -8.876916 2.399253
-1.212074 -9.071994 0.159759
-1.215881 -9.076354 0.479921
-1.222973 -9.105143 0.803750
-0.084938 -0.632368 -0.101057
-1.222194 -9.087321 1.125829
-0.096440 -0.716109 -0.088721
-1.228872 -9.112896 1.456405
-0.088780 -0.657499 -0.058046
-1.232895 -9.130692 1.790933
-0.092056 -0.680862 -0.036007
-1.201062 -8.871580 2.066850
-1.232175 -9.089466 -0.160108
-1.206194 -8.886166 2.402876
-0.069216 -0.505290 -0.136656
-1.245635 -9.081576 0.160004
-1.245430 -9.068316 0.479711
-1.250985 -9.085247 0.802356
-0.087144 -0.632068 -0.101057
-1.253365 -9.079066 1.125342
-0.100026 -0.723634 -0.089696
-1.256921 -9.093117 1.453902
-0.090960 -0.657201 -0.058046
-1.263142 -9.114665 1.788644
-0.096079 -0.692406 -0.036635
-1.233362 -8.876985 2.069100
-1.259007 -9.061563 -0.159690
-1.235921 -8.884030 2.403394
-1.276023 -9.079375 0.160039
-1.277912 -9.069846 0.480025
-1.280463 -9.065042 0.800961
-0.087030 -0.616127 -0.098554
-1.282908 -9.070930 1.124854
-0.101312 -0.715436 -0.088721
-1.288655 -9.088674 1.453902
-0.090453 -0.637153 -0.056303
-1.297775 -9.141525 1.794749
-0.100623 -0.707903 -0.037473
-1.262518 -8.870916 2.068650
-1.288092 -9.039295 -0.159375
-1.265834 -8.872013 2.401323
-1.307293 -9.060783 0.159794
-1.312576 -9.074985 0.480549
-1.314382 -9.076292 0.802356
-0.085886 -0.592345 -0.094799
-1.317858 -9.077953 1.126317
-0.102791 -0.707202 -0.087746
-1.324234 -9.099527 1.456405
-0.093538 -0.642748 -0.056826
-1.326744 -9.105624 1.788644
-0.099758 -0.683813 -0.036216
-1.297558 -8.883584 2.072699
-1.324107 -9.054300 -0.159724
-1.297782 -8.863490 2.400288
-1.339497 -9.060122 0.159864
-1.342489 -9.058493 0.479921
-1.345470 -9.067707 0.802007
-0.084470 -0.568595 -0.091045
-1.350122 -9.077225 1.126804
-0.102336 -0.687204 -0.085309
-1.355988 -9.094851 1.456405
-0.095487 -0.640447 -0.056651
-1.350404 -9.046570 1.777958
-0.101554 -0.679510 -0.036007
-1.325963 -8.861654 2.068650
-1.354519 -9.041712 -0.159585
-1.329288 -8.862727 2.401323
-1.372314 -9.063299 0.160004
-1.374399 -9.055727 0.480025
-1.380707 -9.086593 0.804099
-0.090613 -0.595637 -0.095425
-1.379408 -9.056757 1.124854
-0.102340 -0.671144 -0.083359
-1.388920 -9.097873 1.457657
-0.097722 -0.640110 -0.056651
-3.920488 -25.650454 5.043845
-0.106040 -0.692972 -0.036740
-1.357184 -8.858899 2.069100
-1.389408 -9.058670 -0.159969
-1.360509 -8.859942 2.401841
-1.402716 -9.050550 0.159864
-1.407535 -9.060742 0.480549
-1.411192 -9.073842 0.803402
-0.095731 -0.614836 -0.098554
-1.414072 -9.071501 1.127291
-0.104682 -0.670782 -0.083359
-1.419449 -9.085161 1.456405
-0.100263 -0.641734 -0.056826
-1.417776 -9.064075 1.783301
-0.106913 -0.682731 -0.036216
-1.388401 -8.856033 2.069550
-1.417919 -9.034011 -0.159620
-1.391729 -8.857048 2.402359
-1.434612 -9.047573 0.159899
-0.080963 -0.510030 -0.119224
-1.436960 -9.041965 0.479816
-1.445362 -9.084601 0.804796
-0.096012 -0.602793 -0.096677
-1.446353 -9.070430 1.127779
-0.108900 -0.682175 -0.084821
-1.454894 -9.103559 1.460160
-0.104075 -0.651217 -0.057697
-1.451267 -9.070704 1.785591
-0.110243 -0.688270 -0.036530
-1.418380 -8.845360 2.068200
-1.448810 -9.025058 -0.159550
-1.421717 -8.846413 2.400805
-1.465867 -9.040536 0.159864
-1.470116 -9.046753 0.480339
-1.473225 -9.055903 0.802704
-0.100021 -0.614152 -0.098554
-1.476089 -9.053571 1.126317
-0.110002 -0.673954 -0.083846
-1.480292 -9.059434 1.453902
-0.107311 -0.656749 -0.058220
-1.481654 -9.057832 1.784064
-0.111354 -0.679997 -0.036112
-1.451139 -8.851892 2.070899
-1.488078 -9.067304 -0.160388
-1.453214 -8.845210 2.401841
-1.496107 -9.027473 0.159724
-1.502069 -9.053649 0.480967
-1.508747 -9.074290 0.804796
-0.099570 -0.598211 -0.096051
-1.507683 -9.048363 1.126317
-0.113660 -0.681398 -0.084821
-1.518126 -9.101238 1.461411
-0.107962 -0.646544 -0.057348
-1.515851 -9.068096 1.787117
-0.111090 -0.663845 -0.035274
-1.482995 -8.852540 2.072249
-1.517477 -9.058375 -0.160318
-1.481898 -8.836531 2.400805
-1.529703 -9.044151 0.160108
-1.531994 -9.038506 0.480444
-1.537078 -9.049326 0.803053
-0.104199 -0.613457 -0.098554
-1.537015 -9.039399 1.125829
-0.113254 -0.665361 -0.082871
-1.551214 -9.103673 1.462662
-0.115579 -0.677588 -0.060137
-1.550536 -9.090114 1.792460
-0.119341 -0.698911 -0.037159
-1.509716 -8.832206 2.068650
-1.551111 -9.064850 -0.160527
-1.513388 -8.835113 2.401841
-1.561263 -9.038756 0.160108
-1.562172 -9.025230 0.480025
-1.566398 -9.040253 0.802704
-0.109040 -0.628660 -0.101057
-1.566521 -9.022244 1.124367
-0.115576 -0.664962 -0.082871
-1.580273 -9.082634 1.460160
-0.116117 -0.667386 -0.059266
-1.584951 -9.100120 1.795513
-0.113204 -0.649301 -0.034542
-1.541878 -8.834561 2.070450
-1.581367 -9.051500 -0.160388
-1.544884 -8.833582 2.402876
-1.594542 -9.043097 0.160283
-1.595057 -9.027589 0.480444
-1.596557 -9.026883 0.802007
-0.113301 -0.639947 -0.102934
-1.603548 -9.047996 1.128266
-0.120671 -0.680191 -0.084821
-1.608513 -9.057612 1.457031
-0.116704 -0.657168 -0.058394
-1.612584 -9.071337 1.790933
-1.528055 -8.587133 -0.457102
-1.574074 -8.836800 2.072249
-1.607337 -9.014427 -0.159829
-1.572994 -8.812922 2.398735
-1.623973 -9.025668 0.160073
-1.628331 -9.031795 0.480967
-1.632302 -9.044784 0.804099
-0.103594 -0.573454 -0.092296
-1.632296 -9.026715 1.126317
-0.120216 -0.664139 -0.082871
-1.640825 -9.055831 1.457657
-0.117222 -0.646955 -0.057523
-1.647742 -9.084969 1.794749
-1.548745 -8.530653 -0.454381
-1.606652 -8.840837 2.074499
-1.657403 -9.111067 -0.161644
-1.603748 -8.807378 2.398735
-1.653665 -9.010110 0.159899
-1.660931 -9.031948 0.481281
-1.665308 -9.046867 0.804796
-0.112754 -0.611943 -0.098554
-1.664514 -9.024867 1.126804
-0.121812 -0.659811 -0.082384
-1.672426 -9.050049 1.457657
-0.118393 -0.640664 -0.057000
-1.670160 -9.028968 1.784827
-1.579967 -8.533051 -0.454800
-1.637503 -8.835176 2.074499
-1.678254 -9.046242 -0.160597
-1.635186 -8.805524 2.399770
-1.685473 -9.006248 0.159934
-1.691713 -9.022170 0.481072
-1.696142 -9.037084 0.804447
-0.114889 -0.611545 -0.098554
-1.695274 -9.015100 1.126317
-0.124115 -0.659382 -0.082384
-1.707664 -9.063566 1.460785
-0.120998 -0.642205 -0.057174
-1.709672 -9.065528 1.793223
-1.657164 -8.778696 -0.468197
-1.667248 -8.823662 2.073149
-1.709079 -9.036399 -0.160527
-1.667351 -8.807355 2.401841
-1.719897 -9.016025 0.160213
-1.722821 -9.014248 0.480967
-1.729173 -9.038936 0.805145
-0.119996 -0.626662 -0.101057
-1.728974 -9.020825 1.127779
-0.131652 -0.686238 -0.085796
-1.739291 -9.057550 1.460785
-0.125493 -0.653518 -0.058220
-4.885957 -25.420208 5.031633
-1.733078 -9.008214 -0.480758
-1.698038 -8.817788 2.073149
-1.734555 -8.998960 -0.159969
-1.699548 -8.809069 2.403911
-1.749452 -9.000151 0.160039
-1.753512 -9.004258 0.480758
-1.758429 -9.021111 0.804099
-0.125965 -0.645627 -0.104185
-1.763496 -9.030321 1.129729
-0.133285 -0.681878 -0.085309
-1.773932 -9.066934 1.463288
-0.124713 -0.637434 -0.056826
-4.974661 -25.403000 5.031633
-1.766816 -9.013869 -0.481386
-1.730308 -8.819456 2.074948
-1.762875 -8.977154 -0.159690
-1.728051 -8.791709 2.400805
-1.782411 -9.001836 0.160178
-1.784156 -8.994164 0.480549
-1.786027 -8.995376 0.802356
-0.124368 -0.625808 -0.101057
-1.788036 -8.989065 1.125342
-0.140315 -0.704771 -0.088233
-1.798622 -9.025816 1.457657
-0.130052 -0.652626 -0.058220
-1.781066 -8.921468 -0.476781
-1.762992 -8.822917 2.077198
-1.801259 -9.006241 -0.160318
-1.761385 -8.798883 2.404429
-1.815009 -9.001439 0.160283
-1.819494 -9.007459 0.481596
-1.824524 -9.024238 0.805493
-0.137522 -0.679582 -0.109817
-1.821767 -8.994443 1.126804
-0.152241 -0.750969 -0.094083
-1.826189 -9.000122 1.454528
-0.130349 -0.642405 -0.057348
-1.821231 -8.967662 1.778722
-1.804240 -8.876052 -0.474687
-1.793391 -8.814800 2.076748
-1.813532 -8.905843 -0.158642
-1.794402 -8.804038 2.407535
-1.823901 -8.885354 0.158328
-1.828397 -8.891499 0.475734
-1.839143 -8.935851 0.798172
-0.138299 -0.671359 -0.108566
-1.855959 -9.001637 1.128510
-0.167699 -0.812646 -0.101883
-1.860790 -9.009169 1.457031
-0.133396 -0.645849 -0.057697
-1.861268 -9.003547 1.787117
-1.834807 -8.867744 -0.474583
-1.822963 -8.802762 2.075398
-1.842174 -8.887710 -0.158433
-1.827478 -8.809072 2.410641
-1.853269 -8.871103 0.158189
-1.856559 -8.871377 0.475001
-1.862971 -8.894277 0.795035
-0.138210 -0.659272 -0.106688
-1.866987 -8.897965 1.116323
-0.180326 -0.858680 -0.107733
-1.871098 -8.902096 1.440762
-1.860984 -8.853978 -0.791548
-1.889451 -8.981625 1.784064
-1.867397 -8.869102 -0.475001
-1.854886 -8.802065 2.076748
-1.881439 -8.920359 -0.159131
-1.858615 -8.804528 2.411158
-1.885888 -8.872403 0.158328
-1.888346 -8.868750 0.475211
-1.893177 -8.883821 0.794686
-0.138038 -0.647194 -0.104811
-1.895962 -8.881688 1.115105
-0.186641 -0.873576 -0.109682
-1.895552 -8.864603 1.435756
-1.817721 -8.500623 -0.760521
-1.898603 -8.871307 1.763457
-1.899599 -8.868390 -0.475315
-1.886008 -8.797442 2.077198
-1.912567 -8.913736 -0.159131
-1.885686 -8.780988 2.406500
-1.915156 -8.857949 0.158189
-1.922253 -8.875769 0.475943
-1.921643 -8.865477 0.793640
-0.126895 -0.584933 -0.094799
-1.929482 -8.886654 1.116567
-0.212451 -0.977669 -0.122844
-1.925223 -8.852141 1.434817
-1.881678 -8.651923 -0.774640
-1.927054 -8.853115 1.761167
-1.932244 -8.869510 -0.475734
-1.917120 -8.792708 2.077648
-1.939406 -8.887469 -0.158782
-1.917151 -8.778127 2.407535
-1.946493 -8.853162 0.158224
-1.953223 -8.869004 0.475943
-1.955150 -8.870388 0.794686
-0.116170 -0.526617 -0.085413
-1.954070 -8.850789 1.112911
-1.970178 -8.916351 -1.121198
-1.958671 -8.856939 1.436694
-1.959623 -8.861240 -0.793989
-1.958793 -8.850169 1.761930
-1.962761 -8.860761 -0.475629
-1.951176 -8.801184 2.081247
-1.965219 -8.857219 -0.158363
-1.951131 -8.786469 2.411676
-1.979131 -8.854120 0.158363
-1.983296 -8.858234 0.475734
-1.988281 -8.873231 0.795558
-0.118007 -0.526208 -0.085413
-1.989300 -8.863284 1.115348
-1.727200 -7.689217 -0.967643
-1.990442 -8.853904 1.437320
-1.991830 -8.852854 1.763838
-1.978029 -8.777210 2.077198
-1.997005 -8.854205 -0.158433
-1.982215 -8.781489 2.412194
-2.013568 -8.862758 0.158642
-2.015979 -8.859048 0.476153
-2.019683 -8.868178 0.795732
-2.020228 -8.856285 1.115348
-1.746077 -7.648305 -0.963255
-2.020016 -8.841124 1.436381
-1.743628 -7.631441 -0.684870
-2.024908 -8.855417 1.765747
-1.749669 -7.645589 -0.411047
-2.010831 -8.779749 2.079448
-2.025666 -8.837436 -0.158258
-2.016743 -8.791463 2.416852
-2.044493 -8.855675 0.158642
-2.049139 -8.861686 0.476676
-2.050627 -8.861074 0.795732
-0.121678 -0.525371 -0.085413
-2.053818 -8.860783 1.116811
-1.766484 -7.615091 -0.959843
-2.051759 -8.837869 1.437007
-1.760795 -7.584551 -0.681209
-2.054917 -8.844470 1.764983
-1.781774 -7.662779 -0.412303
-2.043232 -8.780269 2.081247
-2.056956 -8.832258 -0.158293
-2.044349 -8.771199 2.413229
-2.072653 -8.836803 0.158433
-2.082345 -8.864201 0.477199
-2.080178 -8.848044 0.795209
-0.176897 -0.751842 -0.122332
-2.086102 -8.859356 1.117542
-1.802161 -7.647522 -0.964718
-2.083956 -8.836420 1.437946
-1.789088 -7.586116 -0.681907
-2.084426 -8.831511 1.763838
-1.805757 -7.644849 -0.411675
-2.075661 -8.780669 2.083047
-2.090075 -8.834755 -0.158468
-2.075844 -8.767769 2.414264
-2.106266 -8.841186 0.158642
-2.111419 -8.849107 0.476781
-2.114290 -8.854295 0.796429
-0.125343 -0.524509 -0.085413
-2.114705 -8.842367 1.116323
-2.115249 -8.831012 1.438259
-1.831802 -7.647640 -0.688007
-2.115240 -8.824181 1.763838
-1.832431 -7.638500 -0.411675
-2.106755 -8.775265 2.083497
-2.122770 -8.835182 -0.158607
-2.106889 -8.762349 2.414782
-2.138056 -8.837668 0.158712
-2.139943 -8.831978 0.476257
-2.148471 -8.860415 0.797649
-2.146494 -8.838790 1.116811
-2.150263 -8.840851 1.441074
-2.146958 -8.820559 1.764602
-1.853411 -7.608771 -0.410419
-2.135526 -8.760284 2.081697
-2.155494 -8.835489 -0.158747
-2.141128 -8.769955 2.418923
-2.169847 -8.834035 0.158782
-2.173146 -8.834150 0.476781
-2.179862 -8.854795 0.797824
-2.180186 -8.842807 1.118273
-2.178742 -8.823702 1.439510
-2.079057 -8.419990 -0.758778
-2.180561 -8.824446 1.766891
-1.888590 -7.637154 -0.412303
-2.167964 -8.760344 2.083497
-2.185841 -8.825972 -0.158712
-2.173121 -8.768052 2.420476
-2.201638 -8.830287 0.158852
-2.203485 -8.824574 0.476676
-2.208343 -8.837467 0.796952
-2.212003 -8.838995 1.118761
-0.288388 -1.151522 -0.145756
-2.210491 -8.819874 1.440136
-2.109406 -8.416546 -0.759126
-2.212305 -8.820590 1.767655
-2.120910 -8.449938 -0.456579
-2.201380 -8.764062 2.086196
-2.216149 -8.816347 -0.158677
-2.203243 -8.758540 2.419958
-2.230976 -8.816732 0.158747
-2.241635 -8.845869 0.478246
-2.240158 -8.833568 0.797301
-2.245287 -8.840840 1.119979
-0.271869 -1.069704 -0.135519
-2.245159 -8.827420 1.442639
-2.139263 -8.411063 -0.759301
-2.240661 -8.803301 1.765747
-2.220397 -8.717319 -0.471442
-2.231958 -8.756326 2.086196
-2.249382 -8.818246 -0.158852
-2.233325 -8.748924 2.419441
-2.262733 -8.812765 0.158817
-2.268520 -8.822515 0.477409
-2.273462 -8.835341 0.798172
-1.831948 -7.114348 -1.163560
-2.272666 -8.819492 1.118273
-0.296420 -1.149481 -0.145756
-2.274973 -8.815703 1.442013
-2.238807 -8.675559 -0.783879
-2.272849 -8.801128 1.766891
-2.276298 -8.808135 -0.476781
-2.266415 -8.763575 2.089795
-2.281652 -8.816149 -0.158957
-2.264819 -8.744816 2.420476
-2.296506 -8.816423 0.159026
-2.300283 -8.824608 0.477932
-2.305798 -8.833136 0.798695
-1.848783 -7.077330 -1.158554
-2.306952 -8.824950 1.119979
-0.280335 -1.071621 -0.136006
-2.308192 -8.823400 1.444516
-2.306415 -8.810322 -0.796778
-2.306045 -8.802637 1.768800
-2.309563 -8.809796 -0.477304
-2.294518 -8.746185 2.087546
-2.314934 -8.824007 -0.159236
-2.297240 -8.750337 2.424099
-2.327261 -8.814560 0.159131
-2.331583 -8.818457 0.478037
-2.337638 -8.828885 0.799044
-1.880332 -7.101713 -1.163560
-2.337729 -8.823007 1.120710
-0.320009 -1.206919 -0.153312
-2.335939 -8.803833 1.442639
-2.343801 -8.827251 -0.799044
-2.336733 -8.800633 1.769944
-2.340303 -8.807879 -0.477618
-2.323509 -8.738528 2.087546
-2.344178 -8.810076 -0.159131
-2.325285 -8.732931 2.421511
-2.362154 -8.821836 0.159410
-2.364419 -8.817980 0.478455
-2.366386 -8.819161 0.798869
-1.910233 -7.114184 -1.166688
-2.371605 -8.826296 1.122173
-0.295870 -1.100360 -0.139906
-2.368708 -8.803256 1.443890
-2.370989 -8.811734 -0.798347
-2.368971 -8.798110 1.771089
-2.373632 -8.809299 -0.478141
-2.355519 -8.736009 2.088896
-2.373877 -8.797978 -0.159061
-2.356762 -8.728491 2.422546
-1.450849 -5.343701 0.096651
-2.396759 -8.815454 0.478769
-2.397680 -8.812769 0.799044
-1.932978 -7.099849 -1.165437
-2.404486 -8.825624 1.123148
-0.299709 -1.099320 -0.139906
-2.403582 -8.810180 1.446393
-2.401209 -8.801481 -0.798172
-2.398633 -8.786000 1.770326
-2.407000 -8.810595 -0.478665
-2.391654 -8.748410 2.093844
-2.405627 -8.793496 -0.159131
-2.386195 -8.716485 2.421511
-1.490191 -5.413795 0.098013
-2.428576 -8.810885 0.478979
-2.430547 -8.812029 0.799741
-1.957750 -7.093059 -1.165437
-2.428936 -8.794216 1.120223
-0.290853 -1.052347 -0.134056
-2.433268 -8.797928 1.445768
-2.433511 -8.798807 -0.798695
-2.430335 -8.781358 1.771089
-2.435607 -8.794438 -0.478246
-2.422176 -8.740009 2.093844
-2.438980 -8.794680 -0.159306
-2.418673 -8.715548 2.423582
-1.509617 -5.410487 0.098048
-2.459856 -8.804277 0.479083
-2.460755 -8.801573 0.799567
-1.983561 -7.089986 -1.166063
-2.461761 -8.793330 1.121198
-2.467578 -8.808192 -1.123148
-2.467162 -8.800794 1.447645
-2.469587 -8.809443 -0.800438
-2.466275 -8.791723 1.774905
-2.465212 -8.782037 -0.478037
-2.450561 -8.723996 2.092045
-2.472911 -8.797663 -0.159515
-2.452220 -8.718210 2.426687
-1.526318 -5.397487 0.097908
-2.490028 -8.793716 0.478979
-2.496895 -8.812098 0.801310
-2.016920 -7.113427 -1.171069
-2.497316 -8.801871 1.123392
-2.495057 -8.788068 -1.121686
-2.497329 -8.790228 1.447332
-2.512303 -8.842934 -0.804273
-2.496412 -8.781173 1.774524
-2.500223 -8.788747 -0.478874
-2.483667 -8.724760 2.094294
-2.503605 -8.788977 -0.159515
-2.486874 -8.724460 2.430829
-1.541844 -5.380593 0.097699
-2.524013 -8.796490 0.479607
-2.523791 -8.789924 0.800090
-2.498852 -8.697344 -1.433253
-2.528574 -8.795008 1.123635
-2.566880 -8.922383 -1.139966
-2.528543 -8.783356 1.447645
-2.572367 -8.935586 -0.813512
-2.527592 -8.774292 1.774905
-1.588235 -5.509789 -0.300513
-2.515726 -8.721654 2.095644
-2.537043 -8.789791 -0.159690
-2.516777 -8.713870 2.430311
-1.557828 -5.365576 0.097524
-2.555820 -8.791461 0.479816
-2.557241 -8.790626 0.800961
-2.558704 -8.784223 1.123392
-2.608009 -8.947673 -1.144353
-2.561952 -8.783958 1.449209
-2.562260 -8.785013 -0.800613
-2.556555 -8.759762 1.773761
-1.587302 -5.435193 -0.296745
-2.549437 -8.724043 2.098343
-2.568831 -8.784719 -0.159759
-2.551518 -8.719864 2.434452
-1.575420 -5.356269 0.097454
-2.591570 -8.799729 0.480758
-2.591289 -8.793113 0.802007
-1.654379 -5.610249 -0.926405
-2.591035 -8.780949 1.124123
-2.651030 -8.978496 -1.149472
-2.594279 -8.780643 1.450148
-2.589524 -8.764551 -0.799567
-2.587674 -8.752666 1.774142
-1.588134 -5.368332 -0.293395
-2.583191 -8.726301 2.101043
-1.615801 -5.454854 -0.099304
-2.585235 -8.722018 2.437558
-1.595249 -5.354569 0.097524
-2.620558 -8.784887 0.480444
-2.620257 -8.778286 0.801484
-1.682997 -5.634724 -0.931411
-2.623945 -8.779458 1.125098
-1.712021 -5.724608 -0.733654
-2.624912 -8.771534 1.450148
-1.667908 -5.573564 -0.508990
-2.624406 -8.764269 1.778340
-1.587372 -5.297706 -0.289837
-2.610278 -8.706033 2.098343
-1.625638 -5.418535 -0.098746
-2.616220 -8.714790 2.438075
-1.620862 -5.371943 0.097943
-2.652940 -8.781423 0.480758
-2.657225 -8.790065 0.803402
-1.704371 -5.634488 -0.932350
-2.655725 -8.774046 1.125585
-1.750406 -5.779393 -0.741453
-2.658381 -8.771770 1.451712
-1.760165 -5.807958 -0.530953
-2.657831 -8.764449 1.780248
-1.595416 -5.257731 -0.287952
-2.642917 -8.704327 2.100143
-1.629428 -5.363081 -0.097838
-2.648872 -8.712998 2.440146
-2.683214 -8.776396 0.480967
-2.682643 -8.763590 0.801833
-1.718823 -5.611505 -0.929534
-2.689245 -8.774212 1.126804
-1.816680 -5.927290 -0.761196
-2.687453 -8.762907 1.451712
-1.759385 -5.733209 -0.524678
-2.693018 -8.770132 1.783301
-1.606133 -5.227311 -0.286592
-2.679780 -8.721593 2.106442
-1.629574 -5.300306 -0.096791
-2.675478 -8.696781 2.438075
-1.675700 -5.420010 0.099025
-2.712302 -8.767450 0.480967
-2.713458 -8.760355 0.802356
-1.656135 -5.343504 -0.886045
-2.721854 -8.776622 1.128266
-1.838090 -5.926922 -0.761927
-2.720011 -8.765266 1.453589
-1.648405 -5.308733 -0.486329
-2.718008 -8.748030 1.780630
-1.618716 -5.206698 -0.285754
-2.702902 -8.694051 2.101943
-1.634074 -5.252865 -0.096023
-2.706600 -8.695239 2.440146
-2.741980 -8.765755 0.160318
-2.746134 -8.773656 0.481805
-2.747259 -8.766519 0.803750
-1.661433 -5.298400 -0.879475
-2.749161 -8.761866 1.127535
-1.773345 -5.651839 -0.727316
-2.751429 -8.763737 1.454841
-1.717951 -5.468607 -0.501494
-2.750536 -8.750206 1.782919
-1.628782 -5.178439 -0.284498
-2.738149 -8.705486 2.106892
-1.650884 -5.245510 -0.095988
-2.738901 -8.697273 2.443252
-2.773447 -8.764239 0.160457
-2.776420 -8.768311 0.482014
-2.779325 -8.766856 0.804622
-1.677203 -5.287213 -0.878536
-2.779403 -8.756485 1.128023
-1.722413 -5.426447 -0.699043
-2.783464 -8.763979 1.456405
-1.668492 -5.250214 -0.481971
-2.781322 -8.746648 1.784064
-1.644734 -5.169203 -0.284289
-2.765230 -8.690789 2.105542
-1.661596 -5.219046 -0.095604
-2.771246 -8.699186 2.446358
-2.810742 -8.764951 0.160667
-2.811594 -8.757094 0.482014
-2.811750 -8.752326 0.804273
-1.693260 -5.267570 -0.876346
-2.814827 -8.751418 1.128754
-1.743574 -5.417600 -0.698799
-2.816201 -8.745213 1.455153
-1.703907 -5.291181 -0.486329
-2.817295 -8.743380 1.785591
-1.662731 -5.157146 -0.283975
-2.800693 -8.681473 2.105992
-1.675776 -5.191401 -0.095220
-2.807332 -8.691669 2.447393
-2.842555 -8.758889 0.160737
-2.843998 -8.752925 0.482328
-2.842899 -8.744352 0.804447
-1.714081 -5.269141 -0.877597
-2.847817 -8.749089 1.129729
-1.753868 -5.385056 -0.695387
-2.847934 -8.739086 1.455779
-1.672979 -5.133654 -0.472384
-2.853276 -8.750291 1.789025
-1.684440 -5.162704 -0.284603
-2.834607 -8.682759 2.108691
-1.686436 -5.162710 -0.094801
-2.833453 -8.668962 2.443769
-2.870617 -8.741316 0.160597
-2.876405 -8.748636 0.482642
-2.877141 -8.745731 0.805493
-1.724435 -5.238734 -0.873530
-2.881444 -8.748523 1.130948
-1.762092 -5.346850 -0.691243
-2.881516 -8.738471 1.457344
-1.686165 -5.110459 -0.470815
-2.876420 -8.717905 1.784446
-1.702451 -5.156793 -0.284603
-2.865511 -8.674662 2.109141
-1.705075 -5.158691 -0.094836
-2.866123 -8.666355 2.445840
-2.905526 -8.744524 0.160841
-2.910707 -8.749913 0.483270
-2.913583 -8.748359 0.806714
-1.746746 -5.241748 -0.875095
-2.911337 -8.736528 1.130704
-1.765675 -5.295470 -0.685393
-2.915751 -8.739603 1.459221
-1.703363 -5.102652 -0.470641
-2.918306 -8.737098 1.790552
-1.717541 -5.139153 -0.283975
-2.899140 -8.669644 2.110491
-1.719267 -5.141328 -0.094627
-2.896970 -8.658130 2.446358
-2.940744 -8.743295 0.161016
-2.938686 -8.732128 0.482852
-2.944739 -8.740024 0.806888
-1.753674 -5.201925 -0.869463
-2.945242 -8.731441 1.131435
-1.760314 -5.215611 -0.675887
-2.950030 -8.740602 1.461098
-1.720527 -5.094788 -0.470467
-2.951300 -8.734297 1.792078
-1.734191 -5.129342 -0.283766
-2.933131 -8.670548 2.113190
-1.744892 -5.158026 -0.095046
-2.928412 -8.651625 2.447393
-2.972940 -8.742960 0.161190
-2.973654 -8.735053 0.483584
-2.980372 -8.744779 0.808282
-0.362595 -1.063897 -0.178022
-2.980587 -8.740417 1.133873
-1.780806 -5.219137 -0.677106
-2.979247 -8.726512 1.460472
-1.738300 -5.088751 -0.470467
-2.980882 -8.726320 1.792460
-1.749899 -5.119783 -0.283556
-2.963129 -8.664462 2.114090
-1.759002 -5.140553 -0.094836
-2.963601 -8.655971 2.451534
-3.006693 -8.741984 0.161365
-3.005427 -8.728396 0.483794
-3.005460 -8.723544 0.807236
-0.352787 -1.023407 -0.171452
-3.012373 -8.733711 1.134360
-1.795776 -5.203507 -0.675887
-3.010979 -8.719794 1.461098
-1.751914 -5.073542 -0.469595
-3.015813 -8.728851 1.795131
-1.768412 -5.115530 -0.283661
-2.993355 -8.654066 2.114090
-1.769087 -5.111704 -0.094418
-2.991902 -8.640098 2.449981
-3.035877 -8.727657 0.161295
-3.041131 -8.732941 0.484631
-3.041137 -8.728053 0.808631
-1.769431 -5.075406 -0.851316
-3.045456 -8.730639 1.135335
-1.814582 -5.199081 -0.676131
-3.043354 -8.714825 1.462037
-1.768957 -5.065514 -0.469421
-3.044321 -8.712711 1.793986
-1.785599 -5.107441 -0.283556
-3.029981 -8.661959 2.118589
-1.787580 -5.107385 -0.094452
-3.030343 -8.653304 2.456711
-3.068313 -8.722667 0.161400
-3.072923 -8.726041 0.484840
-3.074895 -8.726780 0.809502
-1.770059 -5.020761 -0.843182
-3.073272 -8.712467 1.134360
-1.829416 -5.183356 -0.674912
-3.080990 -8.724637 1.465478
-1.788618 -5.064944 -0.469944
-3.077985 -8.711287 1.795894
-1.802085 -5.097411 -0.283347
-3.062797 -8.658678 2.120389
-1.803395 -5.095459 -0.094348
-3.061176 -8.644494 2.457228
-3.101423 -8.719440 0.161539
-3.104034 -8.717142 0.484945
-3.112027 -8.734761 0.811246
-1.791553 -5.025716 -0.845059
-3.106334 -8.709166 1.135335
-1.786782 -5.006804 -0.652732
-3.112089 -8.715692 1.465791
-1.804947 -5.054918 -0.469595
-3.112338 -8.711583 1.798184
-1.821211 -5.094851 -0.283556
-3.093003 -8.647935 2.120389
-1.818476 -5.081602 -0.094208
-3.096541 -8.648306 2.461369
-3.133871 -8.714206 0.161644
-3.138503 -8.717529 0.485573
-3.143847 -8.727593 0.811594
-1.815784 -5.038015 -0.848188
-3.140755 -8.709474 1.136797
-1.813680 -5.026679 -0.656145
-3.142495 -8.704774 1.465791
-1.825964 -5.057957 -0.470467
-3.145396 -8.708052 1.799711
-1.841700 -5.095977 -0.283975
-3.125822 -8.644415 2.122188
-1.837564 -5.078984 -0.094278
-3.132628 -8.653793 2.466028
-3.166319 -8.708852 0.161749
-3.169597 -8.708397 0.485678
-3.172248 -8.710951 0.811071
-0.387501 -1.063494 -0.179274
-3.175217 -8.709647 1.138260
-1.838019 -5.038966 -0.658582
-3.176247 -8.703030 1.467355
-1.840193 -5.042194 -0.469595
-3.181160 -8.711772 1.802764
-1.858107 -5.085764 -0.283766
-3.158653 -8.640773 2.123988
-1.850473 -5.059393 -0.094034
-3.161489 -8.639176 2.464993
-3.196701 -8.697745 0.161749
-3.201904 -8.707212 0.486201
-3.206766 -8.711042 0.812117
-0.384383 -1.043599 -0.176145
-3.211779 -8.715275 1.140453
-1.848729 -5.013894 -0.656145
-3.207824 -8.699863 1.468607
-1.856403 -5.032001 -0.469247
-3.209512 -8.695089 1.801619
-1.879999 -5.090489 -0.284394
-3.192850 -8.640661 2.126687
-1.867934 -5.055104 -0.094068
-3.191461 -8.632269 2.466028
-3.230398 -8.700220 0.161993
-3.237846 -8.710958 0.487038
-3.242711 -8.714734 0.813512
-1.868942 -5.022753 -0.848813
-3.236507 -8.693414 1.138991
-1.869503 -5.018897 -0.657607
-3.243690 -8.703421 1.471110
-1.935215 -5.189771 -0.484586
-3.241758 -8.693596 1.803527
-1.896870 -5.084227 -0.284394
-3.223530 -8.635503 2.128037
-1.884868 -5.046680 -0.094034
-3.225631 -8.631935 2.469134
-3.263558 -8.696381 0.162133
-3.267530 -8.697734 0.486934
-3.270892 -8.702067 0.813337
-1.887855 -5.019897 -0.849439
-3.274521 -8.702500 1.141672
-0.425242 -1.129542 -0.148193
-3.271964 -8.686500 1.470171
-1.928727 -5.117731 -0.478485
-3.274853 -8.689575 1.805053
-1.917424 -5.085050 -0.284812
-3.256405 -8.631492 2.129837
-1.905298 -5.047553 -0.094173
-3.261203 -8.635080 2.473275
-3.299568 -8.699893 0.162412
-3.299289 -8.690009 0.487143
-3.307012 -8.701196 0.814383
-2.927115 -7.697592 -1.304351
-3.303468 -8.687307 1.141185
-0.422123 -1.109497 -0.145756
-3.305075 -8.682409 1.471423
-1.915377 -5.029043 -0.470815
-3.309478 -8.684853 1.806580
-1.937472 -5.081721 -0.285022
-3.290103 -8.624960 2.131186
-1.920055 -5.033398 -0.094034
-3.293391 -8.629059 2.474828
-3.334295 -8.695210 0.162552
-3.335412 -8.689046 0.487771
-3.338792 -8.693319 0.814732
-3.341698 -8.691815 1.143378
-0.434739 -1.130175 -0.148681
-3.341842 -8.683143 1.473613
-1.952958 -5.074390 -0.475696
-3.341888 -8.678743 1.807724
-1.914989 -4.970557 -0.279160
-3.320890 -8.615243 2.131636
-1.942807 -5.037521 -0.094243
-3.324301 -8.615128 2.474310
-3.362461 -8.677923 0.162447
-3.369333 -8.686661 0.488295
-3.374885 -8.696470 0.816126
-3.377768 -8.694902 1.145328
-0.435805 -1.121250 -0.147706
-3.374996 -8.678788 1.474864
-1.973548 -5.074970 -0.476393
-3.370739 -8.663365 1.806961
-1.927980 -4.952675 -0.278532
-3.360844 -8.629021 2.137935
-1.966189 -5.045615 -0.094522
-3.352949 -8.599872 2.473275
-3.394918 -8.671720 0.162552
-3.406193 -8.691582 0.489237
-3.408129 -8.692058 0.816824
-2.959949 -7.545148 -1.283701
-3.403022 -8.670123 1.143622
-0.458582 -1.167763 -0.154043
-3.411049 -8.681663 1.477367
-1.939520 -4.936388 -0.464017
-3.406706 -8.666164 1.810014
-1.943795 -4.942198 -0.278323
-3.393799 -8.624489 2.139734
-3.415223 -8.674489 -0.162726
-3.391444 -8.609685 2.479487
-3.431050 -8.674693 0.162831
-3.433571 -8.672212 0.488818
-3.439918 -8.683811 0.817172
-3.000825 -7.571498 -1.289959
-3.438387 -8.671109 1.145328
-0.450943 -1.136632 -0.150143
-3.444976 -8.678885 1.478932
-2.050828 -5.166623 -0.486329
-3.440558 -8.663343 1.811922
-1.955135 -4.920534 -0.277485
-3.423884 -8.612590 2.139734
-3.448437 -8.669948 -0.162866
-3.421478 -8.597794 2.479487
-3.465762 -8.673803 0.163040
-3.468983 -8.677468 0.489760
-3.474650 -8.682851 0.818218
-0.447147 -1.116817 -0.190537
-3.473801 -8.671952 1.147034
-0.448999 -1.120310 -0.148193
-3.471533 -8.661912 1.477993
-2.035481 -5.076216 -0.478485
-3.472241 -8.654924 1.812685
-1.977506 -4.926654 -0.278218
-3.453926 -8.600586 2.139734
-3.474933 -8.652897 -0.162761
-3.455012 -8.598948 2.483110
-3.502737 -8.682663 0.163424
-3.503738 -8.676419 0.490388
-3.502697 -8.665127 0.817695
-0.452329 -1.118990 -0.191163
-3.509982 -8.678788 1.149472
-0.454201 -1.122495 -0.148681
-3.508420 -8.666221 1.480809
-2.056929 -5.078314 -0.479357
-3.504607 -8.652461 1.814594
-2.006585 -4.951537 -0.279997
-3.489750 -8.607144 2.144233
-3.511130 -8.655539 -0.163040
-3.488638 -8.595785 2.485698
-3.530005 -8.662976 0.163285
-3.534755 -8.670300 0.490702
-3.534424 -8.660843 0.818392
-0.457725 -1.121062 -0.191789
-3.543259 -8.673835 1.150447
-0.468631 -1.146628 -0.152093
-3.542369 -8.667337 1.482999
-2.094118 -5.121257 -0.484063
-3.531816 -8.632907 1.813067
-3.549882 -8.672751 -0.491121
-3.524205 -8.605732 2.146933
-3.545877 -8.658653 -0.163320
-3.521518 -8.594894 2.488804
-3.557952 -8.649372 0.163250
-3.570320 -8.670836 0.491435
-3.571467 -8.665030 0.819961
-3.032860 -7.358271 -1.260549
-3.569731 -8.656530 1.149715
-0.478487 -1.159749 -0.154043
-3.577126 -8.665875 1.484876
-3.583600 -8.677268 -0.821356
-3.565669 -8.633850 1.815739
-3.570232 -8.640626 -0.489969
-3.556446 -8.603002 2.149183
-3.579137 -8.653613 -0.163459
-3.560362 -8.603971 2.495016
-3.598840 -8.658432 0.163669
-3.599775 -8.652161 0.491121
-3.605521 -8.661708 0.820833
-3.048418 -7.319753 -1.255856
-3.606780 -8.656217 1.151422
-0.465931 -1.117677 -0.148681
-3.613425 -8.663646 1.486753
-3.655283 -8.764004 -0.830769
-3.604850 -8.638841 1.819555
-3.607264 -8.640384 -0.490702
-3.586451 -8.586312 2.148283
-3.621624 -8.666268 -0.163948
-3.593364 -8.594428 2.496051
-3.632911 -8.655038 0.163843
-3.633049 -8.646907 0.491539
-0.490507 -1.167440 -0.246144
-3.640366 -8.660090 0.821879
-3.076247 -7.314529 -1.256795
-3.637744 -8.645403 1.151665
-0.475991 -1.130681 -0.150631
-3.638278 -8.638236 1.484563
-3.644865 -8.653874 -0.821530
-3.634984 -8.626205 1.819555
-3.645939 -8.647984 -0.491853
-3.624731 -8.593493 2.153232
-3.650298 -8.649889 -0.163878
-3.627852 -8.592511 2.499157
-3.669344 -8.657032 0.164122
-3.671011 -8.652559 0.492586
-3.669017 -8.643662 0.821530
-3.096355 -7.291019 -1.254605
-3.674109 -8.647268 1.153615
-0.475276 -1.118051 -0.149168
-3.674594 -8.640026 1.487066
-3.675050 -8.641099 -0.821530
-3.665840 -8.615271 1.819936
-3.678450 -8.640718 -0.492167
-3.660052 -8.593338 2.156381
-3.681253 -8.638933 -0.163913
-3.656307 -8.576241 2.498122
-0.311517 -0.728227 -0.212232
-3.697966 -8.640494 0.164053
-0.418050 -0.976326 -0.245197
-3.702765 -8.643365 0.492795
-3.703090 -8.639958 0.822402
-3.116338 -7.267458 -1.252414
-3.709752 -8.647161 1.155321
-0.480741 -1.120034 -0.149656
-3.708628 -8.636222 1.488631
-3.707550 -8.633709 -0.822053
-3.701317 -8.615048 1.822608
-3.717265 -8.648008 -0.493319
-3.693106 -8.587670 2.158180
-3.717710 -8.640726 -0.164192
-3.689277 -8.570524 2.500192
-0.332441 -0.769699 -0.224655
-3.730483 -8.633040 0.164157
-0.421456 -0.974861 -0.245197
-3.737670 -8.641385 0.493423
-2.691226 -6.222036 -1.317727
-3.740347 -8.643436 0.823970
-3.143256 -7.260161 -1.253040
-3.735178 -8.623229 1.153859
-3.760364 -8.677219 -1.161171
-3.747394 -8.643159 1.492072
-3.758270 -8.668243 -0.826585
-3.732147 -8.603878 1.822989
-3.746636 -8.633148 -0.493214
-3.732373 -8.596176 2.163579
-3.753425 -8.640535 -0.164437
-3.729182 -8.580626 2.506922
-0.358291 -0.821659 -0.240184
-3.770992 -8.643793 0.164611
-0.434211 -0.994816 -0.250595
-3.768610 -8.630116 0.493528
-2.700357 -6.183817 -1.311621
-3.776081 -8.643107 0.825191
-3.187568 -7.292585 -1.260549
-3.772413 -8.626508 1.156053
-0.496506 -1.134837 -0.152093
-3.779127 -8.633646 1.492698
-3.869197 -8.839417 -0.844191
-3.773184 -8.615974 1.828332
-3.781556 -8.630995 -0.493842
-3.760009 -8.577741 2.162230
-3.789186 -8.640201 -0.164681
-3.758334 -8.565787 2.506404
-0.375167 -0.852229 -0.249502
-3.801141 -8.630577 0.164611
-0.437681 -0.993294 -0.250595
-3.804353 -8.629701 0.494261
-2.726679 -6.185132 -1.313911
-3.813463 -8.646281 0.826759
-3.232144 -7.324788 -1.268058
-3.811323 -8.633263 1.158734
-0.490840 -1.111306 -0.149168
-3.808443 -8.618595 1.492385
-3.908082 -8.844080 -0.845934
-3.808793 -8.615320 1.831003
-3.817317 -8.630527 -0.494575
-3.789140 -8.562782 2.161780
-3.820942 -8.630578 -0.164751
-3.789777 -8.556150 2.507439
-0.360880 -0.812076 -0.238114
-3.841805 -8.641010 0.165065
-0.444313 -0.998883 -0.252395
-3.839324 -8.627317 0.494889
-2.783374 -6.254498 -1.330702
-3.845244 -8.636557 0.827108
-3.151594 -7.075273 -1.226759
-3.843051 -8.623532 1.159221
-3.855874 -8.648245 -1.162634
-3.846551 -8.623288 1.495514
-3.904840 -8.753963 -0.838613
-3.838842 -8.601973 1.831003
-3.853120 -8.629916 -0.495308
-3.824570 -8.561958 2.164929
-3.854307 -8.624492 -0.164890
-3.821197 -8.546396 2.508474
-0.373201 -0.831963 -0.244325
-3.867851 -8.618425 0.164890
-0.446201 -0.993770 -0.251495
-3.873507 -8.622973 0.495412
-0.515666 -1.147944 -0.244617
-3.874550 -8.621265 0.826934
-3.147920 -7.001172 -1.215809
-3.880460 -8.626358 1.161415
-3.884408 -8.631112 -1.162146
-3.883116 -8.624219 1.498017
-3.886293 -8.631275 -0.828154
-3.871265 -8.593890 1.832148
-3.888143 -8.627338 -0.495936
-3.858438 -8.557439 2.167179
-3.889323 -8.621920 -0.165100
-3.849418 -8.529484 2.507439
-0.374509 -0.827135 -0.243290
-3.903687 -8.617622 0.165135
-0.444841 -0.981557 -0.248796
-3.908534 -8.620314 0.496040
-3.913673 -8.627646 0.828851
-3.295608 -7.261759 -1.263052
-3.913009 -8.618182 1.162146
-3.999897 -8.805467 -1.187495
-3.918100 -8.621402 1.499894
-3.922169 -8.630354 -0.829374
-3.909365 -8.598197 1.835964
-3.921542 -8.620986 -0.496354
-3.893937 -8.556334 2.170328
-3.927681 -8.626492 -0.165449
-3.890379 -8.540606 2.514686
-0.390242 -0.853936 -0.251572
-3.946218 -8.631223 0.165658
-0.451507 -0.987087 -0.250595
-3.943586 -8.617515 0.496668
-2.838913 -6.203586 -1.326123
-3.948742 -8.624801 0.829897
-3.342325 -7.296906 -1.271187
-3.946376 -8.611691 1.163121
-4.022336 -8.773406 -1.185058
-3.954759 -8.622036 1.502397
-4.016231 -8.756054 -0.842796
-3.947543 -8.602342 1.839780
-3.953279 -8.610875 -0.496564
-3.927846 -8.551543 2.172577
-3.961110 -8.619997 -0.165588
-3.928236 -8.544528 2.519862
-0.385129 -0.835026 -0.246396
-3.975483 -8.615581 0.165623
-0.458217 -0.992582 -0.252395
-3.981181 -8.620014 0.497610
-2.863844 -6.200767 -1.327649
-3.983001 -8.620009 0.830769
-3.984746 -8.615879 1.165558
-4.055438 -8.764715 -1.185789
-3.980683 -8.599216 1.500832
-4.069370 -8.790800 -0.847502
-3.979198 -8.592073 1.840544
-3.984991 -8.600647 -0.496773
-3.960952 -8.544853 2.174377
-3.990334 -8.604302 -0.165554
-3.970235 -8.557050 2.527627
-0.379889 -0.816163 -0.241219
-4.009755 -8.610713 0.165798
-0.461679 -0.990976 -0.252395
-4.013116 -8.614008 0.498029
-2.892105 -6.204969 -1.330702
-4.013069 -8.606052 0.830769
-3.535158 -7.577722 -1.324374
-4.022353 -8.618107 1.167752
-4.089367 -8.757701 -1.186764
-4.021714 -8.612816 1.505525
-4.137978 -8.857772 -0.855346
-4.009165 -8.578131 1.840544
-4.023449 -8.604776 -0.497820
-3.997361 -8.545095 2.177976
-4.025624 -8.605515 -0.165833
-3.996133 -8.538588 2.526074
-0.390949 -0.832317 -0.246396
-4.037435 -8.595560 0.165763
-0.469935 -1.000022 -0.255094
-4.047409 -8.608984 0.498552
-2.955527 -6.283663 -1.349783
-4.048173 -8.602809 0.831814
-3.228884 -6.861731 -1.201104
-4.054292 -8.611904 1.168727
-4.139533 -8.788988 -1.192857
-4.053436 -8.602300 1.506151
-4.045961 -8.582545 1.844360
-4.055369 -8.598613 -0.498238
-4.029000 -8.538843 2.179776
-4.061614 -8.604068 -0.166077
-4.029214 -8.531573 2.528145
-0.380473 -0.803083 -0.238114
-4.073410 -8.594063 0.166007
-0.468413 -0.987811 -0.252395
-4.084285 -8.609240 0.499390
-2.999910 -6.323493 -1.360468
-4.084368 -8.605536 0.833383
-3.253664 -6.852202 -1.201417
-4.085178 -8.599494 1.168971
-4.174445 -8.783449 -1.194076
-4.088531 -8.598802 1.508028
-4.023643 -8.462334 -0.819787
-4.078424 -8.573690 1.845505
-4.084500 -8.582603 -0.498134
-4.063810 -8.535283 2.182475
-4.095063 -8.597058 -0.166217
-4.067279 -8.534898 2.533321
-0.403271 -0.843580 -0.250537
-4.108561 -8.590616 0.166217
-0.468494 -0.979138 -0.250595
-4.113449 -8.593128 0.499285
-3.020270 -6.309442 -1.359705
-4.119546 -8.602010 0.834429
-3.409007 -7.115148 -1.249599
-4.114313 -8.583391 1.168727
-4.185338 -8.727657 -1.188470
-4.124501 -8.596945 1.510219
-4.013513 -8.365605 -0.811769
-4.110025 -8.562942 1.846268
-4.116163 -8.571893 -0.498343
-4.090201 -8.514020 2.180676
-4.130245 -8.593526 -0.166426
-4.102072 -8.531093 2.536427
-0.401178 -0.831727 -0.247431
-4.145476 -8.590631 0.166496
-0.475298 -0.984517 -0.252395
-4.148632 -8.589508 0.499913
-3.047399 -6.309467 -1.361995
-4.154748 -8.598341 0.835475
-3.472511 -7.183236 -1.263678
-4.152029 -8.585061 1.170921
-4.243445 -8.770176 -1.196270
-4.154485 -8.582496 1.510219
-4.068463 -8.401049 -0.816649
-4.150159 -8.569746 1.850847
-4.153897 -8.573648 -0.499285
-4.125848 -8.511965 2.183825
-4.162833 -8.584455 -0.166531
-4.133511 -8.520200 2.537462
-0.397458 -0.816356 -0.243290
-4.181565 -8.588693 0.166740
-0.477025 -0.979347 -0.251495
-4.183839 -8.585747 0.500541
