# This PCD file was generated using the MATLAB® pcwrite function
# from Computer Vision Toolbox®.
# .PCD v.7 - Point Cloud Data file format
VERSION .7
FIELDS x y z
SIZE 4 4 4
TYPE F F F
COUNT 1 1 1
WIDTH 1584
HEIGHT 1
VIEWPOINT 0 0 0 1 0 0 0
POINTS 1584
DATA ascii
-5.461393 -5.175429 -1.737072
-6.470741 -6.129780 -1.732546
-7.793897 -7.378059 -1.699817
-22.378826 -21.177404 3.783068
-11.807750 -11.169938 -1.995733
-8.463718 -8.003745 1.844988
-20.222242 -19.116539 -2.434608
-8.484504 -8.020592 2.269482
-22.336336 -21.107658 -1.610587
-8.476969 -8.007873 2.692214
-13.066081 -12.338713 -0.313690
-8.470897 -7.996539 3.121358
-0.756774 -0.712400 -0.278489
-5.486521 -5.163011 -1.739322
-12.590824 -11.844262 0.905936
-6.494593 -6.107368 -1.732927
-7.826647 -7.354853 -1.701069
-11.858240 -11.139529 -1.997682
-8.520408 -8.001195 1.851246
-20.326618 -19.081289 -2.439141
-8.525295 -8.000191 2.272535
-13.233709 -12.414248 -0.950944
-8.520480 -7.990077 2.696713
-8.497348 -7.965602 3.120840
-0.759256 -0.709754 -0.278489
-5.515376 -5.152178 -1.742471
-12.871449 -12.023841 0.923102
-6.530221 -6.098060 -1.736744
-27.006580 -25.210491 3.232258
-7.849382 -7.324794 -1.700443
-22.622690 -21.103390 3.798668
-11.904799 -11.101403 -1.998657
-8.568511 -7.990264 1.855626
-13.461803 -12.548948 -1.610115
-8.567534 -7.983765 2.276351
-13.335420 -12.422431 -0.955131
-8.565430 -7.976224 2.702112
-8.551969 -7.960899 3.130675
-0.770224 -0.714985 -0.281595
-5.526717 -5.128558 -1.740671
-6.560107 -6.083236 -1.739033
-13.862087 -12.849925 1.653693
-7.888116 -7.312153 -1.703572
-22.689634 -21.025555 3.798180
-11.976499 -11.094240 -2.004507
-8.634033 -7.995205 1.863760
-13.455814 -12.455863 -1.604189
-8.628538 -7.987319 2.285510
-13.141994 -12.161099 -0.938384
-8.624738 -7.978210 2.712460
-8.618009 -7.966404 3.144651
-0.772591 -0.712427 -0.281595
-12.475625 -11.500089 0.296167
-5.547452 -5.111876 -1.741571
-13.198931 -12.158316 0.940477
-6.587462 -6.068101 -1.740941
-13.318364 -12.264036 1.583969
-7.929579 -7.299290 -1.707013
-13.332279 -12.268253 2.224603
-8.868185 -8.157574 -1.479494
-8.679338 -7.981062 1.867515
-8.866973 -8.150743 -1.053713
-8.682385 -7.981065 2.292379
-8.907718 -8.185328 -0.633998
-8.679801 -7.973105 2.721008
-8.983307 -8.249006 -0.212884
-8.675651 -7.963707 3.155522
-0.786597 -0.720026 -0.285736
-9.031653 -8.267290 0.213722
-5.576764 -5.103004 -1.745170
-12.778545 -11.688883 0.907610
-6.614005 -6.047890 -1.742086
-13.286754 -12.145238 1.574904
-7.956279 -7.270177 -1.707013
-13.521564 -12.355545 2.248977
-8.893676 -8.123890 -1.479007
-8.730484 -7.972028 1.872521
-8.917443 -8.139890 -1.056328
-8.746383 -7.980950 2.301538
-8.934706 -8.149935 -0.633788
-8.737767 -7.967497 2.730006
-8.926345 -8.139451 -0.210860
-8.723383 -7.951597 3.162769
-0.777669 -0.706880 -0.281595
-8.955334 -8.137309 0.211209
-5.599757 -5.086462 -1.746520
-8.956133 -8.132326 0.633998
-6.639437 -6.028726 -1.743231
-8.997675 -8.167179 1.063126
-7.997701 -7.256962 -1.710455
-8.973392 -8.136572 -1.487294
-8.783062 -7.961203 1.877527
-8.923593 -8.085748 -1.053539
-8.791646 -7.966189 2.306118
-8.936457 -8.094561 -0.631904
-8.791526 -7.960494 2.738104
-8.953150 -8.103997 -0.210790
-8.765363 -7.931234 3.167428
-0.774517 -0.698848 -0.279525
-8.961416 -8.085903 0.210685
-5.629055 -5.077325 -1.750119
-9.006714 -8.121078 0.635568
-6.671696 -6.013551 -1.745902
-9.012745 -8.120811 1.061383
-8.016906 -7.220992 -1.708890
-9.016546 -8.121388 1.489975
-9.069597 -8.166303 -1.498506
-8.834290 -7.951640 1.882533
-8.935473 -8.039887 -1.051621
-8.847059 -7.957545 2.312987
-8.954182 -8.051071 -0.631067
-8.843835 -7.949058 2.745303
-8.968001 -8.060662 -0.210476
-8.834666 -7.938035 3.182439
-0.796721 -0.714606 -0.286772
-8.964440 -8.037688 0.210162
-5.639172 -5.054414 -1.748320
-9.003922 -8.067417 0.633579
-6.693896 -5.997659 -1.747047
-9.021958 -8.080744 1.059640
-8.047128 -7.205078 -1.710768
-9.042018 -8.093019 1.489975
-9.087809 -8.131153 -1.497287
-8.909287 -7.968621 1.893170
-8.988989 -8.039907 -1.055107
-8.885267 -7.944346 2.316803
-8.986966 -8.032454 -0.631695
-8.883365 -7.937067 2.750252
-8.993279 -8.032451 -0.210476
-8.886941 -7.934686 3.192274
-0.804981 -0.716960 -0.288842
-9.010365 -8.022305 0.210581
-5.668428 -5.045063 -1.751919
-9.003675 -8.010716 0.631590
-6.735324 -5.992527 -1.752390
-9.026291 -8.028016 1.056851
-8.073705 -7.178256 -1.711080
-9.039053 -8.033717 1.484856
-9.150270 -8.129706 -1.502893
-8.963634 -7.961085 1.898802
-9.046792 -8.034942 -1.058594
-8.942306 -7.939351 2.324435
-9.041839 -8.024899 -0.633579
-8.950375 -7.940930 2.762399
-9.051184 -8.027546 -0.211174
-8.939158 -7.925404 3.201074
-0.795902 -0.703907 -0.284701
-9.059289 -8.009344 0.211069
-5.687463 -5.026537 -1.752369
-9.063015 -8.007008 0.633788
-6.746943 -5.958702 -1.749719
-9.072181 -8.012283 1.058942
-8.119444 -7.168332 -1.715461
-9.081923 -8.015250 1.487294
-9.227716 -8.141052 -1.510936
-9.009148 -7.945426 1.902556
-9.109057 -8.030718 -1.062428
-9.009640 -7.940271 2.334357
-9.092172 -8.010188 -0.635045
-9.002897 -7.931537 2.770047
-9.094155 -8.009122 -0.211523
-8.985619 -7.910747 3.207803
-0.792670 -0.695887 -0.282630
-9.129163 -8.011702 0.212012
-5.714638 -5.013369 -1.755068
-9.119332 -7.997438 0.635673
-6.783500 -5.946877 -1.753535
-9.117966 -7.993428 1.060860
-8.159034 -7.150242 -1.718276
-9.129160 -7.997605 1.490219
-9.281385 -8.128103 -1.514836
-9.064962 -7.935774 1.908188
-9.150428 -8.007772 -1.063823
-9.062324 -7.927882 2.340463
-9.156048 -8.007050 -0.637452
-9.053911 -7.917730 2.776796
-9.149045 -7.998107 -0.212117
-9.048008 -7.907000 3.219709
-0.795215 -0.692977 -0.282630
-9.176561 -7.993948 0.212431
-5.741792 -5.000068 -1.757768
-9.175810 -7.990480 0.637661
-6.801256 -5.920584 -1.752772
-9.178766 -7.987420 1.064520
-8.228405 -7.157890 -1.727350
-9.186871 -7.988843 1.494850
-9.320187 -8.104774 -1.516542
-9.113481 -7.922226 1.912568
-9.202385 -7.996695 -1.066612
-9.110693 -7.914222 2.345806
-9.215611 -8.002540 -0.639650
-9.105037 -7.906521 2.783994
-9.213148 -7.997585 -0.212954
-9.091605 -7.889293 3.225403
-0.813576 -0.704244 -0.288324
-9.227211 -7.984412 0.212989
-5.752446 -4.975900 -1.755968
-9.224916 -7.979608 0.639231
-6.834217 -5.909554 -1.756206
-9.236856 -7.984298 1.068181
-8.546548 -7.384996 -1.788985
-9.229836 -7.972607 1.497531
-9.359031 -8.084203 -1.518492
-9.175583 -7.922944 1.920077
-9.268066 -7.999982 -1.071144
-9.163642 -7.907055 2.352675
-9.261759 -7.988894 -0.641011
-9.171048 -7.910650 2.796142
-9.271422 -7.994412 -0.213687
-9.168930 -7.903247 3.243520
-0.817371 -0.702802 -0.288842
-9.288518 -7.983750 0.213792
-5.770393 -4.958067 -1.756418
-9.279985 -7.970782 0.641116
-6.861223 -5.893255 -1.758114
-9.301073 -7.986074 1.072539
-8.600969 -7.382345 -1.795242
-9.296903 -7.976858 1.504112
-9.402261 -8.064407 -1.520930
-9.218179 -7.903728 1.923205
-9.326191 -7.993514 -1.074630
-9.225587 -7.907286 2.361834
-9.321568 -7.986726 -0.643314
-9.232645 -7.907747 2.806489
-9.326613 -7.985410 -0.214316
-9.203803 -7.877472 3.246109
-0.814064 -0.694785 -0.286772
-9.345231 -7.975941 0.214455
-5.806938 -4.954337 -1.762267
-9.342704 -7.968149 0.643523
-6.881284 -5.866794 -1.757733
-9.354542 -7.972608 1.075328
-8.659546 -7.377674 -1.801812
-9.354911 -7.970103 1.508986
-9.486272 -8.079162 -1.529948
-9.293843 -7.912479 1.933217
-9.387417 -7.989318 -1.078465
-9.284412 -7.898862 2.369466
-9.381206 -7.978388 -0.645407
-9.295714 -7.902886 2.816837
-9.371190 -7.967053 -0.214700
-9.270988 -7.879077 3.260085
-0.813537 -0.689441 -0.285736
-9.400340 -7.963609 0.215049
-5.823569 -4.931762 -1.761817
-9.400942 -7.961305 0.645616
-6.906215 -5.846542 -1.758877
-9.409691 -7.963072 1.078465
-8.688263 -7.349953 -1.802438
-9.415891 -7.962681 1.514105
-9.541590 -8.066125 -1.534091
-9.348561 -7.902945 1.938849
-9.436552 -7.974506 -1.080905
-9.359921 -7.906947 2.381678
-9.445621 -7.976519 -0.647919
-9.344091 -7.887989 2.823136
-9.426448 -7.957510 -0.215328
-9.333869 -7.876569 3.272508
-0.821851 -0.691572 -0.287807
-9.468008 -7.967155 0.215991
-5.859278 -4.928731 -1.767665
-9.460777 -7.955432 0.647815
-6.935599 -5.829980 -1.761167
-9.457258 -7.946843 1.080731
-8.721662 -7.328728 -1.804315
-9.474165 -7.958225 1.519223
-9.606292 -8.066352 -1.540185
-9.385166 -7.877885 1.940726
-9.488752 -7.962009 -1.083695
-9.416169 -7.901104 2.389310
-9.511806 -7.978524 -0.650641
-9.392597 -7.875740 2.829884
-9.487884 -7.952818 -0.216096
-9.390922 -7.868754 3.282861
-0.825622 -0.690082 -0.288324
-9.517242 -7.952009 0.216480
-5.867473 -4.900752 -1.764966
-9.513021 -7.942841 0.649489
-6.965443 -5.815756 -1.763838
-9.520269 -7.946078 1.084915
-8.728991 -7.283050 -1.800561
-9.523229 -7.942906 1.522636
-9.652685 -8.048028 -1.543110
-9.455098 -7.880487 1.949487
-9.550162 -7.956895 -1.087529
-9.461792 -7.883267 2.393890
-9.553409 -7.956779 -0.651583
-9.475444 -7.889040 2.846531
-9.561696 -7.958026 -0.217143
-9.439120 -7.853226 3.290108
-0.829632 -0.688285 -0.288842
-9.580340 -7.948106 0.217282
-5.887545 -4.882728 -1.765866
-9.560676 -7.926159 0.650850
-6.992757 -5.795200 -1.765365
-9.587687 -7.942904 1.089272
-8.752582 -7.248490 -1.799935
-9.581472 -7.934939 1.527510
-9.709772 -8.038336 -1.547741
-9.522118 -7.880179 1.957621
-9.619327 -7.957802 -1.092236
-9.514830 -7.868554 2.399996
-9.613297 -7.947160 -0.653676
-9.520817 -7.867916 2.851480
-9.617161 -7.947533 -0.217771
-9.508181 -7.854677 3.304602
-0.843959 -0.695211 -0.292983
-9.637194 -7.935820 0.217911
-5.917437 -4.871026 -1.769465
-9.629919 -7.927010 0.653676
-7.009912 -5.768258 -1.764602
-9.656899 -7.943566 1.093979
-8.771727 -7.212874 -1.798684
-9.647297 -7.930019 1.533360
-9.775978 -8.032939 -1.553590
-9.586194 -7.876993 1.965130
-9.682457 -7.953262 -1.096245
-9.581688 -7.867685 2.409918
-9.681115 -7.946503 -0.656398
-9.570821 -7.853175 2.858228
-9.666488 -7.931673 -0.218260
-9.574376 -7.853292 3.318060
-0.835913 -0.683699 -0.289360
-9.700605 -7.934202 0.218748
-5.939592 -4.856309 -1.771265
-9.690006 -7.919889 0.655874
-7.034566 -5.747482 -1.765747
-9.698457 -7.921151 1.095548
-8.758880 -7.153757 -1.791175
-9.701220 -7.920581 1.537748
-9.807178 -8.004242 -1.554322
-9.638121 -7.863463 1.970136
-9.644238 -7.865648 2.419076
-9.738374 -7.939597 -0.658491
-9.628532 -7.847247 2.867676
-9.718923 -7.918089 -0.218818
-9.622701 -7.836905 3.325307
-0.850171 -0.690669 -0.293501
-9.760841 -7.926765 0.219481
-5.959534 -4.838003 -1.772164
-9.751711 -7.913704 0.658177
-7.064257 -5.732783 -1.768418
-9.754070 -7.912795 1.098860
-8.780729 -7.120651 -1.790549
-9.773526 -7.922924 1.544816
-9.890578 -8.014953 -1.563096
-9.696210 -7.854640 1.976393
-9.911163 -8.025904 -1.115768
-9.692995 -7.849235 2.424419
-9.806391 -7.938228 -0.661213
-9.702830 -7.851589 2.881623
-9.796253 -7.924359 -0.219935
-9.668024 -7.817844 3.331519
-0.846681 -0.682698 -0.291430
-9.816472 -7.915238 0.220110
-5.982453 -4.822064 -1.773964
-9.818157 -7.910944 0.660794
-7.094396 -5.714242 -1.770708
-9.817147 -7.904480 1.102694
-8.763681 -7.053740 -1.781789
-9.818134 -7.902451 1.547497
-9.930870 -7.990335 -1.565046
-9.745119 -7.838078 1.980773
-9.858377 -7.926340 -1.106704
-9.740063 -7.828414 2.428999
-9.855663 -7.918492 -0.662573
-9.766487 -7.844042 2.891971
-9.864389 -7.922674 -0.220843
-9.749485 -7.827589 3.350154
-0.861123 -0.689397 -0.295571
-9.875081 -7.902946 0.220773
-6.000088 -4.800103 -1.773964
-9.873785 -7.899081 0.662678
-7.118897 -5.693122 -1.771852
-9.891367 -7.907487 1.107924
-8.788250 -7.023106 -1.781789
-9.884253 -7.896151 1.553347
-10.003522 -7.988566 -1.571871
-9.827988 -7.848390 1.992037
-9.885984 -7.891878 -1.106704
-9.816437 -7.833551 2.441211
-9.925398 -7.917671 -0.665399
-9.825804 -7.835418 2.901419
-9.920128 -7.910635 -0.221471
-9.803943 -7.815183 3.359471
-0.866549 -0.688791 -0.296607
-9.938805 -7.900018 0.221611
-6.025127 -4.787454 -1.776663
-9.941957 -7.896867 0.665399
-7.137191 -5.667016 -1.771471
-9.954802 -7.901400 1.111933
-8.836247 -7.013573 -1.786795
-9.932154 -7.880602 1.556759
-10.081283 -7.996058 -1.579914
-9.889378 -7.841035 1.998920
-9.950945 -7.887025 -1.110887
-9.882360 -7.832666 2.451133
-9.979778 -7.907040 -0.667284
-9.865481 -7.813680 2.905468
-9.969627 -7.893339 -0.221960
-9.855398 -7.800097 3.367754
-0.868829 -0.685914 -0.296607
-10.007133 -7.897486 0.222518
-6.044861 -4.768808 -1.777563
-9.996122 -7.883140 0.667179
-7.171359 -5.655476 -1.775287
-10.002853 -7.885613 1.114373
-8.842055 -6.968016 -1.783040
-9.993910 -7.872908 1.562121
-10.157480 -7.998891 -1.587470
-9.938416 -7.823575 2.003300
-9.949757 -7.829686 2.461055
-10.043423 -7.900556 -0.669691
-9.934056 -7.811719 2.917615
-10.028564 -7.883204 -0.222658
-9.922059 -7.796682 3.381212
-0.865136 -0.678109 -0.294536
-10.061398 -7.883476 0.223112
-6.076812 -4.759695 -1.782062
-10.059752 -7.876516 0.669586
-7.204970 -5.641299 -1.778722
-10.064835 -7.877668 1.118208
-8.839877 -6.916415 -1.777721
-10.063549 -7.870995 1.568702
-10.213486 -7.985395 -1.591857
-10.009245 -7.822896 2.012060
-10.111147 -7.902539 -1.122740
-9.992496 -7.806993 2.464871
-10.118162 -7.902331 -0.672831
-10.011953 -7.816569 2.932462
-10.097008 -7.880137 -0.223565
-10.001002 -7.802402 3.398812
-0.879694 -0.684577 -0.298677
-10.122000 -7.874091 0.223845
-6.090312 -4.736061 -1.781162
-10.120500 -7.870089 0.671889
-7.230817 -5.620936 -1.780248
-10.128455 -7.870604 1.122217
-8.853047 -6.877031 -1.775531
-10.112911 -7.852865 1.572115
-10.280500 -7.980125 -1.597951
-10.056977 -7.806618 2.016440
-10.167006 -7.889179 -1.125878
-10.056918 -7.800944 2.474030
-10.167781 -7.884100 -0.674297
-10.068442 -7.804256 2.941010
-10.167337 -7.880912 -0.224543
-10.057364 -7.792859 3.409165
-0.889722 -0.687408 -0.301265
-10.184452 -7.868601 0.224647
-6.109070 -4.718221 -1.782062
-10.177947 -7.857903 0.673878
-7.262827 -5.605257 -1.783301
-10.201615 -7.870495 1.127272
-8.894570 -6.862116 -1.779286
-10.181340 -7.852015 1.578696
-10.366649 -7.992046 -1.607213
-10.124847 -7.802816 2.024575
-10.232363 -7.882823 -1.130061
-10.107615 -7.786721 2.480135
-10.228683 -7.877148 -0.676599
-10.106621 -7.780334 2.944609
-10.232821 -7.874643 -0.225380
-10.096752 -7.767130 3.413306
-0.885866 -0.679749 -0.299195
-10.259457 -7.869514 0.225695
-6.128595 -4.699239 -1.782962
-10.246743 -7.856922 0.676704
-7.275143 -5.576364 -1.781775
-10.260871 -7.862069 1.130933
-8.924746 -6.835830 -1.780537
-10.251242 -7.849013 1.585276
-10.427587 -7.981148 -1.612332
-10.185178 -7.795612 2.031458
-10.298006 -7.879116 -1.134419
-10.203349 -7.803873 2.496927
-10.292610 -7.869297 -0.679007
-10.183264 -7.782876 2.959006
-10.281120 -7.857666 -0.225869
-10.171576 -7.771135 3.429870
-0.897454 -0.683677 -0.302301
-10.320493 -7.862108 0.226462
-6.153446 -4.685975 -1.785661
-10.307480 -7.846511 0.678902
-7.307062 -5.560445 -1.784827
-10.313622 -7.845505 1.133722
-8.970944 -6.824140 -1.785230
-10.311977 -7.841411 1.590639
-10.471380 -7.959740 -1.615013
-10.262659 -7.798252 2.041470
-10.344483 -7.857584 -1.136511
-10.269819 -7.800870 2.506849
-10.358416 -7.865316 -0.681624
-10.268003 -7.793836 2.976102
-10.353089 -7.855577 -0.226846
-10.241737 -7.768270 3.444364
-0.896872 -0.678053 -0.301265
-10.379321 -7.844125 0.227091
-6.179168 -4.668187 -1.787911
-10.372821 -7.836372 0.681310
-7.344626 -5.546641 -1.789025
-10.380473 -7.836460 1.137905
-8.982890 -6.778934 -1.782415
-10.380044 -7.830449 1.596488
-10.516131 -7.930231 -1.617206
-10.316406 -7.779618 2.046476
-10.424125 -7.857996 -1.142089
-10.318512 -7.775558 2.511428
-10.433208 -7.859133 -0.684554
-10.307193 -7.761385 2.978802
-10.420154 -7.846445 -0.227684
-10.288663 -7.744623 3.450576
-0.908504 -0.681876 -0.304371
-10.440462 -7.836070 0.227859
-6.189938 -4.644161 -1.786561
-10.448047 -7.836067 0.684450
-7.368656 -5.524503 -1.790170
-10.460378 -7.839609 1.143658
-8.980030 -6.730151 -1.777409
-10.432961 -7.816218 1.600632
-10.585271 -7.927442 -1.623787
-10.390939 -7.779074 2.055862
-10.481799 -7.844242 -1.145401
-10.372534 -7.762470 2.518297
-10.489599 -7.847224 -0.686543
-10.364084 -7.750505 2.987800
-10.485917 -7.838762 -0.228522
-10.365154 -7.745666 3.467140
-0.916956 -0.683478 -0.306442
-10.507837 -7.829450 0.228731
-6.210801 -4.626018 -1.787911
-10.507378 -7.823402 0.686543
-7.391659 -5.503554 -1.791315
-10.524676 -7.833427 1.147841
-9.011392 -6.704661 -1.778973
-10.514338 -7.820031 1.608919
-10.647926 -7.916501 -1.629150
-10.437054 -7.756898 2.059616
-10.560295 -7.845627 -1.150979
-10.459451 -7.770707 2.532799
-10.547393 -7.833186 -0.688532
-10.438018 -7.749130 3.001297
-10.542120 -7.823562 -0.229150
-10.441778 -7.746270 3.483705
-0.922561 -0.682410 -0.307477
-10.580118 -7.826020 0.229709
-6.234746 -4.610101 -1.790160
-10.555502 -7.802109 0.687904
-7.421254 -5.483428 -1.793605
-10.586971 -7.819658 1.151502
-9.056565 -6.686839 -1.783040
-10.602257 -7.828087 1.618181
-10.729796 -7.919367 -1.637437
-10.499040 -7.746218 2.066499
-10.621290 -7.833552 -1.154639
-10.519465 -7.755623 2.540431
-10.617834 -7.825282 -0.691253
-10.510279 -7.743185 3.013894
-10.619273 -7.823484 -0.230232
-10.515418 -7.744143 3.499233
-0.921823 -0.676899 -0.306442
-10.652258 -7.819136 0.230651
-6.256313 -4.590679 -1.791510
-10.635809 -7.804210 0.691358
-7.446681 -5.462133 -1.795131
-10.644732 -7.805038 1.154814
-9.103748 -6.672704 -1.787733
-10.656497 -7.807947 1.622081
-10.801992 -7.911654 -1.644018
-10.577011 -7.746872 2.076511
-10.679111 -7.818794 -1.157951
-10.587666 -7.748999 2.550353
-10.690219 -7.821192 -0.694184
-10.571846 -7.731760 3.023792
-10.685255 -7.814702 -0.231070
-10.548627 -7.711949 3.501304
-0.924180 -0.673677 -0.306442
-10.702367 -7.801437 0.231175
-6.279377 -4.575645 -1.793760
-10.700117 -7.794083 0.693766
-7.472053 -5.440727 -1.796658
-10.705737 -7.792459 1.158474
-9.130618 -6.645966 -1.788672
-10.691959 -7.779576 1.623544
-10.889174 -7.920160 -1.653280
-10.642331 -7.737786 2.084020
-10.754690 -7.816610 -1.163180
-10.641889 -7.734625 2.557222
-10.750029 -7.810351 -0.696382
-10.635271 -7.724144 3.034590
-10.751307 -7.805549 -0.231908
-10.622386 -7.709120 3.516833
-0.926409 -0.670609 -0.306442
-10.770034 -7.793341 0.232047
-6.301627 -4.558266 -1.795559
-10.772575 -7.789452 0.696696
-7.501189 -5.423973 -1.799329
-10.781577 -7.793097 1.163878
-9.184182 -6.636034 -1.794616
-10.693305 -7.723607 1.619644
-10.948940 -7.905344 -1.658154
-10.694905 -7.719088 2.089026
-10.827152 -7.811660 -1.168061
-10.710219 -7.727294 2.567144
-10.814482 -7.799652 -0.698790
-10.722238 -7.730279 3.051686
-10.830401 -7.805385 -0.233025
-10.696254 -7.705873 3.532362
-0.938275 -0.673971 -0.309548
-10.839399 -7.786030 0.232955
-6.320666 -4.538515 -1.796459
-10.827285 -7.771600 0.698476
-7.532184 -5.404455 -1.802000
-10.852161 -7.783719 1.168410
-9.136202 -6.550531 -1.780537
-10.771824 -7.723250 1.627443
-10.979695 -7.869390 -1.658642
-10.766747 -7.713921 2.097786
-10.896467 -7.803983 -1.172593
-10.789551 -7.724561 2.579356
-10.904717 -7.804130 -0.702767
-10.772687 -7.706802 3.057985
-10.891733 -7.791968 -0.233758
-10.754514 -7.690965 3.542715
-0.950059 -0.677421 -0.312653
-10.924857 -7.786873 0.234176
-6.340432 -4.517579 -1.797359
-10.896638 -7.763891 0.701197
-7.544608 -5.373573 -1.800474
-10.916595 -7.772368 1.172419
-8.933698 -6.358241 -1.736736
-10.842113 -7.713637 1.633781
-11.023024 -7.839448 -1.660836
-10.845121 -7.712926 2.107798
-10.957743 -7.790143 -1.176254
-10.838853 -7.702774 2.584699
-10.969340 -7.792625 -0.705175
-10.837656 -7.696231 3.068782
-10.957995 -7.781689 -0.234595
-10.841158 -7.695871 3.562386
-0.942957 -0.667404 -0.309548
-10.986527 -7.776020 0.234944
-6.369696 -4.506659 -1.801408
-10.972591 -7.760406 0.704337
-7.569729 -5.351740 -1.802000
-10.994099 -7.769861 1.177823
-8.946668 -6.322880 -1.735171
-10.903302 -7.702839 1.639143
-11.120307 -7.853238 -1.671560
-10.923619 -7.711479 2.117810
-11.019055 -7.775970 -1.179914
-10.915668 -7.703011 2.596910
-11.034290 -7.783836 -0.707687
-10.920451 -7.700679 3.084979
-11.022685 -7.769889 -0.235398
-10.905857 -7.684685 3.574809
-0.953068 -0.669828 -0.312136
-11.044695 -7.759461 0.235607
-6.393363 -4.489996 -1.803658
-11.038844 -7.749601 0.706850
-7.597076 -5.333377 -1.804290
-11.058945 -7.760828 1.182006
-8.918552 -6.256444 -1.725472
-10.995133 -7.710324 1.648892
-11.199668 -7.850834 -1.679360
-10.989297 -7.700507 2.125319
-11.083941 -7.766827 -1.184098
-10.993944 -7.700907 2.609122
-11.102296 -7.773911 -0.710304
-10.988776 -7.691566 3.096676
-11.095618 -7.763462 -0.236375
-10.948444 -7.657644 3.579985
-0.966491 -0.674234 -0.315759
-11.117640 -7.752887 0.236585
-6.410594 -4.468768 -1.804107
-11.114989 -7.745277 0.709990
-7.630144 -5.316926 -1.807724
-11.128474 -7.751786 1.186538
-9.402349 -6.546981 -1.814640
-11.051310 -7.692307 1.653280
-11.243299 -7.823029 -1.681797
-11.042055 -7.680150 2.130325
-11.161688 -7.763359 -1.189502
-11.059446 -7.689378 2.618281
-11.170365 -7.763606 -0.712920
-11.041162 -7.670954 3.103875
-11.173565 -7.760047 -0.237457
-11.051280 -7.672262 3.604832
-0.968839 -0.670856 -0.315759
-11.190672 -7.745902 0.237562
-6.438974 -4.455234 -1.807707
-11.184668 -7.735968 0.712711
-7.656732 -5.295843 -1.809633
-11.196435 -7.741223 1.190896
-9.467394 -6.543321 -1.822775
-11.114024 -7.678508 1.658642
-11.322805 -7.819836 -1.689597
-11.156580 -7.702161 2.147220
-11.249386 -7.766232 -1.195951
-11.121769 -7.675259 2.626677
-11.236853 -7.751788 -0.715433
-11.109584 -7.661127 3.115572
-11.235159 -7.744831 -0.238190
-11.122533 -7.664333 3.619326
-0.979135 -0.672941 -0.318347
-11.260496 -7.736233 0.238470
-6.460914 -4.437142 -1.809506
-11.252765 -7.725141 0.715328
-7.673552 -5.267973 -1.809251
-11.274316 -7.737041 1.196300
-9.354978 -6.417484 -1.796807
-11.193147 -7.675593 1.666442
-11.412252 -7.822914 -1.698859
-11.212731 -7.683266 2.152851
-11.314230 -7.752816 -1.199960
-11.200322 -7.671896 2.638889
-11.308338 -7.742984 -0.718259
-11.210233 -7.672933 3.136267
-11.301735 -7.732665 -0.239028
-11.168353 -7.638549 3.625537
-0.973499 -0.664076 -0.315759
-11.332039 -7.727296 0.239412
-6.489244 -4.423344 -1.813105
-11.330829 -7.720678 0.718573
-7.704873 -5.249999 -1.812304
-11.337481 -7.722313 1.200135
-9.589588 -6.529319 -1.837479
-11.265821 -7.667749 1.673266
-11.500217 -7.824344 -1.707877
-11.262348 -7.659634 2.157232
-11.375818 -7.736806 -1.203621
-11.269247 -7.661450 2.648811
-11.391463 -7.741629 -0.721818
-11.253068 -7.644705 3.140767
-11.378284 -7.726872 -0.240075
-11.252493 -7.638576 3.644172
-0.987009 -0.668255 -0.319383
-11.400345 -7.715713 0.240285
-6.527241 -4.415953 -1.819404
-11.394109 -7.705695 0.720876
-7.728031 -5.226372 -1.813449
-11.403982 -7.709472 1.204318
-9.489569 -6.412852 -1.814014
-11.335287 -7.657268 1.679603
-11.525813 -7.783045 -1.707633
-11.338135 -7.653430 2.166618
-11.453949 -7.731606 -1.209024
-11.334980 -7.648421 2.657969
-11.466435 -7.734207 -0.724853
-11.334619 -7.642421 3.156063
-11.456594 -7.721751 -0.241157
-11.317539 -7.625156 3.656595
-0.989335 -0.664806 -0.319383
-11.477009 -7.709323 0.241332
-6.529674 -4.384451 -1.815805
-11.469028 -7.698157 0.723911
-7.762527 -5.210307 -1.817265
-11.480458 -7.702920 1.209547
-9.520100 -6.385190 -1.815579
-11.394924 -7.639760 1.684478
-11.592487 -7.769288 -1.713483
-11.420579 -7.651187 2.177255
-11.530525 -7.724846 -1.214254
-11.404022 -7.637208 2.667892
-11.531535 -7.719691 -0.727261
-11.422771 -7.643993 3.173160
-11.526693 -7.710621 -0.242065
-11.366569 -7.600640 3.663843
-0.982007 -0.654917 -0.316277
-11.545445 -7.696943 0.242204
-6.553045 -4.367036 -1.818055
-11.545695 -7.691291 0.727051
-7.797008 -5.194062 -1.821081
-11.566978 -7.702554 1.215823
-9.558772 -6.362867 -1.818707
-11.481017 -7.639528 1.693253
-11.723666 -7.798038 -1.728839
-11.503144 -7.648465 2.187893
-11.608850 -7.718749 -1.219657
-11.479662 -7.629958 2.679340
-11.601665 -7.708129 -0.729982
-11.475358 -7.621320 3.180358
-11.600183 -7.701309 -0.243042
-11.470293 -7.612192 3.688689
-1.010062 -0.668545 -0.324559
-11.622272 -7.689701 0.243252
-6.574752 -4.348433 -1.819854
-11.617458 -7.680683 0.729877
-7.810177 -5.163564 -1.819936
-11.637010 -7.690694 1.220355
-9.615538 -6.352325 -1.825277
-11.557308 -7.632222 1.700565
-11.762410 -7.764724 -1.730545
-11.559452 -7.627845 2.193524
-11.678963 -7.706707 -1.224190
-11.568501 -7.630919 2.693842
-11.685192 -7.704965 -0.733541
-11.524670 -7.596234 3.186656
-11.667072 -7.687175 -0.243880
-11.554875 -7.610360 3.707324
-1.007545 -0.661834 -0.323006
-11.712563 -7.690792 0.244578
-6.598037 -4.330803 -1.822104
-11.692623 -7.671860 0.732913
-7.842927 -5.145966 -1.823371
-11.700437 -7.674066 1.224190
-9.664085 -6.336051 -1.830284
-11.633687 -7.624480 1.707877
-11.860846 -7.770392 -1.741026
-11.628974 -7.615586 2.201659
-11.757463 -7.699731 -1.229593
-11.673913 -7.642105 2.712159
-11.762152 -7.696938 -0.736681
-11.642443 -7.615700 3.211851
-11.749064 -7.682517 -0.245032
-11.600775 -7.582663 3.713536
-1.013086 -0.660423 -0.324041
-11.774522 -7.672784 0.245311
-6.627809 -4.317319 -1.826153
-11.763186 -7.662477 0.735739
-7.870713 -5.124984 -1.825661
-11.783928 -7.670127 1.230116
-9.707668 -6.316283 -1.834351
-11.710153 -7.616293 1.715189
-11.966422 -7.782971 -1.752725
-11.693912 -7.602822 2.209168
-11.826034 -7.685785 -1.233951
-11.690638 -7.594893 2.709869
-11.839200 -7.688467 -0.739821
-11.710125 -7.604645 3.223549
-11.823117 -7.675089 -0.246044
-11.680955 -7.579906 3.731135
-1.021758 -0.661258 -0.326112
-11.848590 -7.665197 0.246323
-6.645362 -4.297433 -1.827052
-11.852262 -7.664639 0.739716
-7.897558 -5.105251 -1.827950
-11.854479 -7.660207 1.234823
-9.783318 -6.319427 -1.844675
-11.768699 -7.598955 1.720064
-12.045531 -7.777704 -1.760525
-11.782128 -7.604709 2.221057
-11.905029 -7.681091 -1.239529
-11.778455 -7.596519 2.724371
-11.901560 -7.672972 -0.742124
-11.758209 -7.580553 3.229847
-11.895569 -7.666170 -0.247021
-11.748251 -7.568332 3.744594
-1.033697 -0.664131 -0.329218
-11.936199 -7.665846 0.247615
-6.659576 -4.275373 -1.827052
-11.912909 -7.647952 0.741915
-7.924357 -5.085395 -1.830240
-11.933480 -7.655279 1.240400
-9.832488 -6.305076 -1.849994
-11.857340 -7.600594 1.729326
-12.036160 -7.715219 -1.755406
-11.857177 -7.597570 2.230443
-11.972379 -7.668435 -1.243887
-11.859797 -7.593411 2.737346
-11.985816 -7.671148 -0.745787
-11.865349 -7.594047 3.252342
-11.988304 -7.669787 -0.248418
-11.828618 -7.564720 3.762194
-1.042409 -0.664855 -0.331288
-12.008766 -7.656322 0.248592
-6.686863 -4.261645 -1.830652
-11.981994 -7.636317 0.744636
-7.974294 -5.080186 -1.837872
-12.024343 -7.657402 1.247199
-9.918332 -6.313806 -1.862196
-11.922674 -7.586810 1.735176
-12.078427 -7.685921 -1.757844
-11.915642 -7.579412 2.236700
-12.064995 -7.671453 -1.250859
-11.944561 -7.591952 2.751084
-12.053334 -7.658136 -0.748404
-11.933232 -7.581829 3.264040
-12.050809 -7.653575 -0.249185
-11.915615 -7.564799 3.781864
-1.038308 -0.656899 -0.329218
-12.082379 -7.641116 0.249535
-6.707381 -4.240230 -1.832001
-12.073697 -7.629730 0.748509
-8.138908 -5.143219 -1.871455
-12.091071 -7.637753 1.251208
-9.944746 -6.279522 -1.862822
-12.010833 -7.581203 1.743950
-12.274056 -7.744354 -1.781974
-11.991439 -7.563110 2.245461
-12.135159 -7.653755 -1.255217
-12.012166 -7.573248 2.760243
-12.135391 -7.647983 -0.751754
-11.988638 -7.552573 3.271238
-12.120718 -7.632822 -0.250023
-11.974002 -7.537515 3.791182
-1.048776 -0.658406 -0.331806
-12.158100 -7.629719 0.250547
-6.727093 -4.219900 -1.833351
-12.154406 -7.621489 0.751858
-8.229998 -5.160666 -1.888246
-12.163239 -7.624070 1.255914
-9.951540 -6.235331 -1.860006
-12.091059 -7.572950 1.751750
-12.316157 -7.710942 -1.784167
-12.094793 -7.569412 2.259853
-12.195580 -7.632488 -1.258703
-12.091787 -7.564594 2.772455
-12.221283 -7.642640 -0.755417
-12.087636 -7.556129 3.291034
-12.218512 -7.634975 -0.251489
-12.065780 -7.536610 3.811887
-1.052707 -0.655762 -0.332324
-12.242372 -7.623173 0.251734
-6.746746 -4.199481 -1.834701
-12.228419 -7.608560 0.754789
-8.264631 -5.142279 -1.892062
-12.247300 -7.617342 1.261841
-9.949758 -6.185956 -1.855626
-12.151139 -7.551653 1.756625
-12.380095 -7.690949 -1.789530
-12.184911 -7.566747 2.271742
-12.284774 -7.628761 -1.265153
-12.174831 -7.557544 2.785430
-12.288616 -7.625205 -0.757929
-12.183492 -7.557030 3.309930
-12.296074 -7.623890 -0.252536
-12.141275 -7.524977 3.827416
-1.064850 -0.658178 -0.335429
-12.318241 -7.610874 0.252746
-6.761364 -4.175903 -1.834701
-12.300789 -7.594155 0.757615
-8.317613 -5.135056 -1.900076
-12.334853 -7.612217 1.268116
-10.004915 -6.171927 -1.861883
-12.251771 -7.555037 1.767349
-12.464319 -7.683106 -1.797817
-12.241521 -7.542819 2.277373
-12.379178 -7.627639 -1.272125
-12.237914 -7.537651 2.793826
-12.374684 -7.618917 -0.761593
-12.229712 -7.526712 3.315329
-12.382224 -7.617596 -0.253758
-12.223418 -7.516957 3.845016
-1.073728 -0.658497 -0.337500
-12.397584 -7.600228 0.253828
-6.782546 -4.156349 -1.836500
-12.381721 -7.584559 0.760965
-8.335485 -5.105993 -1.900076
-12.415723 -7.602403 1.273694
-10.112325 -6.189559 -1.877840
-12.325480 -7.541236 1.774174
-12.521547 -7.658191 -1.802204
-12.314966 -7.528893 2.286134
-12.451626 -7.612441 -1.276832
-12.331157 -7.535840 2.809090
-12.460859 -7.612112 -0.765256
-12.309133 -7.516476 3.329726
-12.456529 -7.603502 -0.254735
-12.299056 -7.504430 3.860545
-1.084272 -0.659766 -0.340088
-12.490670 -7.597430 0.255189
-6.807003 -4.138724 -1.839200
-12.471271 -7.579672 0.764838
-8.366680 -5.085023 -1.903129
-12.489863 -7.587984 1.278575
-10.133867 -6.154224 -1.877840
-12.395848 -7.524948 1.780511
-12.626269 -7.661807 -1.813416
-12.405351 -7.524792 2.298023
-12.539446 -7.606132 -1.283107
-12.441328 -7.543641 2.828171
-12.542012 -7.601696 -0.768606
-12.398628 -7.511837 3.346822
-12.542862 -7.596227 -0.255957
-12.358229 -7.481462 3.870898
-1.084914 -0.654979 -0.339571
-12.549643 -7.573417 0.255852
-6.829752 -4.119970 -1.841449
-12.567780 -7.578376 0.769129
-8.397830 -5.063895 -1.906182
-12.574289 -7.579313 1.284501
-10.231427 -6.164689 -1.891919
-12.476457 -7.514403 1.788311
-12.700554 -7.646357 -1.820241
-12.495858 -7.520150 2.309911
-12.622255 -7.596217 -1.288859
-12.467584 -7.500166 2.828171
-12.621529 -7.589780 -0.771851
-12.478221 -7.500639 3.361219
-12.622437 -7.584325 -0.257039
-12.477009 -7.493983 3.899886
-1.108739 -0.664092 -0.346300
-12.642915 -7.569627 0.257214
-6.840747 -4.094103 -1.840549
-12.647287 -7.566249 0.772374
-8.403661 -5.027496 -1.903511
-12.655388 -7.568096 1.290079
-10.444480 -6.243468 -1.927273
-12.560547 -7.505429 1.796598
-12.757844 -7.620300 -1.824628
-12.566131 -7.502811 2.318046
-12.701726 -7.583770 -1.294263
-12.564492 -7.498862 2.844199
-12.699402 -7.576375 -0.774991
-12.574625 -7.498954 3.380115
-12.702082 -7.571963 -0.258121
-12.546240 -7.476096 3.913344
-1.112711 -0.661205 -0.346818
-12.741469 -7.568339 0.258680
-6.863375 -4.075174 -1.842799
-12.713126 -7.545501 0.774782
-8.426224 -5.001137 -1.904655
-12.746842 -7.562505 1.296703
-10.476404 -6.213017 -1.929150
-12.641313 -7.493931 1.804398
-12.842429 -7.610128 -1.832915
-12.646629 -7.491120 2.328058
-12.782974 -7.571882 -1.299841
-12.668301 -7.500970 2.861753
-12.794522 -7.572691 -0.779178
-12.651039 -7.484787 3.393611
-12.812776 -7.577457 -0.259831
-12.625479 -7.463712 3.929909
-1.115012 -0.657317 -0.346818
-12.814323 -7.551230 0.259622
-6.885954 -4.056137 -1.845049
-12.816834 -7.546680 0.779492
-8.436863 -4.967709 -1.903129
-12.828109 -7.550303 1.302281
-10.518459 -6.188430 -1.932904
-12.705038 -7.471898 1.809760
-12.913409 -7.591409 -1.839252
-12.747637 -7.490963 2.341824
-12.864296 -7.559516 -1.305419
-12.718106 -7.470623 2.867096
-12.886326 -7.566412 -0.783155
-12.720785 -7.466227 3.405309
-12.877093 -7.554947 -0.260599
-12.731443 -7.466504 3.954755
-1.120635 -0.655371 -0.347853
-12.904482 -7.543791 0.260913
-6.915213 -4.040924 -1.849098
-12.902145 -7.539404 0.783155
-8.423636 -4.920406 -1.896260
-12.906004 -7.535617 1.307510
-10.468342 -6.109854 -1.919764
-12.816772 -7.477524 1.821947
-13.135317 -7.660290 -1.867038
-12.806538 -7.468552 2.348082
-12.818742 -7.469675 2.883887
-15.976007 -9.305726 -0.968948
-12.820869 -7.464921 3.425105
-12.947006 -7.538364 -0.261507
-12.782846 -7.439792 3.963037
-1.131271 -0.656303 -0.350441
-12.974398 -7.527050 0.261821
-6.935319 -4.021881 -1.850897
-12.971581 -7.519366 0.785772
-8.423775 -4.881127 -1.892444
-13.001192 -7.530465 1.314483
-10.454359 -6.055305 -1.913507
-12.930832 -7.486701 1.834621
-13.215627 -7.648509 -1.874838
-12.883824 -7.453478 2.357468
-12.894426 -7.456613 2.895336
-12.892798 -7.449663 3.437702
-32.114483 -18.548792 -0.647345
-12.868967 -7.429903 3.981672
-1.126744 -0.648692 -0.348370
-32.169582 -18.513271 0.647868
-6.959450 -4.003479 -1.853597
-32.098747 -18.457603 1.940513
-8.451828 -4.860018 -1.895115
-32.265533 -18.546009 3.255964
-10.531953 -6.051253 -1.923831
-12.980986 -7.455359 1.838034
-13.256017 -7.610237 -1.876788
-13.002280 -7.461555 2.374362
-20.596769 -11.819768 -2.077619
-12.981685 -7.446721 2.909074
-12.979589 -7.439503 3.453899
-42.579189 -24.395201 -0.856564
-12.941762 -7.411818 3.996166
-1.145777 -0.654335 -0.353547
-32.320839 -18.450439 0.649613
-6.971689 -3.978195 -1.853147
-8.478974 -4.836320 -1.897405
-10.587336 -6.034015 -1.930089
-13.041430 -7.429651 1.842908
-13.258348 -7.550169 -1.873376
-13.066015 -7.437623 2.381246
-13.075856 -7.440198 2.924339
-13.069854 -7.430749 3.470995
-15.633066 -8.884426 -0.313864
-13.068340 -7.423850 4.027225
-1.148054 -0.650332 -0.353547
-7.002493 -3.963434 -1.857646
-8.499222 -4.808630 -1.898168
-10.644445 -6.017436 -1.936659
-13.153695 -7.432916 1.855095
-13.322648 -7.525321 -1.878738
-13.140063 -7.419159 2.390006
-13.166716 -7.431181 2.938840
-13.150032 -7.415710 3.485392
-15.886960 -8.955494 -0.318332
-13.151398 -7.410435 4.044824
-1.141897 -0.641589 -0.350959
-7.023083 -3.942783 -1.859445
-8.491984 -4.765481 -1.892825
-10.658494 -5.976378 -1.935407
-13.259217 -7.431601 1.866307
-13.418108 -7.517580 -1.888487
-13.231376 -7.409925 2.401895
-13.254247 -7.419699 2.952579
-13.243869 -7.407815 3.503388
-13.372804 -7.473806 4.104870
-5.999084 -3.343163 -1.840203
-7.048721 -3.924879 -1.862595
-8.486267 -4.723396 -1.887864
-10.706913 -5.954498 -1.940413
-13.344068 -7.418065 1.874594
-13.524088 -7.515046 -1.899699
-13.350409 -7.415491 2.418790
-13.352156 -7.413413 2.968606
-13.317359 -7.388013 3.515985
-6.003954 -3.318465 -1.838133
-7.064085 -3.901193 -1.863045
-8.495828 -4.689951 -1.886338
-10.770876 -5.940939 -1.948235
-13.394217 -7.384861 1.878007
-13.671935 -7.534866 -1.916761
-13.441960 -7.405064 2.430679
-13.443305 -7.402743 2.983108
-13.425020 -7.386573 3.537580
-42.297592 -23.262905 -0.842602
-6.035830 -3.308630 -1.844345
-7.082786 -3.879321 -1.864394
-8.496650 -4.651779 -1.882903
-10.814075 -5.915632 -1.952302
-13.517450 -7.391391 1.891656
-13.753895 -7.517562 -1.924561
-13.516264 -7.384620 2.439439
-13.513861 -7.380240 2.993030
-13.502042 -7.367669 3.551077
-6.059224 -3.293999 -1.847968
-7.104846 -3.859224 -1.866644
-8.514561 -4.623029 -1.883285
-10.860704 -5.891976 -1.956995
-13.612970 -7.382014 1.901406
-13.828918 -7.495994 -1.931386
-13.618381 -7.378797 2.453206
-13.622404 -7.377902 3.011348
-21.301479 -11.532085 -1.269461
-13.572238 -7.344606 3.562775
-6.058781 -3.266412 -1.844345
-7.132000 -3.841792 -1.870243
-8.560031 -4.609104 -1.889772
-14.016049 -7.543713 1.392574
-10.891644 -5.859642 -1.958873
-13.708589 -7.372057 1.911155
-13.910949 -7.477755 -1.939185
-13.696258 -7.359264 2.462592
-13.693044 -7.354458 3.021270
-21.429585 -11.504900 -1.274695
-13.700821 -7.352474 3.589769
-6.082072 -3.251618 -1.847968
-7.152243 -3.820547 -1.872043
-8.591656 -4.587518 -1.893207
-14.073936 -7.511624 1.395712
-10.887631 -5.808570 -1.954492
-13.779778 -7.348450 1.917493
-14.024556 -7.475837 -1.951372
-13.767190 -7.335562 2.470726
-13.767148 -7.332459 3.031955
-21.540138 -11.467565 -1.278882
-13.784892 -7.335731 3.605066
-6.095092 -3.231273 -1.848486
-7.158647 -3.791909 -1.870243
-8.612822 -4.560255 -1.894352
-14.145857 -7.486682 1.400244
-10.916571 -5.775150 -1.956057
-13.872028 -7.335567 1.926754
-14.099708 -7.452811 -1.958197
-13.900999 -7.344678 2.490124
-13.910711 -7.346701 3.057905
-13.889693 -7.329405 3.625761
-6.111463 -3.212675 -1.850039
-7.190817 -3.776865 -1.875192
-8.639118 -4.535636 -1.896641
-14.207188 -7.455780 1.403730
-10.964652 -5.751691 -1.961063
-13.999519 -7.340562 1.940891
-14.164316 -7.423825 -1.963559
-13.993042 -7.330944 2.502013
-13.991926 -7.327243 3.070117
-13.953180 -7.300752 3.635659
-6.129493 -3.194893 -1.852109
-7.203957 -3.751743 -1.875192
-8.630517 -4.492763 -1.891299
-14.190709 -7.384069 1.399547
-10.991673 -5.717028 -1.962314
-14.074373 -7.317293 1.947716
-14.306398 -7.434752 -1.979646
-14.062850 -7.308185 2.510148
-14.503506 -7.533965 -1.429877
-14.083627 -7.312739 3.084618
-14.525633 -7.539027 -0.857682
-14.092750 -7.311228 3.665352
-14.530472 -7.538315 -0.285731
-6.132028 -3.169043 -1.849521
-14.586705 -7.538435 0.286603
-7.237134 -3.738566 -1.880591
-8.618234 -4.448202 -1.885193
-14.294305 -7.374682 1.407217
-11.035148 -5.693226 -1.966694
-14.169132 -7.306973 1.957466
-14.412139 -7.429107 -1.990858
-14.179587 -7.306100 2.526417
-14.464178 -7.449543 -1.423428
-14.177614 -7.301953 3.099883
-14.493730 -7.461563 -0.854332
-14.179296 -7.296558 3.681549
-14.521130 -7.469258 -0.285033
-6.154537 -3.154859 -1.853144
-14.538186 -7.449173 0.285137
-7.253609 -3.715057 -1.881491
-14.590625 -7.469614 0.859043
-8.615461 -4.410652 -1.881377
-14.396723 -7.367176 1.414886
-11.105956 -5.680759 -1.975768
-14.279391 -7.300846 1.969165
-14.483942 -7.402241 -1.997195
-14.257777 -7.283518 2.535803
-14.465737 -7.389754 -1.421162
-14.237987 -7.270275 3.107516
-14.507235 -7.404569 -0.853600
-14.270642 -7.280672 3.698645
-14.518613 -7.403989 -0.284474
-6.172400 -3.136857 -1.855215
-14.549834 -7.391137 0.284858
-7.259583 -3.686183 -1.879691
-14.589895 -7.405078 0.857472
-8.623802 -4.376997 -1.879850
-14.482759 -7.347527 1.420813
-11.189142 -5.674120 -1.987031
-14.386238 -7.292242 1.980377
-14.580523 -7.387529 -2.006944
-14.371227 -7.278329 2.551446
-14.546543 -7.367118 -1.426565
-14.403406 -7.291468 3.138045
-14.536557 -7.355687 -0.853809
-14.393352 -7.280067 3.723840
-14.551506 -7.356872 -0.284614
-6.190213 -3.118771 -1.857285
-14.571974 -7.338504 0.284788
-7.279369 -3.664325 -1.881491
-14.601379 -7.346925 0.856635
-8.649550 -4.352164 -1.882140
-14.586640 -7.336315 1.428483
-11.226530 -5.643901 -1.990160
-14.479006 -7.275853 1.989639
-14.687822 -7.377571 -2.018157
-14.491876 -7.275982 2.568341
-14.630929 -7.345797 -1.432317
-14.467372 -7.260522 3.146441
-14.637126 -7.342512 -0.858205
-14.453516 -7.247251 3.732838
-14.645030 -7.340085 -0.285940
-6.207975 -3.100596 -1.859356
-14.679802 -7.328677 0.286394
-7.311296 -3.648466 -1.886440
-14.644810 -7.304827 0.857682
-8.640094 -4.309676 -1.876797
-14.690614 -7.324468 1.436152
-11.277984 -5.620540 -1.995791
-14.568280 -7.257132 1.998414
-14.731255 -7.335103 -2.020594
-14.577310 -7.255280 2.578979
-14.749232 -7.340847 -1.441382
-14.598095 -7.262442 3.169338
-14.730623 -7.325167 -0.862183
-14.569467 -7.241861 3.756233
-14.731453 -7.319167 -0.287127
-6.218761 -3.078906 -1.859356
-14.768023 -7.308436 0.287616
-7.330974 -3.626379 -1.888239
-14.761530 -7.298806 0.863020
-8.628688 -4.266436 -1.871073
-14.783965 -7.306693 1.442776
-11.329414 -5.596887 -2.001423
-14.710999 -7.264239 2.014500
-14.856452 -7.332842 -2.034243
-14.648607 -7.227076 2.587113
-14.828371 -7.315764 -1.446611
-14.686745 -7.242700 3.183076
-14.847465 -7.318742 -0.867521
-14.664580 -7.225411 3.774229
-14.843020 -7.310108 -0.288802
-6.236408 -3.060585 -1.861427
-14.861666 -7.290308 0.288942
-7.347087 -3.602482 -1.889139
-14.855066 -7.280639 0.866997
-8.638238 -4.233700 -1.869928
-14.812958 -7.256795 1.443125
-11.359529 -5.562516 -2.003300
-14.764792 -7.226810 2.018400
-14.963982 -7.321068 -2.045455
-14.783770 -7.229698 2.606511
-14.945100 -7.308594 -1.455501
-14.775433 -7.222431 3.196814
-14.959059 -7.308956 -0.872545
-14.794779 -7.225487 3.801223
-14.961888 -7.303871 -0.290617
-6.254002 -3.042178 -1.863497
-14.976942 -7.282106 0.290687
-7.364875 -3.579369 -1.890489
-14.975604 -7.274995 0.872545
-8.644135 -4.199232 -1.868020
-14.884798 -7.227671 1.447657
-11.378875 -5.522832 -2.003300
-14.875659 -7.216818 2.030100
-15.068038 -7.306901 -2.056180
-14.908457 -7.226302 2.624032
-15.052993 -7.296360 -1.463519
-14.892429 -7.215323 3.216658
-15.050991 -7.288899 -0.876418
-14.862006 -7.194180 3.812021
-15.055696 -7.284695 -0.291944
-6.273283 -3.024523 -1.866085
-15.090538 -7.272325 0.292398
-7.389615 -3.559559 -1.893638
-15.078289 -7.259932 0.877046
-8.671124 -4.174994 -1.870692
-14.996111 -7.217142 1.456024
-11.458608 -5.512193 -2.013937
-14.990211 -7.207859 2.042287
-15.165019 -7.288655 -2.065929
-15.004814 -7.208434 2.636547
-15.160980 -7.283457 -1.471538
-14.988316 -7.197288 3.231923
-15.155568 -7.274347 -0.881024
-14.981906 -7.187776 3.836315
-15.167583 -7.273602 -0.293619
-6.287289 -3.004274 -1.867121
-15.195229 -7.257521 0.293933
-7.409029 -3.537101 -1.895438
-15.168427 -7.238223 0.880814
-8.657292 -4.131174 -1.864586
-15.125513 -7.214500 1.466134
-11.492043 -5.478962 -2.016440
-15.097712 -7.194776 2.053499
-15.233380 -7.256162 -2.071779
-15.111929 -7.195075 2.650939
-15.272660 -7.271603 -1.479905
-15.119713 -7.195540 3.254820
-15.263833 -7.260866 -0.885838
-15.077301 -7.168907 3.854311
-15.266930 -7.255800 -0.295050
-6.301230 -2.983961 -1.868156
-15.309033 -7.246356 0.295644
-7.440707 -3.520386 -1.900386
-15.285686 -7.228775 0.886153
-8.639714 -4.085819 -1.857716
-15.193835 -7.182093 1.470317
-11.514669 -5.440504 -2.017066
-15.190945 -7.174240 2.062761
-15.359144 -7.250398 -2.085428
-15.190545 -7.167572 2.660325
-15.366419 -7.250557 -1.486528
-15.208662 -7.172872 3.268558
-15.390254 -7.255233 -0.891700
-15.211528 -7.167738 3.882205
-15.382617 -7.245071 -0.296796
-6.311608 -2.961947 -1.868156
-15.401220 -7.224298 0.296935
-7.456480 -3.496046 -1.901286
-15.399991 -7.220442 0.891386
-8.657480 -4.057302 -1.858480
-15.337893 -7.184798 1.481822
-11.540747 -5.403625 -2.018318
-15.348942 -7.183437 2.080797
-15.420319 -7.213566 -2.090303
-15.339478 -7.175749 2.682225
-15.483684 -7.239910 -1.495418
-15.340322 -7.169614 3.291455
-15.493295 -7.237820 -0.896201
-15.282367 -7.136029 3.893903
-15.491718 -7.233785 -0.298436
-6.332417 -2.944787 -1.871262
-15.510314 -7.212816 0.298576
-7.464498 -3.469657 -1.900386
-15.512044 -7.207032 0.896410
-8.705421 -4.042770 -1.865731
-15.438779 -7.166446 1.489143
-11.585478 -5.377802 -2.023011
-15.408692 -7.149208 2.085672
-15.310893 -7.100588 -2.072267
-15.421784 -7.148746 2.692237
-15.595634 -7.226022 -1.503785
-15.417454 -7.143465 3.302904
-15.602389 -7.225850 -0.901121
-15.436812 -7.145891 3.927195
-15.600357 -7.218291 -0.300042
-15.528185 -7.181608 4.584203
-6.352675 -2.928624 -1.874368
-15.631654 -7.202985 0.300426
-7.494263 -3.451732 -1.904886
-15.618746 -7.190429 0.901121
-8.770496 -4.037688 -1.876797
-15.545719 -7.153522 1.497161
-11.618539 -5.343929 -2.025514
-15.527341 -7.138499 2.098346
-15.425772 -7.088542 -2.084453
-15.554351 -7.144336 2.711010
-15.708228 -7.215014 -1.512326
-15.549347 -7.138752 3.325801
-15.701944 -7.205496 -0.905412
-15.557310 -7.135834 3.951490
-15.718164 -7.206294 -0.301822
-6.371645 -2.910444 -1.876956
-15.747655 -7.189903 0.302171
-7.516904 -3.430406 -1.907585
-15.727340 -7.173994 0.905936
-8.905998 -4.062453 -1.902747
-15.650360 -7.135581 1.504831
-11.635324 -5.302524 -2.025201
-15.635264 -7.122108 2.109559
-15.656380 -7.128427 -2.112240
-15.661901 -7.127636 2.725402
-15.823988 -7.201401 -1.521042
-15.670669 -7.128330 3.346408
-15.828819 -7.196931 -0.911274
-15.821509 -7.186950 -0.303323
-6.371206 -2.883406 -1.873850
-15.856465 -7.172801 0.303777
-7.528833 -3.404146 -1.907585
-15.846926 -7.161823 0.911378
-8.973796 -4.055597 -1.914196
-15.776854 -7.126839 1.514592
-11.707773 -5.286263 -2.034587
-15.768591 -7.116481 2.124183
-15.771645 -7.114542 -2.124427
-15.758715 -7.105404 2.737916
-15.932578 -7.183796 -1.529060
-15.792110 -7.117145 3.367016
-15.935790 -7.178548 -0.915984
-15.934032 -7.171072 -0.304998
-6.398859 -2.869054 -1.879026
-15.961700 -7.153391 0.305312
-7.558454 -3.385810 -1.912084
-15.964794 -7.148092 0.916717
-9.029109 -4.042702 -1.922973
-15.928935 -7.128695 1.526794
-11.684681 -5.226811 -2.027391
-15.873075 -7.097042 2.134907
-15.829003 -7.074027 -2.128814
-15.891639 -7.098692 2.756689
-16.043056 -7.166329 -1.537253
-15.906494 -7.101994 3.386096
-16.066534 -7.170091 -0.922055
-16.055765 -7.158561 -0.306848
-6.410602 -2.847483 -1.879544
-16.099886 -7.147939 0.307476
-7.570225 -3.359408 -1.912084
-16.090065 -7.136857 0.922474
-9.052141 -4.015138 -1.924881
-15.997436 -7.092429 1.530978
-11.731749 -5.198799 -2.032397
-16.024801 -7.097870 2.151969
-15.860860 -7.021944 -2.129789
-16.013866 -7.086346 2.773583
-16.184580 -7.161888 -1.548409
-16.010187 -7.081372 3.402888
-16.177319 -7.151919 -0.926974
-16.172115 -7.142872 -0.308593
-6.425807 -2.827422 -1.881097
-16.205280 -7.127122 0.309012
-7.581906 -3.332962 -1.912084
-16.197165 -7.116802 0.927184
-9.064303 -3.982725 -1.924500
-16.113304 -7.076605 1.539693
-11.802280 -5.180839 -2.041470
-16.114923 -7.070602 2.160744
-15.848917 -6.950591 -2.124914
-16.114492 -7.063707 2.786724
-16.300720 -7.145339 -1.557124
-16.157089 -7.079018 3.428838
-16.297323 -7.137069 -0.932417
-16.301376 -7.132064 -0.310583
-6.448033 -2.810379 -1.884720
-16.338224 -7.117632 0.311072
-7.604216 -3.311142 -1.914783
-16.309811 -7.098482 0.932208
-9.067349 -3.946362 -1.922210
-16.298685 -7.090257 1.555033
-11.849277 -5.152212 -2.046476
-16.237818 -7.057034 2.173906
-15.716497 -6.827210 -2.103952
-16.269512 -7.064058 2.809250
-16.424252 -7.131245 -1.566537
-16.257341 -7.055402 3.444866
-16.424746 -7.124646 -0.938279
-16.421583 -7.116466 -0.312398
-6.459577 -2.788620 -1.885238
-16.467628 -7.105712 0.313061
-7.628253 -3.289980 -1.917933
-16.448202 -7.090526 0.938698
-9.115324 -3.929453 -1.929461
-16.356272 -7.047507 1.558170
-11.887148 -5.119414 -2.049917
-16.371750 -7.047406 2.188530
-16.188810 -6.965304 -2.163912
-16.333994 -7.024392 2.816133
-16.529577 -7.108502 -1.574207
-16.400913 -7.049783 3.470052
-16.554113 -7.112209 -0.944245
-16.534525 -7.096961 -0.314074
-6.462167 -2.763016 -1.883168
-16.578754 -7.085120 0.314702
-7.652235 -3.268692 -1.921082
-16.568371 -7.073848 0.944141
-9.152457 -3.907632 -1.934422
-16.523708 -7.051366 1.571767
-11.917664 -5.083317 -2.052108
-16.513119 -7.040035 2.204129
-16.333553 -6.960112 -2.179999
-16.525614 -7.038550 2.844918
-16.671604 -7.100731 -1.585363
-16.472389 -7.012480 3.479975
-16.678082 -7.096608 -0.949898
-16.665939 -7.084572 -0.316098
-6.482447 -2.744961 -1.886273
-16.697304 -7.066959 0.316482
-7.663598 -3.241961 -1.921082
-16.695980 -7.059524 0.950002
-9.176892 -3.880245 -1.936711
-16.599606 -7.015365 1.576647
-11.938974 -5.043222 -2.052733
-16.592457 -7.005514 2.211441
-16.295567 -6.876817 -2.171712
-16.608324 -7.005388 2.854929
-16.804600 -7.088177 -1.595647
-16.655962 -7.022054 3.513557
-16.800297 -7.079456 -0.955445
-16.806679 -7.075234 -0.318297
-6.500896 -2.726052 -1.888861
-16.826992 -7.052692 0.318472
-7.682057 -3.218204 -1.922882
-16.825527 -7.045174 0.955969
-9.199434 -3.851981 -1.938620
-16.771029 -7.018914 1.590592
-11.978375 -5.010661 -2.056488
-16.759661 -7.007284 2.230453
-16.414717 -6.859695 -2.184386
-16.760271 -7.000662 2.876830
-16.928516 -7.070938 -1.605060
-16.734722 -6.986565 3.525006
-16.926283 -7.063071 -0.961202
-16.925404 -7.055769 -0.320077
-6.522861 -2.708529 -1.892485
-16.964170 -7.040669 0.320601
-7.707644 -3.197340 -1.926481
-16.942266 -7.024647 0.961202
-9.211012 -3.819094 -1.938238
-16.872734 -6.992366 1.597913
-12.012217 -4.975624 -2.059304
-16.839045 -6.971519 2.237765
-16.475245 -6.817534 -2.189261
-16.853971 -6.970809 2.888719
-17.054356 -7.053689 -1.614647
-16.893270 -6.983611 3.553246
-17.059746 -7.048940 -0.967378
-17.047895 -7.037084 -0.321927
-6.530490 -2.685009 -1.891967
-17.086676 -7.021696 0.322451
-7.789061 -3.199292 -1.944027
-17.070150 -7.007942 0.967064
-9.275139 -3.807795 -1.948923
-16.992887 -6.972756 1.606978
-12.038651 -4.937411 -2.060868
-16.999195 -6.968413 2.255802
-16.348316 -6.698269 -2.169275
-16.987883 -6.956851 2.907491
