# This PCD file was generated using the MATLAB® pcwrite function
# from Computer Vision Toolbox®.
# .PCD v.7 - Point Cloud Data file format
VERSION .7
FIELDS x y z
SIZE 4 4 4
TYPE F F F
COUNT 1 1 1
WIDTH 1708
HEIGHT 1
VIEWPOINT 0 0 0 1 0 0 0
POINTS 1708
DATA ascii
-0.817029 7.670456 1.221753
-0.814148 7.643401 -0.672494
-0.817951 7.691854 1.503575
-0.813038 7.658395 -0.403615
-0.814374 7.683719 1.783862
-0.809884 7.654100 -0.134349
-0.812568 7.692336 2.072623
-0.616419 5.904491 -1.590702
-0.711892 6.842118 -1.588154
-1.979452 19.057180 1.004118
-0.799557 7.697736 -1.504338
-0.823626 7.942909 0.698640
-0.789383 7.625690 -1.214244
-0.914156 8.846105 1.091949
-0.802817 7.781948 -0.960574
-0.790450 7.675226 1.222066
-0.788072 7.652143 -0.673017
-0.791094 7.694664 1.503575
-0.785285 7.651251 -0.403092
-0.785957 7.671007 1.780263
-0.782345 7.648924 -0.134209
-0.785914 7.697047 2.073141
-0.595806 5.906607 -1.590702
-0.688200 6.846500 -1.588604
-1.984566 19.743279 1.039916
-0.773076 7.704386 -1.505101
-0.795297 7.939788 0.698117
-0.762758 7.628399 -1.214244
-0.882682 8.843316 1.091218
-0.775033 7.764815 -0.958137
-0.765191 7.679770 1.222379
-0.761355 7.654847 -0.673017
-0.765590 7.711053 1.506246
-0.757389 7.642021 -0.402464
-0.759747 7.665813 1.778463
-0.757761 7.659436 -0.134349
-0.760193 7.697689 2.072623
-0.576217 5.908549 -1.590702
-0.665871 6.852624 -1.589504
-1.990558 20.485271 1.078644
-0.746008 7.691275 -1.502048
-0.768193 7.934451 0.697420
-0.737842 7.634818 -1.214870
-0.853353 8.846194 1.091218
-0.750044 7.775245 -0.959112
-0.738014 7.664569 1.219563
-0.736734 7.665262 -0.673714
-0.738329 7.695961 1.502812
-0.732802 7.652444 -0.402882
-0.733763 7.662472 1.777113
-0.731027 7.647973 -0.134104
-0.733196 7.684783 2.068482
-0.554445 5.887348 -1.584490
-0.642777 6.850914 -1.588604
-1.996131 21.315357 1.121978
-0.720863 7.697616 -1.502812
-0.741137 7.929018 0.696723
-0.712518 7.637223 -1.214870
-0.824563 8.854904 1.091949
-0.711690 7.657245 -0.944244
-0.710891 7.663165 1.218938
-0.709652 7.649808 -0.672145
-0.713345 7.704232 1.503957
-0.707056 7.650854 -0.402673
-0.707371 7.668867 1.778013
-0.704145 7.648486 -0.134069
-0.706718 7.691142 2.069517
-0.533890 5.889248 -1.584490
-0.618510 6.849234 -1.587705
-1.997365 22.161638 1.166150
-0.693987 7.700086 -1.502812
-0.713814 7.935526 0.697072
-0.684973 7.629826 -1.213306
-0.792584 8.845866 1.090487
-0.697158 7.796110 -0.961062
-0.684139 7.665599 1.218938
-0.683832 7.662162 -0.673017
-0.685226 7.692986 1.501285
-0.680700 7.657254 -0.402882
-0.680423 7.669348 1.777563
-0.677969 7.656873 -0.134174
-0.678168 7.674319 2.064341
-0.513330 5.891076 -1.584490
-0.593248 6.835820 -1.584105
-1.996861 23.055931 1.212834
-0.667106 7.702461 -1.502812
-0.687137 7.949880 0.698117
-0.658334 7.632171 -1.213306
-0.668919 7.786630 -0.959599
-0.657544 7.669909 1.219250
-0.659293 7.690308 -0.675283
-0.658705 7.699243 1.502048
-0.652946 7.647643 -0.402254
-0.653318 7.667793 1.776663
-0.651748 7.665170 -0.134279
-0.652027 7.684339 2.066411
-0.492443 5.888981 -1.583455
-0.568414 6.826197 -1.581406
-2.021892 24.332634 1.279614
-0.640867 7.712569 -1.504338
-0.660372 7.964143 0.699163
-0.631364 7.630485 -1.212680
-0.655180 7.935204 0.977636
-0.643363 7.808701 -0.962037
-0.630930 7.674126 1.219563
-0.629997 7.662777 -0.672668
-0.631824 7.701496 1.502048
-0.626245 7.649876 -0.402254
-0.626074 7.664200 1.775314
-0.624985 7.667399 -0.134279
-0.625041 7.684643 2.065894
-0.472193 5.894516 -1.584490
-0.545046 6.833967 -1.582756
-1.949465 24.496830 1.287883
-0.612697 7.699102 -1.501285
-0.632250 7.962427 0.698815
-0.604879 7.634612 -1.212993
-0.626543 7.925568 0.976174
-0.614230 7.787151 -0.959112
-0.602897 7.660528 1.217060
-0.601285 7.657089 -0.671971
-0.604942 7.703654 1.502048
-0.599539 7.652015 -0.402254
-0.599164 7.664396 1.774864
-0.597130 7.655578 -0.134034
-0.598664 7.692556 2.067447
-0.449256 5.878870 -1.579831
-0.520893 6.831943 -1.581856
-1.863936 24.503485 1.287883
-0.583874 7.693466 -1.499759
-1.402135 18.518055 1.624757
-0.577490 7.644656 -1.214244
-0.599021 7.929686 0.976417
-0.587788 7.799146 -0.960331
-0.576154 7.662585 1.217060
-0.573806 7.649208 -0.671099
-0.576843 7.707778 1.502430
-0.571789 7.658145 -0.402464
-0.571359 7.670427 1.775764
-0.570405 7.657616 -0.134034
-0.570517 7.677260 2.062788
-0.428737 5.880403 -1.579831
-0.495706 6.831861 -1.581406
-1.774264 24.512142 1.287988
-0.557871 7.707205 -1.502048
-1.340351 18.562582 1.628244
-0.549948 7.634804 -1.212367
-0.570667 7.941729 0.977636
-0.555368 7.747787 -0.953750
-0.548487 7.670557 1.217999
-0.545626 7.649272 -0.670925
-0.549241 7.699953 1.500522
-0.545051 7.660094 -0.402464
-0.545131 7.680151 1.777563
-0.542195 7.657660 -0.134000
-0.543057 7.688934 2.065376
-0.407310 5.883862 -1.580349
-0.471052 6.821885 -1.578707
-1.688271 24.512211 1.287674
-0.529613 7.709198 -1.502048
-1.269314 18.523640 1.624409
-0.521559 7.630856 -1.211429
-0.542263 7.933770 0.976417
-0.530478 7.781367 -0.957649
-0.521710 7.672424 1.217999
-0.518650 7.647155 -0.670576
-0.521143 7.703873 1.500904
-0.515898 7.646099 -0.401626
-0.516457 7.674319 1.775764
-0.515460 7.659506 -0.134000
-0.516730 7.698493 2.067447
-0.387165 5.875541 -1.577761
-0.446469 6.811821 -1.576007
-1.606055 24.503725 1.286941
-0.504051 7.710913 -1.502048
-1.210736 18.571486 1.628244
-0.496890 7.642400 -1.212993
-0.514563 7.935615 0.976417
-0.505572 7.796949 -0.959356
-0.496138 7.672141 1.217686
-0.493671 7.654798 -0.671099
-0.495469 7.703599 1.500522
-0.490797 7.651753 -0.401836
-0.491972 7.670070 1.774414
-0.490565 7.669156 -0.134139
-0.490831 7.694381 2.065894
-0.367318 5.871009 -1.576208
-0.424000 6.815209 -1.576457
-1.524546 24.504927 1.286732
-0.477264 7.692946 -1.498232
-1.151107 18.607216 1.631032
-0.471667 7.645977 -1.213306
-0.488738 7.945202 0.977392
-0.479109 7.788676 -0.958137
-0.470087 7.663886 1.216122
-0.468529 7.660370 -0.671448
-0.470041 7.707159 1.500904
-0.465297 7.651346 -0.401731
-0.466650 7.673604 1.774864
-0.463922 7.650781 -0.133790
-0.465077 7.692109 2.064858
-0.346703 5.852910 -1.571032
-0.400823 6.806850 -1.574207
-1.438887 24.508108 1.286627
-0.452209 7.702327 -1.499759
-1.091496 18.646734 1.634170
-0.446077 7.643555 -1.212680
-0.462040 7.940834 0.976661
-0.452492 7.800210 -0.959356
-0.443558 7.669425 1.216747
-0.442547 7.651936 -0.670576
-0.444256 7.704756 1.500140
-0.440037 7.654840 -0.401836
-0.439971 7.677132 1.775314
-0.437557 7.658342 -0.133895
-0.438119 7.691757 2.064341
-0.326269 5.854085 -1.571032
-0.377281 6.812099 -1.575107
-1.353652 24.518963 1.286941
-0.425534 7.707778 -1.500522
-1.028366 18.686239 1.637308
-0.418962 7.637176 -1.211429
-0.434425 7.944382 0.976905
-0.424719 7.791831 -0.958137
-0.417000 7.674871 1.217373
-0.416160 7.659402 -0.671099
-0.417144 7.702339 1.499377
-0.413958 7.668296 -0.402464
-0.412858 7.672783 1.773964
-0.411034 7.663817 -0.133965
-0.410956 7.687453 2.062788
-0.306035 5.859047 -1.572067
-0.352488 6.793914 -1.570608
-1.267741 24.517557 1.286627
-0.398827 7.713139 -1.501285
-0.965187 18.729509 1.640794
-0.392201 7.636619 -1.211116
-0.406080 7.933955 0.975442
-0.397115 7.785336 -0.957162
-0.389908 7.670362 1.216435
-0.387477 7.648937 -0.670053
-0.389657 7.691984 1.497087
-0.386384 7.653737 -0.401626
-0.386270 7.678070 1.774864
-0.384378 7.667202 -0.134000
-0.384506 7.696558 2.064858
-0.285026 5.869777 -1.574655
-0.328584 6.791210 -1.569708
-1.181098 24.499884 1.285476
-0.370556 7.714549 -1.501285
-0.598803 12.511831 1.095896
-0.364113 7.636032 -1.210803
-0.378195 7.931357 0.974955
-0.366072 7.705378 -0.947169
-0.363222 7.673649 1.216747
-0.364249 7.723880 -0.676503
-0.362293 7.711010 1.500522
-0.358141 7.651111 -0.401417
-0.357670 7.669702 1.772614
-0.357800 7.672493 -0.134069
-0.357636 7.697853 2.064858
-0.263840 5.855297 -1.570514
-0.303515 6.788476 -1.568809
-1.095844 24.509844 1.285790
-0.343102 7.704027 -1.498996
-0.556005 12.533751 1.097639
-0.337807 7.645150 -1.212054
-0.349299 7.936657 0.975442
-0.343975 7.815683 -0.960574
-0.336003 7.665003 1.215183
-0.334680 7.665389 -0.671273
-0.335291 7.710266 1.500140
-0.331606 7.656305 -0.401626
-0.332151 7.668898 1.772164
-0.330500 7.661707 -0.133860
-0.331342 7.712566 2.068482
-0.244020 5.846488 -1.567926
-0.280839 6.785550 -1.567909
-1.014636 24.515341 1.285895
-0.317555 7.705122 -1.498996
-0.514598 12.539506 1.097988
-0.312450 7.646228 -1.212054
-0.323141 7.941739 0.975930
-0.317573 7.804880 -0.959112
-0.310661 7.668048 1.215496
-0.308694 7.652522 -0.670053
-0.309880 7.715259 1.500904
-0.306372 7.661354 -0.401836
-0.306872 7.673851 1.773064
-0.304930 7.658765 -0.133790
-0.305004 7.694318 2.063306
-0.224407 5.841475 -1.566373
-0.412337 10.782476 0.188346
-0.258115 6.780602 -1.566559
-0.929060 24.518734 1.285895
-0.291851 7.702210 -1.498232
-0.499448 13.241967 1.159346
-0.286946 7.643275 -1.211429
-0.296579 7.936816 0.975199
-0.290546 7.811893 -0.959843
-0.283967 7.671061 1.215809
-0.283023 7.645539 -0.669356
-0.283713 7.700549 1.497851
-0.280966 7.662328 -0.401836
-0.280085 7.674876 1.773064
-0.278413 7.665778 -0.133895
-0.278282 7.699197 2.064341
-0.204216 5.848014 -1.567926
-0.375185 10.797839 0.188591
-0.234042 6.769776 -1.563860
-0.632682 18.393864 0.964552
-0.265096 7.707105 -1.498996
-0.260132 7.640281 -1.210803
-0.268736 7.933834 0.974711
-0.262204 7.781116 -0.955943
-0.257455 7.679902 1.217060
-0.256668 7.656437 -0.670228
-0.256830 7.701493 1.497851
-0.253686 7.647293 -0.400998
-0.253359 7.677755 1.773514
-0.251454 7.660707 -0.133790
-0.251529 7.703983 2.065376
-0.183745 5.846760 -1.567408
-1.287178 41.187618 0.719283
-0.210044 6.758866 -1.561160
-0.569965 18.443872 0.967064
-0.238561 7.719758 -1.501285
-0.233519 7.643117 -1.211116
-0.241106 7.936708 0.974955
-0.235822 7.807778 -0.959112
-0.230584 7.678779 1.216747
-0.229939 7.657287 -0.670228
-0.229826 7.698417 1.497087
-0.226933 7.646136 -0.400893
-0.226440 7.674697 1.772614
-0.224651 7.659540 -0.133755
-0.224806 7.710608 2.066929
-0.163225 5.843504 -1.566373
-1.140946 41.103905 0.717748
-0.186720 6.769297 -1.563410
-0.211234 7.706806 -1.498614
-0.514899 18.906744 1.654739
-0.206839 7.643886 -1.211116
-0.213398 7.937501 0.974955
-0.207981 7.786726 -0.956431
-0.203309 7.661765 1.213932
-0.204109 7.691901 -0.673191
-0.203267 7.710948 1.499377
-0.200501 7.656864 -0.401417
-0.199498 7.669596 1.771265
-0.197918 7.660277 -0.133755
-0.197887 7.711345 2.066929
-0.142494 5.830519 -1.562749
-0.996324 41.059662 0.716910
-0.162854 6.760168 -1.561160
-0.586059 24.505354 1.284639
-0.184282 7.705534 -1.498232
-0.450615 18.980131 1.661014
-0.180201 7.646536 -1.211429
-0.185595 7.934229 0.974467
-0.180989 7.795342 -0.957406
-0.176743 7.670328 1.215183
-0.176292 7.650737 -0.669530
-0.176168 7.703760 1.497851
-0.173868 7.661511 -0.401626
-0.172723 7.670246 1.771265
-0.171042 7.654924 -0.133651
-0.170674 7.698469 2.063306
-0.122143 5.830981 -1.562749
-0.851819 41.006908 0.715933
-0.139253 6.760695 -1.561160
-0.500806 24.521229 1.285371
-0.157305 7.702205 -1.497469
-0.384515 18.989555 1.661711
-0.153347 7.639219 -1.210177
-0.157939 7.936813 0.974711
-0.153931 7.803865 -0.958381
-0.149966 7.670898 1.215183
-0.151724 7.760867 -0.679118
-0.149012 7.690588 1.495179
-0.147160 7.664068 -0.401731
-0.146020 7.674698 1.772164
-0.144435 7.661472 -0.133755
-0.143798 7.699018 2.063306
-0.101786 5.831372 -1.562749
-0.708958 41.025627 0.716212
-0.115425 6.747500 -1.558011
-0.419459 24.520756 1.285267
-0.130616 7.714484 -1.499759
-0.318823 19.026642 1.664849
-0.126686 7.639708 -1.210177
-0.130101 7.929377 0.973736
-0.125624 7.738856 -0.950337
-0.124593 7.675303 1.215809
-0.122975 7.657758 -0.670053
-0.122226 7.694986 1.495943
-0.120247 7.654550 -0.401207
-0.119265 7.677110 1.772614
-0.119122 7.667907 -0.133860
-0.118443 7.711042 2.066411
-0.081432 5.831692 -1.562749
-0.573008 41.035751 0.716351
-0.093020 6.745897 -1.557561
-0.333856 24.522070 1.285267
-0.103741 7.718819 -1.500522
-0.253044 19.075453 1.669032
-0.101349 7.640085 -1.210177
-0.103989 7.943659 0.975442
-0.099321 7.689606 -0.944244
-0.097852 7.679642 1.216435
-0.096267 7.660133 -0.670228
-0.096684 7.693387 1.495561
-0.094985 7.664892 -0.401731
-0.093780 7.675515 1.772164
-0.092281 7.662277 -0.133755
-0.091477 7.707545 2.065376
-0.062012 5.824203 -1.560679
-0.430275 41.085487 0.717189
-0.069510 6.750079 -1.558461
-0.248140 24.511105 1.284639
-0.077986 7.703416 -1.497469
-0.190107 19.108063 1.671821
-0.074755 7.648294 -1.211429
-0.076129 7.930079 0.973736
-0.073435 7.791142 -0.956674
-0.070896 7.664134 1.213932
-0.070936 7.668379 -0.670925
-0.069741 7.683861 1.493653
-0.068216 7.663179 -0.401626
-0.066951 7.671898 1.771265
-0.065467 7.654554 -0.133616
-0.064574 7.707818 2.065376
-0.041569 5.808929 -1.556538
-0.045922 6.746382 -1.557561
-0.162599 24.515816 1.284848
-0.051094 7.703641 -1.497469
-0.123607 19.140488 1.674610
-0.048058 7.648509 -1.211429
-0.048445 7.930296 0.973736
-0.045895 7.733784 -0.949606
-0.044168 7.668286 1.214557
-0.044077 7.652641 -0.669530
-0.042994 7.697801 1.496324
-0.041464 7.663371 -0.401626
-0.040203 7.677931 1.772614
-0.038746 7.654736 -0.133616
-0.037651 7.704133 2.064341
-0.021290 5.809039 -1.556538
-0.022374 6.746501 -1.557561
-0.077028 24.520227 1.285057
-0.024213 7.707699 -1.498232
-0.056928 19.184635 1.678445
-0.021334 7.638752 -1.209864
-0.020771 7.934387 0.974224
-0.018948 7.753748 -0.952043
-0.017411 7.674319 1.215496
-0.017344 7.644779 -0.668833
-0.016117 7.695940 1.495943
-0.014712 7.661472 -0.401522
-0.013407 7.681922 1.773514
-0.012045 7.668823 -0.133860
-0.010744 7.692626 2.061235
-0.001013 5.807146 -1.556020
0.001172 6.730949 -1.553962
0.008561 24.526340 1.285371
0.002693 7.715590 -1.499759
0.010061 19.216595 1.681234
0.005334 7.640756 -1.210177
0.006917 7.926471 0.973249
0.008153 7.785528 -0.955943
0.009378 7.676309 1.215809
0.009352 7.654755 -0.669705
0.010737 7.690061 1.494798
0.012009 7.645498 -0.400684
0.013407 7.681922 1.773514
0.014718 7.666818 -0.133825
0.016135 7.704207 2.064341
0.019250 5.805182 -1.555503
0.024604 6.713365 -1.549913
0.094165 24.522167 1.285162
0.029643 7.719459 -1.500522
0.077264 19.248320 1.684023
0.032004 7.640691 -1.210177
0.034596 7.928383 0.973492
0.035373 7.795377 -0.957162
0.036199 7.682155 1.216747
0.036952 7.841958 -0.686090
0.037563 7.686049 1.494035
0.040159 7.670136 1.770815
0.041515 7.672719 -0.133930
0.043073 7.711831 2.066411
0.039565 5.812807 -1.557573
0.048026 6.711289 -1.549463
0.179702 24.515696 1.284848
0.056497 7.707530 -1.498232
0.144846 19.299734 1.688555
0.058676 7.640532 -1.210177
0.062344 7.938139 0.974711
0.062378 7.769402 -0.953993
0.062936 7.672106 1.215183
0.064518 7.701577 1.497087
0.066985 7.675795 1.772164
0.068203 7.662529 -0.133755
0.069973 7.709702 2.065894
0.059777 5.804907 -1.555503
0.071493 6.714978 -1.550363
0.265262 24.512922 1.284743
0.083403 7.707286 -1.498232
0.212570 19.330986 1.691344
0.085433 7.648182 -1.211429
0.089987 7.931919 0.973980
0.088494 7.681798 -0.943269
0.089784 7.677764 1.216122
0.091357 7.697379 1.496324
0.093848 7.681361 1.773514
0.094878 7.656246 -0.133651
0.096789 7.701684 2.063823
0.079748 5.783414 -1.549809
0.094934 6.714687 -1.550363
0.351090 24.529823 1.285685
0.110420 7.714800 -1.499759
0.280495 19.362003 1.694133
0.112016 7.639936 -1.210177
0.117676 7.931557 0.973980
0.116733 7.776716 -0.954968
0.116676 7.683330 1.217060
0.118076 7.687197 1.494416
0.119001 7.660562 -0.401522
0.120663 7.680986 1.773514
0.121795 7.667865 -0.133860
0.123729 7.705163 2.064858
0.100068 5.790827 -1.551879
0.118230 6.706522 -1.548563
0.436672 24.526449 1.285581
0.137487 7.722219 -1.501285
0.348586 19.388794 1.696574
0.138722 7.641474 -1.210490
0.145469 7.937051 0.974711
0.144357 7.802063 -0.958137
0.143534 7.684851 1.217373
0.142724 7.641474 -0.668659
0.144944 7.688702 1.494798
0.145591 7.652112 -0.401103
0.147513 7.682466 1.773964
0.148520 7.665394 -0.133825
0.150626 7.704684 2.064858
0.120122 5.782716 -1.549809
0.141312 6.690482 -1.544964
0.521907 24.506805 1.284639
0.164277 7.713841 -1.499759
0.417456 19.443232 1.701454
0.165432 7.642918 -1.210803
0.173046 7.930542 0.973980
0.171676 7.805480 -0.958624
0.170440 7.688253 1.217999
0.169480 7.644913 -0.669007
0.171960 7.696000 1.496324
0.172348 7.653554 -0.401207
0.174147 7.674112 1.772164
0.175507 7.674825 -0.134000
0.177611 7.707974 2.065894
0.140350 5.784193 -1.550326
0.164475 6.682155 -1.543164
0.558542 22.691978 1.189596
0.191002 7.705370 -1.498232
0.484135 19.393854 1.697271
0.192211 7.646244 -1.211429
0.201078 7.943780 0.975686
0.198519 7.788958 -0.956674
0.195786 7.681721 1.217060
0.196269 7.648258 -0.669356
0.198720 7.691427 1.495561
0.199113 7.654902 -0.401312
0.200884 7.671509 1.771715
0.200693 7.664205 -0.133825
0.203271 7.711205 2.066929
0.160273 5.774013 -1.547738
0.186635 6.681573 -1.543164
0.591842 21.056776 1.103975
0.218233 7.716431 -1.500522
0.527465 18.535666 1.622317
0.217736 7.651488 -1.212367
0.227474 7.945054 0.975930
0.224117 7.780320 -0.955700
0.222315 7.671118 1.215496
0.222731 7.639560 -0.668659
0.224452 7.698576 1.497087
0.224553 7.656197 -0.401417
0.226498 7.676644 1.773064
0.227503 7.665457 -0.133860
0.229897 7.700794 2.064341
0.179421 5.773449 -1.547738
0.209955 6.680881 -1.543164
0.614870 19.565477 1.025890
0.243761 7.713703 -1.500140
0.552350 17.382793 1.521565
0.244253 7.644758 -1.211429
0.255336 7.948179 0.976417
0.250058 7.741793 -0.951068
0.248260 7.686133 1.217999
0.248260 7.644753 -0.669182
0.251005 7.687934 1.495179
0.251541 7.663350 -0.401836
0.253420 7.679702 1.773964
0.252725 7.658665 -0.133755
0.255370 7.698058 2.063823
0.199438 5.768926 -1.546703
0.231566 6.664567 -1.539565
0.677304 19.395544 1.017097
0.271028 7.722615 -1.502048
0.576502 16.345362 1.430923
0.269462 7.639957 -1.210803
0.281339 7.937371 0.975199
0.279053 7.834161 -0.962524
0.275370 7.693117 1.219250
0.275156 7.649814 -0.669705
0.276073 7.675288 1.492890
0.276522 7.650498 -0.401207
0.278954 7.680768 1.774414
0.279748 7.665730 -0.133895
0.282384 7.700981 2.064858
0.218640 5.770164 -1.547220
0.254532 6.655929 -1.537765
0.943573 24.562149 1.288197
0.296332 7.713827 -1.500522
0.597362 15.479307 1.355272
0.296207 7.640944 -1.211116
0.309505 7.948241 0.976661
0.305465 7.809337 -0.959599
0.302379 7.696056 1.219876
0.301935 7.650797 -0.669879
0.303326 7.686048 1.495179
0.303224 7.649487 -0.401207
0.305610 7.675852 1.773514
0.306906 7.674696 -0.134069
0.309572 7.707669 2.066929
0.239548 5.763533 -1.545667
0.277925 6.658894 -1.538665
1.027806 24.522789 1.286313
0.324605 7.712688 -1.500522
0.620943 14.692712 1.286593
0.324711 7.651649 -1.212993
0.337334 7.949096 0.976905
0.331707 7.784423 -0.956674
0.328902 7.687059 1.218625
0.328555 7.647707 -0.669705
0.332004 7.696653 1.497469
0.331862 7.662292 -0.401940
0.333825 7.676627 1.773964
0.333171 7.661592 -0.133860
0.336305 7.702682 2.065894
0.259316 5.754942 -1.543597
0.301801 6.646151 -1.535966
1.113950 24.531023 1.286941
0.351345 7.707586 -1.499759
0.639078 13.965983 1.223144
0.351239 7.646523 -1.212367
0.367288 7.965653 0.979098
0.361523 7.810916 -0.960087
0.355826 7.687838 1.218938
0.355528 7.652484 -0.670228
0.358044 7.677797 1.494035
0.360804 7.679309 1.774864
0.360103 7.664377 -0.133930
0.363006 7.697602 2.064858
0.278654 5.738565 -1.539456
0.323742 6.643166 -1.535516
1.199373 24.522993 1.286732
0.378827 7.718078 -1.502048
0.656651 13.330854 1.167713
0.376593 7.645316 -1.212367
0.394487 7.980252 0.981048
0.387323 7.807693 -0.959843
0.382756 7.688522 1.219250
0.383602 7.678528 1.494416
0.383410 7.647887 -0.401312
0.386368 7.680016 1.775314
0.387054 7.667068 -0.134000
0.390071 7.700147 2.065894
0.297884 5.741468 -1.540491
2.611538 50.166420 0.876844
0.346420 6.632266 -1.533266
1.286227 24.542591 1.287988
0.404729 7.722661 -1.503193
0.689762 13.117702 1.149236
0.403068 7.640009 -1.211741
0.421294 7.959004 0.978611
0.414366 7.802328 -0.959356
0.410116 7.697002 1.220815
0.423825 7.954290 -0.696897
0.410405 7.677143 1.494416
0.409998 7.644507 -0.401207
0.413482 7.684458 1.776663
0.414032 7.669663 -0.134069
0.417158 7.702596 2.066929
0.317600 5.734607 -1.538938
2.783321 50.097103 0.875797
0.369137 6.623233 -1.531467
1.371315 24.527983 1.287465
0.431240 7.713361 -1.501667
0.736889 13.139086 1.151327
0.430180 7.646445 -1.212993
0.645472 11.437769 1.406616
0.441485 7.798852 -0.959112
0.436759 7.691579 1.220189
0.434873 7.658363 -0.671099
0.437307 7.677624 1.494798
0.437704 7.660976 -0.402150
0.439748 7.673241 1.774414
0.441263 7.676157 -0.134209
0.443819 7.697235 2.065894
0.338185 5.743106 -1.541526
2.964084 50.186890 0.877542
0.391791 6.614123 -1.529667
1.457406 24.531021 1.287883
0.458280 7.713768 -1.502048
0.784174 13.160299 1.153419
0.456867 7.644897 -1.212993
0.658318 10.983657 1.351044
0.468350 7.791319 -0.958381
0.463247 7.684093 1.219250
0.462201 7.666742 -0.671971
0.464462 7.681929 1.495943
0.464687 7.663388 -0.402359
0.467002 7.679440 1.776214
0.467685 7.668582 -0.134104
0.471158 7.703352 2.067964
0.356667 5.716825 -1.534797
0.414512 6.606880 -1.528317
1.543409 24.531763 1.288197
0.485329 7.714081 -1.502430
1.226769 19.444918 1.704592
0.483801 7.647198 -1.213619
0.670264 10.565258 1.299858
0.496547 7.805486 -0.960331
0.490446 7.688342 1.220189
0.488581 7.659117 -0.671448
0.491527 7.684180 1.496706
0.492452 7.677665 -0.403196
0.494182 7.683597 1.777563
0.494323 7.664907 -0.134069
0.497791 7.697805 2.066929
0.376874 5.719401 -1.535832
0.437960 6.611226 -1.529667
1.629026 24.526226 1.288197
0.512122 7.710381 -1.502048
1.296496 19.468349 1.707032
0.510099 7.639549 -1.212680
0.682872 10.200394 1.255254
0.523260 7.795783 -0.959356
0.518343 7.702351 1.222692
0.515048 7.653389 -0.671099
0.517948 7.676540 1.495561
0.518981 7.671914 -0.402987
0.521266 7.685713 1.778463
0.521074 7.663135 -0.134069
0.524397 7.692166 2.065894
0.396704 5.716123 -1.535315
0.459810 6.592162 -1.525618
1.711013 24.468586 1.285476
0.539446 7.714421 -1.503193
1.393978 19.885056 1.743986
0.537173 7.643634 -1.213619
0.693644 9.845474 1.211869
0.550891 7.799849 -0.960087
0.545779 7.708376 1.223943
0.542881 7.667444 -0.672494
0.545299 7.682519 1.497087
0.545760 7.670055 -0.402987
0.548501 7.689679 1.779813
0.548964 7.677226 -0.134349
0.552075 7.701850 2.069000
0.416372 5.710850 -1.534279
0.482251 6.582742 -1.523818
1.792313 24.406696 1.282545
0.566944 7.720323 -1.504720
1.476258 20.054928 1.759326
0.564435 7.649593 -1.214870
0.725808 9.813299 1.208213
0.576058 7.770164 -0.956674
0.572392 7.702484 1.223318
0.568906 7.655568 -0.671622
0.571674 7.674695 1.495943
0.571636 7.656154 -0.402359
0.574470 7.676058 1.777113
0.575761 7.675262 -0.134349
0.578955 7.699876 2.069000
0.436303 5.709362 -1.534279
3.208475 41.888908 0.733315
0.504926 6.577132 -1.522919
1.872895 24.340549 1.279405
0.593286 7.710468 -1.503193
1.549017 20.085407 1.762463
0.591436 7.651515 -1.215496
0.760210 9.812684 1.208457
0.605024 7.791855 -0.959599
0.598507 7.690593 1.221753
0.596242 7.661480 -0.672319
0.599989 7.692226 1.499759
0.419817 5.370223 -0.282300
0.601716 7.679833 1.778463
0.601921 7.665233 -0.134209
0.606134 7.701660 2.070035
0.454692 5.688547 -1.529103
3.354666 41.877453 0.733315
0.528195 6.579215 -1.523818
1.953608 24.334204 1.279405
0.620041 7.706393 -1.502812
1.623919 20.139458 1.767693
0.618302 7.651373 -1.215809
0.796544 9.835693 1.211625
0.631018 7.791784 -0.959843
0.625288 7.704317 1.224256
0.622984 7.659352 -0.672319
0.626356 7.684215 1.498614
0.435469 5.330903 -0.280311
0.628134 7.689449 1.781162
0.433016 5.289497 -0.092637
0.630721 7.688056 2.066929
0.473873 5.690858 -1.530138
0.549196 6.567718 -1.521569
1.994011 23.845938 1.254074
0.645103 7.698424 -1.501667
1.691024 20.137932 1.768041
0.643177 7.643374 -1.214870
1.264504 14.995767 1.847783
0.658356 7.807452 -0.962037
0.651496 7.710074 1.225508
0.648886 7.663200 -0.672842
0.651338 7.676227 1.497469
0.453821 5.337390 -0.280730
0.654288 7.695092 1.782962
0.452423 5.309950 -0.093021
0.656214 7.685921 2.066929
0.492074 5.681557 -1.528068
3.587383 41.336304 0.724240
0.569961 6.554212 -1.518870
2.006147 23.023046 1.211159
0.670624 7.696244 -1.501667
1.764732 20.211609 1.775014
0.668863 7.645136 -1.215496
1.313521 14.983581 1.846808
0.684735 7.795218 -0.960818
0.679100 7.715624 1.226759
0.676505 7.670813 -0.673714
0.676616 7.672069 1.497087
0.470288 5.321929 -0.279997
0.682522 7.708290 1.786561
0.471485 5.314314 -0.093126
0.684235 7.697053 2.070552
0.513070 5.681639 -1.528585
3.732002 41.327518 0.724310
0.592308 6.546360 -1.517520
2.018705 22.268002 1.171802
0.698122 7.685912 -1.500140
1.840962 20.228815 1.777106
0.697595 7.650502 -1.216747
1.373751 15.065886 1.857533
0.713930 7.814526 -0.963499
0.705847 7.711240 1.226446
0.702548 7.660468 -0.673017
0.705452 7.677357 1.498614
0.487776 5.298293 -0.278846
0.710052 7.697975 1.784762
0.486909 5.278784 -0.092533
0.711278 7.696542 2.071070
0.532898 5.679814 -1.528585
3.883461 41.313560 0.724310
0.616300 6.544144 -1.517520
2.038392 21.604271 1.137260
0.724204 7.675611 -1.498614
1.914568 20.254002 1.779895
0.724857 7.653920 -1.217686
1.429333 15.064704 1.858020
0.742941 7.815809 -0.963987
0.734107 7.708601 1.226446
0.735728 7.711393 -0.677723
0.732800 7.680712 1.499759
0.511210 5.348250 -0.281567
0.736549 7.691569 1.783862
0.503579 5.249097 -0.092044
0.739851 7.697730 2.072105
0.552403 5.664363 -1.524962
3.885970 39.846867 0.698829
0.638190 6.532257 -1.515270
2.054265 20.988770 1.105231
0.751763 7.667044 -1.497469
1.954895 19.901833 1.749564
0.754257 7.664973 -1.219876
1.481525 15.055671 1.857533
0.771000 7.821070 -0.964962
0.761980 7.715820 1.228011
0.757935 7.661192 -0.673540
0.760565 7.674066 1.498996
0.762468 7.679651 -0.404452
0.765119 7.692696 1.784762
0.520316 5.231388 -0.091765
0.767293 7.700866 2.073658
0.569227 5.652989 -1.522374
4.008024 39.734283 0.697084
0.660239 6.533982 -1.516170
2.084840 20.596342 1.084924
0.774460 7.650971 -1.494798
1.963145 19.360390 1.702500
0.776735 7.646844 -1.217373
1.532653 15.062525 1.858995
0.799345 7.842169 -0.967886
0.788965 7.727007 1.230201
0.781594 7.654810 -0.673191
0.784868 7.673592 1.499377
0.553302 5.400279 -0.284498
0.790475 7.701887 1.787461
0.538276 5.235601 -0.091869
0.791835 7.688672 2.071070
0.589753 5.658654 -1.524444
0.557919 5.344138 0.093789
0.681220 6.514193 -1.512121
2.553716 24.378975 1.284639
0.800952 7.646268 -1.494416
1.978731 18.858044 1.658922
0.804664 7.655873 -1.219250
1.588121 15.084723 1.862407
0.829627 7.866969 -0.971299
0.815935 7.724206 1.230201
0.812065 7.674710 1.500140
0.568359 5.362565 -0.282614
0.817768 7.702955 1.788361
0.557185 5.239655 -0.091974
0.819485 7.693545 2.073141
0.609504 5.656561 -1.524444
0.581078 5.383909 0.094522
0.582055 5.384179 -1.250278
2.635795 24.342112 1.283173
0.584801 5.400756 -1.055937
1.992132 18.367714 1.616390
0.834155 7.678547 -1.223318
1.644207 15.110662 1.866307
0.838589 7.694312 -0.950337
0.842891 7.721311 1.230201
0.579451 5.308070 -0.467155
0.839911 7.681587 1.502048
0.582075 5.314884 -0.280207
0.844225 7.696180 1.787461
0.574594 5.229728 -0.091835
0.847817 7.704079 2.076764
0.630101 5.662078 -1.526515
0.600307 5.385822 0.094592
0.602145 5.393734 -1.252977
2.721643 24.340700 1.283592
0.599506 5.361611 -1.048686
2.003891 17.893366 1.575253
0.595182 5.306167 -0.845685
1.699163 15.124556 1.868745
0.614398 5.460278 -0.674669
0.869398 7.714396 1.229575
0.614712 5.454504 -0.480228
0.867382 7.684462 1.503193
0.593443 5.249312 -0.276857
0.871525 7.697059 1.788361
0.589918 5.201860 -0.091381
0.874702 7.701073 2.076764
0.622535 5.421858 -1.462328
0.612480 5.326083 0.093580
0.620524 5.387728 -1.252078
2.804408 24.349398 1.284534
0.613942 5.322429 -1.041435
2.013295 17.427080 1.534813
0.610296 5.274623 -0.840992
1.753315 15.130365 1.870207
0.630672 5.442436 -0.672719
0.896340 7.723244 1.231452
0.609826 5.246502 -0.462100
0.893291 7.673587 1.501667
0.609218 5.225387 -0.275706
0.897720 7.699934 1.789711
0.606702 5.195903 -0.091311
0.899785 7.694293 2.075729
0.630761 5.337269 -1.440069
0.624734 5.278348 0.092777
0.637695 5.379836 -1.250728
0.632649 5.337260 0.281672
0.630664 5.312566 -1.039909
2.023566 17.020660 1.499602
0.624747 5.247071 -0.836924
1.807714 15.159947 1.874594
0.648953 5.442286 -0.672963
0.924290 7.739843 1.234581
0.643781 5.382931 -0.474302
0.918968 7.672531 1.502048
0.624165 5.203507 -0.274659
0.923716 7.700784 1.790610
0.624405 5.197833 -0.091381
0.925297 7.691267 2.075729
0.648691 5.337066 -1.440587
0.647066 5.315948 0.093475
0.652704 5.354478 -1.245329
0.639176 5.235891 0.276439
0.648039 5.308496 -1.039528
2.030672 16.610413 1.464042
0.640942 5.235167 -0.835360
1.860873 15.177514 1.877519
0.675203 5.499096 -0.680275
0.952024 7.742452 1.235520
0.667706 5.430204 -0.478659
0.944645 7.671391 1.502430
0.638972 5.181586 -0.273612
0.950832 7.699446 1.791060
0.643035 5.199591 -0.091451
0.952613 7.691824 2.076764
0.667078 5.332851 -1.440069
0.658657 5.258100 0.092498
0.671392 5.352167 -1.245329
0.653218 5.199940 0.274659
0.668769 5.323733 -1.042962
2.040891 16.223677 1.430574
0.658473 5.227017 -0.834422
1.915832 15.186682 1.879469
0.692403 5.480950 -0.678325
0.980534 7.750839 1.237397
0.666154 5.265756 -0.464366
0.972406 7.675837 1.503957
0.658059 5.187250 -0.274031
0.977700 7.696080 1.791060
0.660677 5.193347 -0.091381
0.981652 7.705700 2.081423
0.687660 5.345819 -1.444210
0.673943 5.231969 0.092079
0.691565 5.361387 -1.248029
0.669061 5.179801 0.273717
0.688604 5.331102 -1.044870
2.050488 15.852881 1.398501
0.677221 5.228606 -0.835047
1.966786 15.164153 1.877519
0.717157 5.521808 -0.683687
1.007327 7.745410 1.237084
0.702003 5.397750 -0.476219
1.000714 7.684076 1.506246
0.676164 5.184921 -0.274031
1.005062 7.696486 1.791960
0.677504 5.181096 -0.091206
1.009298 7.707973 2.082976
0.712394 5.389350 -1.456634
0.689317 5.207778 0.091695
0.717956 5.416896 -1.261526
0.688191 5.185353 0.274136
1.001925 7.549267 -1.480296
2.056997 15.478271 1.366079
0.697291 5.239917 -0.837237
1.996375 14.982069 1.855826
0.738791 5.536980 -0.685881
1.035402 7.749680 1.238335
0.699995 5.239255 -0.462448
1.027011 7.676644 1.505483
0.694790 5.186489 -0.274240
1.032956 7.700656 1.793760
0.695587 5.178699 -0.091206
1.034912 7.694829 2.080388
0.757962 5.584004 -1.509950
0.706413 5.197415 0.091555
0.875351 6.431962 -1.498624
0.705474 5.176983 0.273822
1.027470 7.539889 -1.479151
2.067912 15.155144 1.338189
0.716916 5.247236 -0.838802
2.008298 14.679994 1.819266
0.755689 5.516666 -0.683687
1.063523 7.753846 1.239587
0.715130 5.207045 -0.459834
1.054605 7.678848 1.506628
0.713433 5.187989 -0.274450
1.060895 7.704725 1.795559
0.713388 5.174258 -0.091171
1.061764 7.691170 2.080388
0.778961 5.585015 -1.510986
0.725105 5.198878 0.091625
0.897257 6.425007 -1.497724
0.721606 5.160643 0.273089
1.055104 7.536072 -1.479151
2.079185 14.831765 1.310299
0.742732 5.291523 -0.846311
2.018136 14.378020 1.782705
0.775495 5.517927 -0.684175
1.093333 7.769648 1.242715
0.752479 5.340648 -0.471861
1.080272 7.657435 1.503193
0.730489 5.171495 -0.273717
1.090763 7.712363 1.798259
0.733681 5.187576 -0.091451
1.090232 7.698893 2.083493
0.798721 5.584174 -1.511503
0.748123 5.223898 0.092114
0.919419 6.412030 -1.495475
0.740468 5.164023 0.273403
1.078329 7.510967 -1.474954
2.087859 14.524655 1.283804
1.101418 7.652771 -1.224569
2.025517 14.056161 1.743707
0.797296 5.532869 -0.686368
1.119885 7.761874 1.242090
0.766845 5.308410 -0.469247
1.110081 7.674992 1.507391
0.747963 5.164961 -0.273508
1.116334 7.708703 1.798259
0.751786 5.184984 -0.091451
1.117927 7.700777 2.085046
0.816396 5.575760 -1.509950
0.769501 5.249088 0.092602
0.940679 6.408946 -1.495475
0.760200 5.179324 0.274345
1.101520 7.495695 -1.472664
2.092507 14.221976 1.257657
1.129670 7.668620 -1.227698
2.033888 13.790138 1.711533
0.815641 5.530195 -0.686368
1.145906 7.760072 1.242403
0.766962 5.187580 -0.458788
1.136391 7.677094 1.508536
0.766257 5.170355 -0.273926
1.140176 7.693393 1.795559
0.769271 5.184440 -0.091486
1.145163 7.708492 2.088152
0.833450 5.563470 -1.507362
0.789575 5.264307 0.092917
0.962214 6.407718 -1.495924
0.781537 5.198365 0.275497
1.127244 7.497825 -1.473809
2.099330 13.947014 1.233951
1.155092 7.664832 -1.227698
2.041992 13.534033 1.680578
0.832866 5.513574 -0.684662
1.174170 7.763836 1.243654
0.777902 5.143638 -0.455127
1.162429 7.677166 1.509299
0.782801 5.163836 -0.273717
1.168780 7.700926 1.798259
0.787961 5.185678 -0.091555
1.170613 7.694898 2.085564
0.852573 5.558618 -1.506845
0.803088 5.229894 0.092358
0.983982 6.400469 -1.495025
1.151620 7.482203 -1.471519
2.120082 13.758439 1.217914
1.181237 7.656848 -1.227072
2.049835 13.271783 1.648892
0.846041 5.471397 -0.679787
1.203680 7.775308 1.246157
0.813530 5.255090 -0.465237
1.188320 7.667241 1.508154
0.800822 5.161071 -0.273717
1.196849 7.704502 1.800058
0.806366 5.184872 -0.091590
1.198954 7.700309 2.088152
0.871970 5.555608 -1.506845
0.822580 5.234961 0.092498
1.003594 6.379669 -1.490976
3.403293 21.609629 1.146472
1.178340 7.482016 -1.472282
2.170575 13.766700 1.219309
1.208267 7.654628 -1.227385
2.052768 12.990043 1.614769
0.871335 5.507625 -0.684662
1.232051 7.778862 1.247409
0.847766 5.352578 -0.474127
1.215997 7.668864 1.509299
0.818203 5.154301 -0.273508
1.223738 7.700277 1.800058
0.826346 5.193874 -0.091800
1.227040 7.703708 2.090223
0.891971 5.556345 -1.507880
0.849734 5.287339 0.093475
1.025856 6.376127 -1.490976
3.401214 21.116486 1.120932
1.202891 7.468165 -1.470374
2.220523 13.770840 1.220355
1.235607 7.654265 -1.228011
2.062949 12.765274 1.587714
0.889922 5.500631 -0.684175
1.262038 7.792065 1.250224
0.873133 5.390889 -0.477788
1.243390 7.668448 1.510062
0.838752 5.167184 -0.274345
1.250920 7.697883 1.800508
0.845113 5.194906 -0.091869
1.255475 7.708912 2.092811
0.910111 5.545572 -1.505809
1.264021 7.693669 0.136094
1.048105 6.372508 -1.490976
3.401576 20.659101 1.097276
1.227679 7.456172 -1.468848
0.864164 5.237018 -0.840679
1.316459 7.969339 0.991773
0.894866 5.411318 -0.673450
1.288587 7.783714 1.249599
0.899402 5.426964 -0.481274
1.273362 7.683429 1.513879
0.858744 5.176047 -0.274973
1.277466 7.691546 1.800058
0.862586 5.187978 -0.091800
1.283960 7.714012 2.095399
0.914757 5.448844 -1.480445
1.294513 7.710902 0.136478
1.336382 7.943314 0.422142
1.252715 7.438071 -1.466176
1.337877 7.935269 0.704044
0.876450 5.192911 -0.834109
1.344267 7.964696 0.991773
0.919042 5.439478 -0.677350
1.317065 7.786960 1.250850
0.908693 5.366823 -0.476219
1.301513 7.678710 1.513879
0.879715 5.184680 -0.275601
1.307605 7.698339 1.802758
0.884373 5.206622 -0.092184
1.309586 7.701864 2.093328
0.914181 5.331375 -1.449387
1.326824 7.729757 0.136897
0.913159 5.314281 -1.244879
0.904920 5.260828 -1.037619
1.367933 7.944295 0.705264
0.890211 5.164513 -0.830041
2.086001 12.089221 1.506305
0.945729 5.475196 -0.682225
1.346927 7.797887 1.253353
0.915541 5.294904 -0.470118
1.327976 7.672185 1.513497
0.920993 5.315397 -0.282719
1.336802 7.707169 1.805907
0.904936 5.217296 -0.092428
1.337787 7.704859 2.095399
0.926457 5.291995 -1.439552
1.347280 7.695768 0.136373
0.922705 5.265155 -1.234081
4.309300 24.564655 1.307038
0.921242 5.246035 -1.035330
3.286314 18.694847 1.660666
0.905621 5.151806 -0.828477
2.087883 11.865227 1.479250
0.963882 5.472030 -0.682225
1.374826 7.797029 1.253979
0.966222 5.474149 -0.486329
1.353405 7.667740 1.513497
0.941744 5.330015 -0.283661
1.364727 7.716126 1.809057
0.923838 5.218043 -0.092498
1.366020 7.707751 2.097470
0.937211 5.250858 -1.429199
1.375543 7.698892 0.136513
0.939705 5.254229 -1.232282
4.392149 24.558092 1.307457
0.938632 5.242951 -1.035330
3.291360 18.366140 1.632427
0.924644 5.154446 -0.829416
2.094207 11.662482 1.454876
0.986841 5.490123 -0.684906
1.400677 7.792427 1.253979
0.956499 5.316003 -0.472558
1.381905 7.672630 1.515405
0.958573 5.316867 -0.283138
1.390959 7.707479 1.808156
0.946818 5.246437 -0.093056
1.393632 7.714586 2.100575
0.951382 5.224747 -1.422987
1.401781 7.698223 0.136583
0.959918 5.266421 -1.235881
4.448457 24.381495 1.298874
0.949875 5.201016 -1.027697
3.298827 18.044876 1.604886
0.941020 5.147465 -0.828790
2.099642 11.473874 1.432209
0.998603 5.451674 -0.680518
1.430357 7.801092 1.256169
1.004903 5.475283 -0.487026
1.413013 7.698901 1.521511
0.973671 5.299908 -0.282405
1.415804 7.698992 1.807257
0.964765 5.241134 -0.093021
1.420904 7.711574 2.101093
0.968555 5.215697 -1.421434
1.431447 7.700898 0.136722
0.982069 5.278193 -1.239480
4.534493 24.347355 1.297932
0.964069 5.176439 -1.023499
3.305569 17.731617 1.578042
0.960609 5.147864 -0.829416
2.108511 11.288530 1.410028
1.024048 5.477247 -0.684175
1.458946 7.795795 1.256169
0.978564 5.228901 -0.465412
1.438328 7.678233 1.518458
0.991985 5.290415 -0.282091
1.446175 7.705242 1.809956
0.995413 5.298487 -0.094103
1.449157 7.706314 2.101093
0.989991 5.229367 -1.426093
1.457573 7.691925 0.136652
1.010652 5.328343 -1.252078
4.623186 24.351002 1.298979
0.980669 5.165327 -1.021973
3.311645 17.426369 1.551895
0.978938 5.146421 -0.829729
2.114861 11.107545 1.388336
1.026811 5.387839 -0.673450
1.489846 7.810060 1.259298
1.462730 7.667914 -0.682952
1.465860 7.677022 1.519221
1.014196 5.306538 -0.283138
1.475987 7.715460 1.813555
1.015784 5.304800 -0.094278
1.476414 7.703106 2.101611
1.032023 5.349177 -1.459739
1.485175 7.690717 0.136722
1.218232 6.302492 -1.481978
4.706560 24.349264 1.299711
1.000927 5.173438 -1.024263
3.320942 17.148678 1.528189
0.999529 5.156548 -0.831919
2.118450 10.918863 1.365668
1.498217 7.714851 -0.964962
1.515362 7.803137 1.258985
1.490249 7.666672 -0.683301
1.496022 7.689203 1.522656
1.495810 7.680967 -0.410105
1.503657 7.714086 1.814455
1.499360 7.692039 -0.136792
1.504542 7.711440 2.105234
1.078634 5.487710 -1.498562
1.511825 7.691636 0.136827
1.236870 6.286944 -1.479278
4.736725 24.054420 1.284848
1.029991 5.225771 -1.035330
3.330654 16.882868 1.505528
1.023124 5.186151 -0.837237
2.120425 10.738451 1.343975
1.550733 7.846160 -0.982023
1.544893 7.809427 1.260862
1.519322 7.673151 -0.684347
1.522654 7.689978 1.523801
1.521660 7.677925 -0.410209
1.528474 7.705234 1.813555
1.528925 7.700488 -0.137036
1.531446 7.706142 2.105234
1.095312 5.476525 -1.496492
1.540237 7.694155 0.136966
1.260335 6.290232 -1.481078
4.741909 23.666498 1.264960
1.474272 7.351296 -1.457399
3.334860 16.613878 1.482519
1.540430 7.667304 -1.238648
2.126982 10.577239 1.324720
1.580856 7.854321 -0.983729
1.572339 7.812007 1.262113
1.547515 7.681742 -0.685567
1.552982 7.701936 1.527235
1.548849 7.674523 -0.410314
1.556517 7.705583 1.814905
1.553663 7.691455 -0.136966
1.560822 7.719956 2.110410
1.113650 5.468883 -1.495457
1.568535 7.702722 0.137211
1.281189 6.286018 -1.481078
4.752640 23.297548 1.246119
1.499926 7.346105 -1.457399
3.340970 16.348372 1.459859
1.569010 7.677638 -1.241151
2.131413 10.420376 1.305952
1.609682 7.862648 -0.985436
1.600786 7.812276 1.263052
1.572317 7.666535 -0.684695
1.578513 7.696744 1.527235
1.576300 7.679127 -0.410837
1.583628 7.708014 1.816705
1.582111 7.693820 -0.137106
1.586984 7.710676 2.109375
1.130995 5.461377 -1.494421
1.594198 7.691325 0.137106
1.302333 6.277691 -1.480178
4.763278 22.940552 1.227906
1.525071 7.344936 -1.458162
3.342468 16.083611 1.437198
1.595802 7.672113 -1.241151
2.136214 10.261286 1.286940
1.638736 7.864756 -0.986411
1.629258 7.812441 1.263991
1.601513 7.672701 -0.685741
1.605372 7.691187 1.527235
1.606770 7.691174 -0.411779
1.612122 7.710070 1.818504
1.611827 7.701952 -0.137350
1.613096 7.701308 2.108340
1.150208 5.453414 -1.493386
1.621859 7.689627 0.137176
1.321420 6.259760 -1.477029
4.777274 22.611124 1.211159
1.550359 7.331614 -1.456636
3.351886 15.837345 1.416281
1.625547 7.673944 -1.242403
2.149397 10.146955 1.273535
1.667824 7.866755 -0.987386
1.658567 7.816370 1.265555
1.629940 7.674860 -0.686439
1.634365 7.689092 1.527999
1.634116 7.681326 -0.411570
1.643615 7.719357 1.822104
1.640783 7.706058 -0.137525
1.643188 7.710747 2.112481
1.168425 5.445588 -1.492351
1.652553 7.695361 0.137385
1.343537 6.251064 -1.476129
4.839391 22.516201 1.206972
1.573875 7.316561 -1.454728
3.358929 15.601556 1.396235
1.654823 7.679808 -1.244280
2.189082 10.150654 1.274997
1.695811 7.856709 -0.986898
1.690011 7.829841 1.268684
1.658826 7.678861 -0.687310
1.662023 7.687178 1.528762
1.661765 7.679479 -0.411779
1.667665 7.700240 1.818954
1.669367 7.708101 -0.137665
1.671729 7.712516 2.114552
1.187428 5.441476 -1.492351
1.678488 7.691793 0.137420
1.363426 6.242766 -1.475229
5.324832 24.360609 1.306829
1.598568 7.307187 -1.453965
3.368620 15.385377 1.377932
1.682814 7.685857 -1.246157
2.222308 10.141397 1.274753
1.720152 7.843286 -0.985923
1.716907 7.821965 1.268371
1.688184 7.684700 -0.688356
1.690035 7.693129 1.531051
1.689794 7.685631 -0.412407
1.694449 7.700377 1.820304
1.696262 7.702227 -0.137665
1.698642 7.706633 2.114552
1.202123 5.422420 -1.488210
1.707924 7.697600 0.137630
1.384362 6.234165 -1.474329
5.413741 24.359419 1.307771
1.619811 7.288429 -1.451293
3.367715 15.140738 1.357015
1.711348 7.687649 -1.247409
3.294167 14.785725 1.859970
1.750978 7.852733 -0.987873
1.745059 7.819781 1.268997
1.714090 7.681005 -0.688530
1.720305 7.702511 1.534104
1.717921 7.685533 -0.412721
1.723865 7.705827 1.823003
1.723139 7.696258 -0.137665
1.726380 7.704427 2.115587
1.220615 5.416306 -1.487692
1.732586 7.681839 0.137455
1.406975 6.233096 -1.475229
5.503122 24.359859 1.308818
1.644373 7.278901 -1.450530
3.374847 14.926784 1.338886
1.739046 7.685481 -1.248034
3.307604 14.605699 1.838765
1.781010 7.858190 -0.989335
1.774969 7.825200 1.270874
1.743538 7.686632 -0.689576
1.745445 7.688801 1.532578
1.746064 7.685332 -0.413035
1.752916 7.709263 1.825253
1.751770 7.697996 -0.137804
1.753261 7.698354 2.115587
1.241240 5.419545 -1.489762
1.761626 7.685488 0.137630
1.425237 6.212952 -1.471630
5.595278 24.371645 1.310493
1.670651 7.276944 -1.451293
3.378750 14.705197 1.320061
1.765862 7.679364 -1.248034
3.313161 14.396743 1.813903
1.811104 7.863531 -0.990798
1.808927 7.847830 1.275567
1.771699 7.686324 -0.690099
1.774474 7.692228 1.534486
1.775128 7.688920 -0.413559
1.782885 7.716389 1.828402
1.779076 7.693783 -0.137839
1.784480 7.711007 2.120763
1.258400 5.407652 -1.487692
1.791159 7.690979 0.137839
1.444263 6.196551 -1.468930
5.681684 24.357801 1.310807
1.696936 7.274891 -1.452057
3.388380 14.514816 1.304024
1.797153 7.692389 -1.251163
3.318204 14.191793 1.789530
1.837632 7.853297 -0.990310
1.836312 7.841467 1.275567
1.800793 7.689792 -0.690971
1.804900 7.701278 1.537539
1.801496 7.680734 -0.413454
1.809366 7.708220 1.827952
1.808667 7.699206 -0.138049
1.812265 7.708493 2.121799
1.275935 5.397587 -1.486139
1.821219 7.698301 0.138083
1.467233 6.197161 -1.470280
5.767495 24.360203 1.311958
1.716434 7.244090 -1.447096
3.400414 14.340054 1.289382
1.826732 7.697600 -1.253040
3.326437 14.006301 1.767593
1.864584 7.851021 -0.990798
1.860476 7.827649 1.274315
1.827165 7.681520 -0.690796
1.833134 7.700660 1.538684
1.831537 7.687998 -0.414187
1.836722 7.709762 1.829752
1.833264 7.689275 -0.137979
1.841406 7.717474 2.125940
1.292023 5.385813 -1.484068
1.848140 7.698052 0.138188
1.486405 6.186578 -1.468930
5.853827 24.364250 1.313214
1.739987 7.236449 -1.446714
3.429308 14.251214 1.282410
1.856871 7.710706 -1.256169
3.332399 13.827298 1.746388
1.891538 7.848656 -0.991285
1.890131 7.836798 1.276818
1.856366 7.690914 -0.692191
1.859119 7.696448 1.539065
1.859370 7.691588 -0.414710
1.865028 7.714993 1.832451
1.862042 7.696760 -0.138223
1.866078 7.707570 2.124904
1.308050 5.373990 -1.481998
1.872709 7.687996 0.138118
1.506453 6.179721 -1.468480
5.947365 24.378592 1.315098
1.763045 7.226824 -1.445951
3.487886 14.286218 1.286593
1.883367 7.708344 -1.256795
3.334861 13.638768 1.723964
1.918925 7.842005 -0.991285
1.918413 7.833989 1.277444
1.882806 7.688586 -0.692540
1.883232 7.684519 1.537921
1.888195 7.698959 -0.415443
1.893343 7.714113 1.833801
1.888896 7.690213 -0.138223
1.894817 7.708513 2.126975
1.326339 5.367516 -1.481480
1.900972 7.687237 0.138223
1.525673 6.164967 -1.466231
6.030032 24.347990 1.314575
1.786375 7.213003 -1.444424
3.462001 13.968404 1.259052
1.912163 7.709393 -1.258046
3.338934 13.451719 1.701784
1.946286 7.835259 -0.991285
1.949558 7.842582 1.279947
1.911073 7.687768 -0.693062
1.911942 7.685520 1.539447
1.913609 7.686507 -0.415129
1.923080 7.718804 1.836500
1.917181 7.689394 -0.138328
1.924518 7.713099 2.130081
1.346475 5.368474 -1.483033
1.931204 7.694130 0.138467
1.543862 6.146373 -1.463082
6.044867 24.047867 1.299502
1.812498 7.210532 -1.445187
3.453388 13.728233 1.238483
1.941958 7.714164 -1.259923
3.344646 13.276362 1.681066
1.975567 7.836117 -0.992260
1.982723 7.858713 1.283701
1.938874 7.684914 -0.693411
1.940198 7.684510 1.540592
1.939941 7.677844 -0.415024
1.950014 7.712044 1.836500
1.947443 7.696225 -0.138572
1.955226 7.721315 2.134222
1.363776 5.358126 -1.481480
1.961013 7.698968 0.138677
1.569157 6.156054 -1.466681
6.050770 23.720844 1.282964
1.833287 7.187040 -1.441753
3.454968 13.534628 1.222098
1.971805 7.718821 -1.261801
3.350158 13.104978 1.660836
2.006846 7.844558 -0.994210
2.007201 7.840262 1.281824
1.970627 7.697401 -0.695154
1.970423 7.691002 1.543263
1.970204 7.684568 -0.415757
1.977405 7.707078 1.836950
1.977282 7.701000 -0.138782
1.984091 7.721927 2.136292
1.380538 5.345850 -1.479410
1.989876 7.699821 0.138816
1.588686 6.142992 -1.464881
6.072479 23.463684 1.270194
1.856395 7.172995 -1.440226
3.461728 13.366259 1.207979
2.006173 7.740574 -1.266494
3.353525 12.929874 1.640118
2.037207 7.849033 -0.995673
2.037538 7.844679 1.283701
1.996985 7.688546 -0.694980
2.000219 7.695478 1.545553
1.998020 7.681509 -0.415966
2.006752 7.709558 1.839200
2.003142 7.690182 -0.138712
2.012007 7.718694 2.137328
1.399191 5.340999 -1.479410
2.016232 7.690894 0.138782
1.609623 6.135524 -1.464431
6.157395 23.453936 1.270822
1.880925 7.164572 -1.439845
3.480017 13.246181 1.198217
2.030668 7.723973 -1.264929
3.358734 12.766429 1.620862
2.067627 7.853392 -0.997135
2.068933 7.852801 1.286204
2.023809 7.681529 -0.694980
2.025066 7.680856 1.544026
2.027371 7.684144 -0.416490
2.038130 7.719463 1.843249
2.036101 7.706344 -0.139131
2.039927 7.715358 2.138363
1.419316 5.341683 -1.480963
2.046662 7.697339 0.139026
1.627023 6.114802 -1.460832
6.491043 24.378002 1.322111
1.906935 7.161756 -1.440608
3.507244 13.162722 1.191768
2.058637 7.720654 -1.265555
3.365409 12.612695 1.602826
2.098096 7.857635 -0.998597
2.099394 7.856982 1.288082
2.053184 7.684042 -0.695851
2.056431 7.690811 1.547461
2.053659 7.675092 -0.416385
2.066070 7.716066 1.844149
2.063509 7.701120 -0.139165
2.071345 7.724986 2.143022
1.439460 5.342292 -1.482516
2.076643 7.701731 0.139235
1.646329 6.101559 -1.459033
6.581300 24.374481 1.323158
1.929362 7.145580 -1.438700
4.760949 17.620417 1.596867
2.091763 7.736303 -1.269309
3.368973 12.451409 1.583814
2.129663 7.865592 -1.000547
2.128359 7.855325 1.289020
2.079475 7.674904 -0.695677
2.085317 7.691164 1.548987
2.082532 7.675587 -0.416804
2.095547 7.718210 1.846398
2.092998 7.703519 -0.139340
2.100833 7.727027 2.145610
1.456658 5.335626 -1.481998
2.102174 7.694801 0.139235
1.665525 6.092307 -1.458133
6.666831 24.369862 1.324100
1.949419 7.125887 -1.436029
4.765700 17.408518 1.579088
2.117927 7.731229 -1.269622
3.372456 12.302328 1.566265
2.154687 7.854657 -1.000060
2.154918 7.850129 1.289333
2.110187 7.687180 -0.697420
2.110809 7.684207 1.548987
2.113799 7.689822 -0.417955
2.120611 7.709340 1.845948
2.118531 7.696537 -0.139340
2.131577 7.738644 2.150786
1.470122 5.311890 -1.476822
2.133286 7.702836 0.139515
1.689382 6.095846 -1.460382
6.761470 24.381083 1.325984
1.973759 7.117146 -1.435647
4.771017 17.192120 1.560959
2.148071 7.735210 -1.271500
3.378177 12.156597 1.549203
2.186348 7.862388 -1.002010
2.186012 7.855881 1.291523
2.138074 7.683606 -0.697769
2.142888 7.695705 1.552804
2.142775 7.690092 -0.418374
2.152218 7.718785 1.849997
2.149685 7.704503 -0.139619
2.156502 7.723712 2.148716
1.486567 5.299286 -1.474751
2.161243 7.699192 0.139584
1.709597 6.086160 -1.459482
6.852475 24.378485 1.327135
1.996995 7.104544 -1.434502
4.775978 16.979727 1.543180
2.174525 7.725763 -1.271187
3.383455 12.012890 1.532385
2.218082 7.869995 -1.003960
2.216104 7.857709 1.293087
2.164884 7.676095 -0.697769
2.169736 7.688179 1.552804
2.172857 7.694099 -0.419002
2.181270 7.718727 1.851797
2.178200 7.702725 -0.139724
