# This PCD file was generated using the MATLAB® pcwrite function
# from Computer Vision Toolbox®.
# .PCD v.7 - Point Cloud Data file format
VERSION .7
FIELDS x y z
SIZE 4 4 4
TYPE F F F
COUNT 1 1 1
WIDTH 1643
HEIGHT 1
VIEWPOINT 0 0 0 1 0 0 0
POINTS 1643
DATA ascii
12.610525 -4.124191 -0.695336
10.240243 -3.350984 2.487509
21.902300 -7.171471 -0.402278
10.240293 -3.354958 2.887385
4.807685 -1.582546 -1.356212
5.391758 -1.775849 -1.310565
65.797920 -21.684168 3.630755
6.132344 -2.022144 -1.255142
7.081136 -2.337749 -1.181080
7.611285 -2.514245 -0.984217
9.522442 -3.149246 -0.877484
12.576365 -4.164106 -0.694289
10.290788 -3.409331 2.502805
4.805798 -1.600540 -1.357247
5.385213 -1.795599 -1.310565
6.128972 -2.044780 -1.255905
7.080427 -2.364956 -1.182332
7.594490 -2.539607 -0.983242
9.505723 -3.180570 -0.876961
12.580690 -4.214324 -0.695336
10.452509 -3.503447 2.545096
21.806194 -7.308949 -0.401440
9.705607 -3.254987 2.742964
4.803843 -1.618538 -1.358282
5.388463 -1.816559 -1.312814
6.114357 -2.063650 -1.254378
7.083775 -2.392215 -1.184209
7.570981 -2.559690 -0.981292
9.534194 -3.227146 -0.880622
9.679295 -3.276260 1.986322
12.562862 -4.254738 -0.695126
21.754038 -7.376032 -0.400952
4.794792 -1.633214 -1.357247
5.395000 -1.839761 -1.315964
6.111197 -2.085183 -1.255142
7.004347 -2.392662 -1.172320
7.558244 -2.584818 -0.980805
9.530981 -3.261326 -0.881319
12.540377 -4.295976 -0.694708
10.583270 -3.627591 2.582888
21.660061 -7.428569 -0.399695
4.778103 -1.646166 -1.354141
5.388545 -1.858581 -1.315964
6.100169 -2.105221 -1.254378
9.727114 -3.358811 0.900319
6.910067 -2.387424 -1.157928
7.549175 -2.611185 -0.980805
17.709791 -6.129103 2.968188
9.510124 -3.291317 -0.880447
9.705837 -3.362844 -0.538328
10.051313 -3.484509 2.456016
9.720281 -3.371650 -0.179585
9.514035 -3.301970 2.698447
4.779624 -1.665377 -1.356212
9.680984 -3.375065 0.178957
5.363625 -1.870961 -1.311465
9.675554 -3.376960 0.537072
6.077954 -2.121326 -1.251325
9.651375 -3.370411 0.894392
6.800991 -2.376344 -1.141033
9.412476 -3.290671 1.224300
7.543761 -2.638832 -0.981292
9.682226 -3.388770 1.624729
9.496118 -3.325493 -0.880273
9.655574 -3.381334 1.988612
9.661996 -3.385476 -0.536548
9.936106 -3.483469 2.430821
9.653729 -3.386364 -0.178573
4.773489 -1.682884 -1.356212
7.251386 -2.556462 0.134209
5.368087 -1.893562 -1.314164
9.629807 -3.398748 0.535188
6.088651 -2.150126 -1.255142
9.623929 -3.400452 0.892998
6.680490 -2.361750 -1.122261
9.631136 -3.404890 1.254279
7.530762 -2.663825 -0.980805
9.510190 -3.365867 1.597822
9.469426 -3.353300 -0.878878
9.626460 -3.410800 1.985177
9.647641 -3.420199 -0.536444
9.645943 -3.421492 2.362886
9.649389 -3.422715 -0.178713
9.747455 -3.459415 2.771434
4.763946 -1.698239 -1.355177
7.241967 -2.583022 0.134209
5.361112 -1.913224 -1.314164
9.639856 -3.442080 0.536444
6.081108 -2.171367 -1.255142
9.642020 -3.444751 0.895787
6.568040 -2.347820 -1.104740
9.639152 -3.447520 1.256961
7.513472 -2.688733 -0.979830
9.036570 -3.235560 1.520230
9.466451 -3.391344 -0.879750
9.621889 -3.447030 1.986703
9.628123 -3.451159 -0.536025
9.606424 -3.445274 2.356138
7.419567 -2.662435 -0.137595
9.583798 -3.440935 2.728471
4.761324 -1.716999 -1.356212
7.219739 -2.603537 0.133965
5.365398 -1.935895 -1.316863
7.243849 -2.615089 0.403615
6.062030 -2.189639 -1.252852
9.663058 -3.492256 0.898924
6.488800 -2.346351 -1.092851
9.765203 -3.531099 1.274997
7.504040 -2.714943 -0.979830
8.014781 -2.901310 1.350030
7.476348 -2.707876 -0.695677
7.450487 -2.701452 -0.415338
9.998586 -3.627334 2.455566
7.432786 -2.696501 -0.138014
9.560834 -3.470413 2.725365
4.752275 -1.730626 -1.355177
7.197914 -2.622672 0.133720
5.344302 -1.948336 -1.313264
7.222463 -2.633045 0.402882
6.036677 -2.201945 -1.249036
10.018881 -3.656479 0.933089
6.410886 -2.340977 -1.080962
7.509912 -2.745265 -0.981780
8.053865 -2.944109 1.358164
7.409798 -2.710135 -0.690273
9.441490 -3.455095 1.954266
7.449465 -2.727591 -0.415757
10.369572 -3.798829 2.549595
7.332273 -2.686133 -0.136303
10.850409 -3.977129 3.096511
4.764335 -1.753878 -1.360353
7.192930 -2.647908 0.133790
5.337812 -1.966048 -1.313264
7.192613 -2.650643 0.401731
6.051058 -2.231153 -1.253615
6.358609 -2.345814 -1.073453
7.508215 -2.772904 -0.982754
9.718582 -3.591156 1.640998
7.581562 -2.803000 -0.707182
9.459443 -3.497277 1.960372
7.419774 -2.744658 -0.414605
10.378848 -3.841312 2.554994
7.262844 -2.689490 -0.135186
9.952443 -3.687446 2.843904
4.754871 -1.768321 -1.359318
7.224875 -2.688343 0.134558
5.334569 -1.986028 -1.314164
7.179574 -2.674340 0.401522
6.032587 -2.247095 -1.251325
7.409907 -2.761610 0.691842
6.339276 -2.363855 -1.071576
7.479893 -2.792154 -0.980317
7.475170 -2.791878 -0.698117
7.426985 -2.776836 -0.415548
9.356035 -3.499939 2.306198
7.230937 -2.706414 -0.134767
9.736885 -3.646284 2.785928
4.730587 -1.778111 -1.354141
7.226677 -2.717769 0.134767
5.327605 -2.004638 -1.314164
7.166456 -2.697977 0.401312
6.032057 -2.270906 -1.252852
7.329370 -2.760771 0.685218
6.356864 -2.395721 -1.075956
7.473815 -2.819648 -0.980805
7.422852 -2.804862 -0.415862
8.793270 -3.324454 2.170328
7.197132 -2.722441 -0.134314
9.814436 -3.714440 2.811810
4.746022 -1.802845 -1.360353
7.215277 -2.742268 0.134733
5.316931 -2.021837 -1.313264
7.170062 -2.727948 0.402045
5.994734 -2.280778 -1.246746
7.297345 -2.777832 0.683127
6.315235 -2.405241 -1.070325
17.972862 -6.848795 2.361584
7.471347 -2.848548 -0.981780
9.428108 -3.598359 -0.882888
12.402294 -4.735976 -0.695754
7.178245 -2.743977 -0.134139
4.735776 -1.818843 -1.359318
7.170193 -2.753815 0.134069
5.320756 -2.044578 -1.315964
7.154903 -2.750809 0.401731
5.964346 -2.294276 -1.242167
7.275958 -2.800266 0.682081
6.332185 -2.438309 -1.074705
7.468767 -2.877465 -0.982754
10.463748 -4.033429 1.776157
9.402478 -3.626229 -0.881667
9.471334 -3.654684 1.973347
12.384853 -4.781400 -0.695754
7.164892 -2.767576 -0.134069
4.725796 -1.833964 -1.358282
7.160051 -2.780077 0.134069
5.313226 -2.064066 -1.315964
7.157804 -2.782080 0.402464
5.919703 -2.300857 -1.234534
7.269853 -2.827091 0.682429
6.301544 -2.451803 -1.070951
18.234173 -7.098210 2.402532
7.443373 -2.899057 -0.980805
9.389763 -3.659027 -0.881667
17.704313 -6.902623 3.693681
12.360643 -4.821699 -0.695336
8.737410 -3.410088 2.165379
7.175191 -2.801819 -0.134453
9.752742 -3.810281 2.805598
4.708574 -1.846218 -1.355177
7.150303 -2.805053 0.134069
5.282407 -2.073344 -1.310115
7.151767 -2.808508 0.402673
5.864123 -2.302848 -1.224612
7.263649 -2.853908 0.682778
6.292947 -2.473784 -1.070951
17.832428 -7.013596 2.352810
7.300208 -2.872685 -0.963255
7.206038 -2.837081 -0.677549
7.231948 -2.850198 -0.407383
7.165367 -2.826848 -0.134453
9.065533 -3.578321 2.611484
4.712877 -1.866912 -1.358282
7.147904 -2.832942 0.134209
5.296875 -2.100390 -1.315514
7.151698 -2.835890 0.403196
5.772104 -2.290000 -1.207058
7.275864 -2.888065 0.684870
6.287945 -2.497194 -1.071576
10.701673 -4.252223 1.413928
7.286447 -2.896683 -0.962768
7.188685 -2.859272 -0.676851
9.366875 -3.727532 1.959608
7.212677 -2.871731 -0.406860
7.146665 -2.846893 -0.134279
4.702745 -1.881916 -1.357247
7.145897 -2.859601 0.134349
5.271790 -2.110700 -1.311015
7.152879 -2.865293 0.403824
5.716695 -2.291146 -1.197136
6.288797 -2.521708 -1.073141
17.957455 -7.204291 2.375721
7.262063 -2.914915 -0.960818
7.276644 -2.923717 -0.686090
9.430974 -3.789315 1.975636
7.195702 -2.892653 -0.406441
7.144104 -2.874808 -0.134418
8.799037 -3.542543 2.541603
4.700060 -1.898948 -1.358282
7.124748 -2.880031 0.134139
5.282456 -2.136396 -1.315514
7.144686 -2.890993 0.403929
5.643548 -2.283580 -1.183397
6.276294 -2.542161 -1.072515
7.185617 -2.913395 -0.952043
8.740648 -3.545656 1.493949
7.322297 -2.970299 -0.691319
7.181859 -2.916251 -0.406232
7.146993 -2.904999 -0.134663
8.793776 -3.576146 2.543674
4.700558 -1.918262 -1.360353
7.110948 -2.903372 0.134069
5.260534 -2.148926 -1.311915
7.143795 -2.919693 0.404452
5.581023 -2.280983 -1.171949
6.269211 -2.564802 -1.072828
7.168056 -2.935450 -0.951068
18.032228 -7.388203 3.086452
7.319259 -2.998863 -0.692017
10.072781 -4.129095 2.116072
7.167940 -2.939786 -0.406022
7.133109 -2.928411 -0.134593
4.697406 -1.936131 -1.361388
7.110014 -2.931988 0.134244
5.245796 -2.164303 -1.310115
7.137251 -2.946136 0.404662
5.533103 -2.283971 -1.163553
6.269349 -2.590442 -1.074392
7.407241 -3.063637 -0.984217
7.143056 -2.955830 -0.676329
7.189003 -2.977783 -0.407802
7.069275 -2.931081 -0.133581
4.687052 -1.951031 -1.360353
7.105274 -2.959095 0.134349
5.249002 -2.187099 -1.312814
7.139828 -2.976411 0.405394
5.459861 -2.276076 -1.149815
6.252975 -2.609267 -1.073141
10.399456 -4.341659 1.383705
7.385511 -3.084884 -0.982754
17.725040 -7.407276 3.042651
10.217596 -4.272017 2.152707
7.055312 -2.954195 -0.133511
9.750098 -4.084554 2.832516
4.662404 -1.959894 -1.355177
7.035915 -2.959071 0.133232
5.234150 -2.202384 -1.311015
5.408456 -2.276839 -1.140656
6.254751 -2.635680 -1.075018
18.341158 -7.732523 2.443968
7.389330 -3.116817 -0.984704
9.260756 -3.908088 -0.879401
12.218416 -5.161262 -0.695126
7.054165 -2.982698 -0.133685
4.676874 -1.985215 -1.361388
6.983210 -2.965635 0.132429
5.233605 -2.223690 -1.312814
7.162989 -3.044936 0.407906
5.407702 -2.298776 -1.142183
6.238243 -2.654404 -1.073766
7.393017 -3.148815 -0.986654
9.265388 -3.948201 -0.881145
18.227736 -7.771029 3.851671
12.218698 -5.211716 -0.696173
7.036354 -3.004163 -0.133546
10.524351 -4.495530 3.066488
4.662813 -1.998484 -1.359318
6.963626 -2.986053 0.132254
5.211484 -2.235799 -1.309215
7.181682 -3.082525 0.409581
5.388821 -2.312992 -1.139893
6.225309 -2.674604 -1.073141
7.389275 -3.177739 -0.987629
9.280832 -3.993117 -0.883933
9.851315 -4.240608 2.084779
12.171081 -5.241695 -0.694498
17.290087 -7.449865 4.346504
7.031334 -3.031081 -0.133651
4.652262 -2.013214 -1.358282
6.966006 -3.015904 0.132499
5.178613 -2.243132 -1.302917
5.380714 -2.331789 -1.139893
6.219559 -2.697890 -1.073766
42.817200 -18.581915 5.731028
7.363571 -3.197188 -0.985679
42.717140 -18.556213 7.376512
9.288766 -4.035016 -0.886025
9.804043 -4.260885 2.077910
12.152709 -5.284149 -0.694498
17.288994 -7.521057 4.352803
7.015210 -3.053212 -0.133546
4.648747 -2.030988 -1.359318
6.970095 -3.046608 0.132778
5.133256 -2.244799 -1.293469
42.946735 -18.780823 2.456545
5.365347 -2.347409 -1.138366
6.213723 -2.721169 -1.074392
7.345093 -3.219684 -0.984704
10.408294 -4.562423 1.799935
9.281923 -4.070615 -0.886723
9.756749 -4.280882 2.071041
12.134191 -5.326537 -0.694498
7.016032 -3.081283 -0.133755
4.620419 -2.037848 -1.353106
6.952635 -3.066477 0.132638
5.093692 -2.247648 -1.285370
18.050219 -7.968622 1.034054
5.357121 -2.366123 -1.138366
18.094555 -7.995743 1.730739
6.219120 -2.748147 -1.076895
17.932482 -7.927867 2.407407
7.341638 -3.247236 -0.985679
18.091244 -8.005605 3.133383
9.282233 -4.109443 -0.888117
18.154764 -8.037503 3.859303
12.127418 -5.371599 -0.695126
7.001578 -3.104134 -0.133685
17.818232 -7.903396 5.222969
4.606575 -2.050016 -1.351035
6.972944 -3.104555 0.133232
5.055553 -2.251935 -1.277722
18.004051 -8.023450 1.033007
5.374351 -2.395063 -1.143709
6.198665 -2.765010 -1.075018
18.049721 -8.055134 2.426906
7.333882 -3.274462 -0.986167
17.403067 -7.773835 3.018872
9.232171 -4.123950 -0.884631
17.907923 -8.003099 3.812745
12.123179 -5.420421 -0.695964
7.003476 -3.134273 -0.133930
17.988012 -8.053963 5.280944
4.620538 -2.075583 -1.357247
6.993072 -3.142811 0.133825
4.973013 -2.236004 -1.258826
5.355215 -2.408976 -1.141420
6.188975 -2.786631 -1.075018
7.340507 -3.308198 -0.988604
10.421173 -4.698772 1.810573
9.224985 -4.159427 -0.885328
16.977921 -7.658691 3.620410
12.085981 -5.454490 -0.694917
7.014361 -3.168579 -0.134349
4.616784 -2.093294 -1.358282
7.029407 -3.188681 0.134733
4.908392 -2.227578 -1.244429
5.357499 -2.432524 -1.143709
18.033028 -8.191532 1.732831
6.186404 -2.811486 -1.076269
7.310844 -3.325581 -0.986167
10.343578 -4.707301 1.799935
9.195902 -4.185000 -0.883933
12.055962 -5.491677 -0.694289
9.258286 -4.219244 2.348939
7.061482 -3.219591 -0.135466
9.626542 -4.391127 2.835104
4.627015 -2.117436 -1.363459
4.872240 -2.231714 -1.237231
5.352544 -2.452847 -1.144472
6.176552 -2.833064 -1.076269
7.306408 -3.354394 -0.987142
18.074638 -8.301942 3.150278
9.145027 -4.200442 -0.880447
12.047606 -5.538733 -0.694917
18.170094 -8.357308 4.617345
20.823616 -9.582196 -0.400114
4.581011 -2.115754 -1.352071
4.836118 -2.235624 -1.230032
5.333259 -2.466571 -1.142183
6.170210 -2.856266 -1.076895
7.305461 -3.384885 -0.988604
42.562695 -19.729862 7.430325
9.054389 -4.197146 -0.873126
18.275320 -8.475368 3.915782
12.024575 -5.579071 -0.694708
17.790825 -8.258226 4.528265
20.804550 -9.661565 -0.400393
4.577100 -2.133364 -1.353106
42.780273 -19.948771 0.823928
4.789432 -2.234366 -1.220134
5.338848 -2.491815 -1.145236
6.153044 -2.874443 -1.075644
7.297197 -3.412047 -0.989092
42.557983 -19.908449 7.441588
9.014418 -4.216908 -0.870686
12.026733 -5.631174 -0.695964
8.963004 -4.198578 2.285053
20.806911 -9.751098 -0.401091
17.736263 -8.315824 5.248850
4.583611 -2.155906 -1.357247
4.746341 -2.234470 -1.211136
5.326565 -2.508763 -1.144472
6.135826 -2.892534 -1.074392
7.299605 -3.444275 -0.991042
42.481083 -20.053509 7.440337
8.999642 -4.248348 -0.870686
18.137594 -8.565857 3.898991
11.996168 -5.668001 -0.695336
8.948294 -4.229839 2.285053
20.790825 -9.832217 -0.401440
4.569076 -2.168580 -1.355177
4.699787 -2.232628 -1.201239
5.324869 -2.530712 -1.145999
6.147098 -2.924117 -1.078146
7.269615 -3.461201 -0.988604
42.507126 -20.247545 7.457232
8.990154 -4.282307 -0.871209
11.969100 -5.706404 -0.694917
8.901814 -4.245948 2.276955
20.619217 -9.839280 -0.398787
4.561478 -2.184515 -1.355177
4.691965 -2.249020 -1.201239
5.310692 -2.546736 -1.144854
6.129730 -2.942138 -1.076895
18.121981 -8.702051 2.468342
7.261067 -3.488274 -0.989092
8.976947 -4.314526 -0.871383
11.967106 -5.756806 -0.695964
8.876403 -4.271924 2.274255
20.633324 -9.930147 -0.399695
4.543389 -2.195382 -1.352071
4.680973 -2.262871 -1.200339
5.301769 -2.565259 -1.144854
6.119939 -2.962448 -1.076895
7.256606 -3.515796 -0.990067
16.760687 -8.124097 2.950042
8.970796 -4.350181 -0.872255
9.191149 -4.457036 1.985558
11.958732 -5.801691 -0.696592
8.876213 -4.308143 2.277854
20.634512 -10.019580 -0.400393
4.525664 -2.205359 -1.348965
4.681802 -2.283468 -1.202588
5.291469 -2.581965 -1.144472
6.111336 -2.984660 -1.077208
17.933910 -8.762456 2.450793
7.254991 -3.546336 -0.991529
8.957345 -4.382344 -0.872429
16.730406 -8.185282 3.620410
11.924056 -5.836375 -0.695754
8.875121 -4.345957 2.281454
20.628145 -10.105623 -0.400952
9.468035 -4.640391 2.825269
4.482880 -2.204879 -1.338612
31.204576 -15.347790 0.606995
4.644079 -2.285170 -1.194940
5.294299 -2.607414 -1.147144
6.109215 -3.011406 -1.078772
7.249688 -3.575150 -0.992504
8.941994 -4.413584 -0.872429
11.902585 -5.880039 -0.695754
8.869617 -4.383637 2.284153
20.592745 -10.177567 -0.400952
4.431893 -2.199047 -1.325671
4.651380 -2.309977 -1.198989
5.292198 -2.629373 -1.148670
6.091591 -3.029194 -1.077521
7.229428 -3.598160 -0.991529
8.926533 -4.444771 -0.872429
11.899863 -5.930459 -0.696801
8.917045 -4.445874 2.300349
20.562460 -10.256546 -0.401091
4.405187 -2.204992 -1.319977
26.924250 -13.482658 0.525597
4.646773 -2.327945 -1.199889
5.274212 -2.643432 -1.146762
6.088043 -3.053982 -1.078772
7.213275 -3.621592 -0.991042
42.313839 -21.253891 7.499782
8.910964 -4.475903 -0.872429
11.882657 -5.973755 -0.697010
20.519388 -10.324664 -0.400952
4.342279 -2.192492 -1.303413
4.628183 -2.338877 -1.197189
5.263200 -2.660940 -1.146381
6.084395 -3.078783 -1.080024
7.214757 -3.653924 -0.992992
16.473907 -8.346848 2.925012
8.882845 -4.500678 -0.871209
11.861733 -6.015197 -0.697010
20.483223 -10.396228 -0.400952
4.289843 -2.184841 -1.289954
4.646033 -2.368294 -1.203938
5.266123 -2.685539 -1.149052
6.061295 -3.093716 -1.077834
7.194887 -3.675473 -0.992017
42.224232 -21.579340 7.510419
8.888370 -4.542537 -0.873301
17.905033 -9.154583 3.908913
11.847775 -6.060204 -0.697429
20.496647 -10.493178 -0.401929
4.268443 -2.192740 -1.285813
4.620408 -2.375586 -1.199439
5.247987 -2.699415 -1.147144
6.053972 -3.116664 -1.078459
7.185543 -3.702385 -0.992504
42.233219 -21.760866 7.524811
8.872458 -4.573536 -0.873301
8.809979 -4.543276 1.926789
11.826550 -6.101523 -0.697429
20.397768 -10.528073 -0.400672
4.247040 -2.200516 -1.281672
30.249554 -15.673181 0.594673
4.617694 -2.393585 -1.200789
5.247246 -2.722238 -1.149052
6.064643 -3.147642 -1.082214
7.166180 -3.722532 -0.991529
42.185047 -21.922726 7.529818
8.856441 -4.604479 -0.873301
11.799164 -6.137022 -0.697010
20.375084 -10.606598 -0.400952
4.191775 -2.189544 -1.267178
4.609311 -2.409690 -1.200789
5.231231 -2.735984 -1.147525
6.050118 -3.166960 -1.081588
7.170725 -3.756736 -0.993966
42.125763 -22.079018 7.532946
8.857004 -4.642147 -0.874869
11.791819 -6.185594 -0.697848
20.337936 -10.677655 -0.400952
4.146504 -2.184354 -1.255790
4.604320 -2.427582 -1.201689
5.221649 -2.754228 -1.147525
42.242954 -22.291029 4.178769
6.053002 -3.195437 -1.084091
7.147037 -3.776179 -0.992504
42.114799 -22.261005 7.544835
8.835463 -4.670242 -0.874346
11.773685 -6.228584 -0.698057
20.350023 -10.774782 -0.401929
4.111557 -2.184313 -1.247508
4.590656 -2.440895 -1.200339
5.210269 -2.771516 -1.147144
42.228203 -22.472046 4.185044
6.031349 -3.210977 -1.082214
7.154835 -3.812306 -0.995429
42.158859 -22.472925 7.566736
8.815590 -4.699181 -0.873998
11.773019 -6.280926 -0.699313
8.556440 -4.566794 2.239163
4.086879 -2.189529 -1.242332
4.573520 -2.452300 -1.198089
5.209214 -2.794327 -1.149052
6.011402 -3.227339 -1.080649
7.134490 -3.833500 -0.994454
8.795623 -4.728037 -0.873649
11.733435 -6.312521 -0.698266
8.605654 -4.631730 2.256259
20.225008 -10.890044 -0.400952
4.082611 -2.205618 -1.243367
4.575217 -2.473811 -1.200789
5.202881 -2.814361 -1.149815
42.182438 -22.826994 4.196200
6.005311 -3.251125 -1.081588
7.110593 -3.852706 -0.992992
8.786073 -4.762509 -0.874346
11.718349 -6.357249 -0.698685
8.493520 -4.609685 2.231065
20.211472 -10.973935 -0.401440
4.078279 -2.221704 -1.244402
4.563132 -2.487900 -1.199889
5.186131 -2.828745 -1.148289
42.102501 -22.974096 4.196200
6.007797 -3.279639 -1.084091
7.114521 -3.887021 -0.995429
41.962818 -22.935909 7.574245
8.790374 -4.804616 -0.876438
11.699592 -6.400033 -0.698894
20.173044 -11.044417 -0.401440
4.067113 -2.234066 -1.243367
4.564666 -2.509446 -1.202588
5.181386 -2.849669 -1.149433
42.109329 -23.168943 4.204916
5.991121 -3.297732 -1.083152
7.100910 -3.911831 -0.995429
41.937862 -23.112757 7.584257
8.749121 -4.821807 -0.873998
11.705162 -6.456267 -0.700569
20.046835 -11.066447 -0.399695
4.060979 -2.249185 -1.243884
4.559288 -2.527254 -1.203488
5.171408 -2.867738 -1.149433
42.052589 -23.329323 4.207356
5.970937 -3.313832 -1.081588
7.080271 -3.932739 -0.994454
41.905273 -23.285872 7.593017
8.740943 -4.857157 -0.874869
11.675572 -6.493203 -0.700150
4.056478 -2.265230 -1.244920
4.533427 -2.533647 -1.198989
5.171648 -2.891521 -1.151723
42.033493 -23.510984 4.213631
5.950714 -3.329832 -1.080024
7.090747 -3.971009 -0.997866
41.858204 -23.451319 7.599275
8.732626 -4.892508 -0.875741
11.652836 -6.533919 -0.700150
20.056284 -11.255061 -0.401440
4.055279 -2.283168 -1.246990
4.527951 -2.551369 -1.199889
5.154682 -2.905699 -1.150197
41.951168 -23.657568 4.213631
5.954538 -3.359319 -1.082839
7.052643 -3.982073 -0.994454
41.831127 -23.628376 7.609286
8.722434 -4.926880 -0.876438
11.629957 -6.574555 -0.700150
20.016872 -11.325002 -0.401440
4.054406 -2.300416 -1.249061
4.519465 -2.566370 -1.199889
5.139897 -2.919868 -1.149052
41.983353 -23.859554 4.224787
5.950235 -3.382952 -1.084091
7.053202 -4.013292 -0.996404
41.824646 -23.808006 7.622427
8.699121 -4.951835 -0.875741
11.618504 -6.619017 -0.700778
4.034613 -2.307840 -1.245437
4.517244 -2.586004 -1.201689
42.061878 -24.089064 2.540283
5.131377 -2.938767 -1.149433
41.962044 -24.041616 4.231062
5.934962 -3.401736 -1.083465
7.039150 -4.037888 -0.996404
41.864643 -24.024647 7.644953
8.685240 -4.984154 -0.876089
11.609184 -6.667490 -0.701616
19.939322 -11.460989 -0.401440
4.034901 -2.326735 -1.248025
4.508190 -2.601756 -1.201689
41.977535 -24.235741 2.540283
5.127888 -2.960588 -1.150960
41.922726 -24.213856 4.235595
5.924762 -3.423421 -1.083778
7.031885 -4.066409 -0.997379
8.671239 -5.016436 -0.876438
41.754429 -24.165266 9.377500
11.572012 -6.699968 -0.700778
4.026754 -2.340805 -1.248025
4.502450 -2.619436 -1.202588
41.937561 -24.408243 2.543005
5.117522 -2.978469 -1.150960
5.917897 -3.447064 -1.084717
7.038228 -4.102927 -1.000304
41.866539 -24.415844 7.676240
8.670885 -5.056711 -0.878181
11.562354 -6.748375 -0.701616
19.772490 -11.549481 -0.399695
4.028559 -2.360707 -1.251131
4.483192 -2.629221 -1.199889
5.115561 -3.001282 -1.152868
41.879814 -24.580566 4.248494
5.907532 -3.468701 -1.085030
7.003325 -4.115401 -0.997379
41.781059 -24.561836 7.676240
8.648029 -5.083918 -0.877658
11.549054 -6.794771 -0.702244
19.818213 -11.669160 -0.401440
4.021958 -2.375738 -1.251649
4.480698 -2.648822 -1.201689
5.098294 -3.015123 -1.151342
41.879494 -24.777330 4.257209
5.902187 -3.493325 -1.086281
7.005997 -4.149940 -0.999816
41.667877 -24.691418 7.671234
8.628516 -5.113059 -0.877484
11.528703 -6.837081 -0.702453
4.011980 -2.388774 -1.251131
4.471425 -2.664446 -1.201689
5.089425 -3.033906 -1.151723
5.893350 -3.515930 -1.086907
6.991468 -4.174370 -0.999816
41.642483 -24.873178 7.682497
8.617457 -5.147233 -0.878181
11.504767 -6.877282 -0.702453
3.995335 -2.397794 -1.248543
4.468779 -2.684052 -1.203488
5.075438 -3.049631 -1.150960
5.877656 -3.534445 -1.086281
6.980256 -4.200796 -1.000304
8.606266 -5.181393 -0.878878
11.494376 -6.925645 -0.703291
3.988594 -2.412725 -1.249061
4.456048 -2.697616 -1.202588
5.074838 -3.073431 -1.153250
41.702938 -25.266146 4.265925
5.866971 -3.555964 -1.086594
6.972339 -4.229255 -1.001279
8.589830 -5.212437 -0.879053
11.473545 -6.967799 -0.703500
3.990045 -2.432667 -1.252167
4.439951 -2.709094 -1.200789
5.065754 -3.092149 -1.153631
41.723312 -25.478018 4.277081
5.854523 -3.576422 -1.086594
6.947371 -4.247354 -0.999816
8.578382 -5.246547 -0.879750
11.445746 -7.005722 -0.703291
3.983175 -2.447591 -1.252684
4.437107 -2.728659 -1.202588
5.046569 -3.104670 -1.151723
41.695210 -25.661095 4.283356
5.860507 -3.608228 -1.090035
6.932503 -4.271579 -0.999816
8.558319 -5.275414 -0.879576
11.445020 -7.060312 -0.704756
19.595419 -12.092930 -0.401929
3.969679 -2.458429 -1.251131
4.431347 -2.745411 -1.203488
5.040707 -3.125370 -1.152868
41.649403 -25.833790 4.287888
5.838437 -3.621395 -1.088158
6.928419 -4.300826 -1.001279
8.536469 -5.303154 -0.879227
11.414759 -7.094009 -0.704337
19.553087 -12.161258 -0.401929
3.959866 -2.470557 -1.250614
4.428349 -2.764991 -1.205288
5.041971 -3.149350 -1.155539
5.819061 -3.637565 -1.086907
6.909999 -4.322879 -1.000791
8.535725 -5.342002 -0.880970
11.406854 -7.144413 -0.705384
19.527462 -12.240057 -0.402278
3.956125 -2.487449 -1.252167
4.408774 -2.774204 -1.202588
5.022639 -3.161700 -1.153631
41.597355 -26.195253 4.300787
5.804656 -3.656802 -1.086594
6.904943 -4.353325 -1.002254
8.511970 -5.368576 -0.880447
11.368333 -7.175658 -0.704547
19.467710 -12.297465 -0.401929
3.945786 -2.500210 -1.251649
17.870880 -11.328083 0.369328
4.402355 -2.791664 -1.203488
5.016546 -3.182369 -1.154776
5.801862 -3.683394 -1.088471
6.889704 -4.377401 -1.002254
8.494860 -5.399323 -0.880622
11.356697 -7.223873 -0.705384
17.835608 -11.353783 -0.369049
3.943547 -2.518126 -1.253720
17.777304 -11.355948 0.368211
4.395867 -2.809113 -1.204388
5.000444 -3.196688 -1.153631
5.798954 -3.710012 -1.090348
6.867695 -4.397143 -1.001279
8.486027 -5.435391 -0.881667
11.351590 -7.276405 -0.706640
17.681408 -11.342549 -0.366675
3.928235 -2.527695 -1.251649
17.529055 -11.283720 0.363883
4.395866 -2.830771 -1.207087
4.992556 -3.216249 -1.154395
41.488235 -26.737341 4.318218
5.799250 -3.738794 -1.092851
6.855640 -4.423241 -1.001766
8.467002 -5.464980 -0.881667
11.326122 -7.315985 -0.706640
17.495604 -11.309753 -0.363638
3.924250 -2.544545 -1.253202
17.459364 -11.325250 0.363254
4.387592 -2.847159 -1.207537
4.989532 -3.239002 -1.156303
41.478203 -26.936262 4.326934
5.772912 -3.750405 -1.090348
6.850144 -4.453637 -1.003229
41.373631 -26.909437 7.817031
8.449544 -5.495589 -0.881842
11.317254 -7.366371 -0.707687
17.467749 -11.378395 -0.363883
3.912110 -2.556114 -1.252167
17.426420 -11.390501 0.363394
4.361317 -2.851792 -1.203038
4.983125 -3.259623 -1.157447
41.467285 -27.135427 4.335649
5.764743 -3.773779 -1.091287
6.841199 -4.481873 -1.004204
8.435309 -5.528326 -0.882365
11.291471 -7.405831 -0.707687
17.446316 -11.451370 -0.364267
3.908005 -2.572942 -1.253720
17.416616 -11.471062 0.364022
4.356217 -2.870215 -1.204388
4.970077 -3.275917 -1.157066
41.455475 -27.334848 4.344365
5.756482 -3.797142 -1.092226
6.828825 -4.507912 -1.004691
8.424273 -5.563227 -0.883236
11.265552 -7.445201 -0.707687
17.477955 -11.559634 -0.365768
3.898999 -2.586567 -1.253720
17.423120 -11.562749 0.365000
4.355914 -2.891870 -1.207087
4.950435 -3.287815 -1.155158
5.753063 -3.823774 -1.094103
6.819660 -4.536120 -1.005666
8.413095 -5.598117 -0.884108
11.249470 -7.491122 -0.708315
19.114851 -12.738384 -0.400952
3.886734 -2.598014 -1.252684
4.340933 -2.903807 -1.205738
4.937296 -3.303984 -1.154776
41.346416 -27.679014 4.353081
5.731474 -3.838336 -1.092538
6.797188 -4.555477 -1.004691
8.395159 -5.628561 -0.884282
11.229886 -7.534795 -0.708734
19.070269 -12.805030 -0.400952
3.880847 -2.613724 -1.253720
4.337234 -2.923299 -1.207537
4.937128 -3.328881 -1.157447
5.716403 -3.857214 -1.092226
6.800987 -4.592507 -1.007616
8.387016 -5.665637 -0.885502
11.203516 -7.573948 -0.708734
19.131456 -12.943232 -0.403185
3.874897 -2.629424 -1.254755
4.327003 -2.938421 -1.207537
4.920606 -3.342785 -1.156303
41.316963 -28.078978 4.370512
5.707805 -3.880477 -1.093164
6.775068 -4.609519 -1.006153
8.372130 -5.698242 -0.886025
11.170407 -7.608512 -0.708315
18.980412 -12.937851 -0.400952
3.870479 -2.646205 -1.256308
4.311895 -2.950206 -1.206188
4.921868 -3.368811 -1.159356
41.218700 -28.223030 4.370512
5.700744 -3.904843 -1.094416
6.762210 -4.635384 -1.006641
8.348903 -5.725178 -0.885677
11.166835 -7.663280 -0.709780
18.924213 -12.991666 -0.400672
3.862809 -2.660795 -1.256825
4.308507 -2.968912 -1.207987
4.900381 -3.379284 -1.157066
5.691016 -3.925969 -1.095041
6.740268 -4.653273 -1.005666
8.327228 -5.753154 -0.885502
11.147934 -7.704810 -0.710199
18.914930 -13.082671 -0.401440
3.849203 -2.670287 -1.255273
4.302920 -2.987267 -1.209337
4.892373 -3.397756 -1.157829
5.687010 -3.952574 -1.096919
6.740280 -4.688107 -1.008103
8.308105 -5.780736 -0.885502
11.127527 -7.748243 -0.710618
18.869148 -13.148616 -0.401440
3.839858 -2.683707 -1.255273
4.290869 -3.001152 -1.208887
4.883700 -3.417064 -1.158592
5.658615 -3.962205 -1.094103
6.730377 -4.716163 -1.009078
8.296032 -5.815419 -0.886374
11.120033 -7.800801 -0.711874
18.800224 -13.198318 -0.400952
3.835206 -2.700431 -1.256825
4.273995 -3.011621 -1.207087
41.185131 -29.031387 2.640768
4.874952 -3.436352 -1.159356
5.651206 -3.986488 -1.095354
6.726847 -4.748786 -1.011028
8.287074 -5.852388 -0.887594
11.089474 -7.837265 -0.711664
18.760569 -13.268481 -0.401091
3.836786 -2.721626 -1.260449
4.272991 -3.033290 -1.209787
4.869330 -3.457895 -1.160882
5.638866 -4.007333 -1.095667
6.697289 -4.763034 -1.009078
8.284452 -5.893985 -0.889511
11.049033 -7.866660 -0.710827
18.714138 -13.333886 -0.401091
3.820976 -2.730510 -1.258378
4.257621 -3.044787 -1.208437
4.846053 -3.466875 -1.158211
5.631269 -4.031592 -1.096919
6.696758 -4.797945 -1.011516
8.258971 -5.919385 -0.888989
43.987041 -31.538099 10.520827
11.040981 -7.919148 -0.712083
18.667480 -13.399128 -0.401091
3.806717 -2.740444 -1.256825
41.224617 -29.688402 0.886757
4.251710 -3.063047 -1.209787
4.838700 -3.487213 -1.159356
5.621968 -4.054691 -1.097857
6.676751 -4.818968 -1.011028
8.226951 -5.940014 -0.887768
43.876682 -31.691452 10.520827
11.016509 -7.959980 -0.712292
18.636799 -13.475925 -0.401440
3.795564 -2.752581 -1.256308
41.120731 -29.832123 0.886757
4.244147 -3.080159 -1.210687
4.829676 -3.506389 -1.160119
5.618967 -4.082418 -1.100047
6.670368 -4.848084 -1.012491
8.215834 -5.975727 -0.888814
9.832465 -7.156822 -0.637347
18.672836 -13.596508 -0.403185
3.798897 -2.774267 -1.260449
26.356831 -19.254982 0.569751
4.230763 -3.091917 -1.209787
4.821191 -3.524703 -1.160882
5.600616 -4.097530 -1.099109
6.663866 -4.877213 -1.013953
8.212046 -6.014712 -0.890557
9.808679 -7.189387 -0.637347
9.767782 -7.162035 -0.211418
3.789676 -2.786849 -1.260449
9.804844 -7.212918 0.212466
4.228334 -3.111705 -1.212036
4.812638 -3.542999 -1.161645
5.593358 -4.120767 -1.100360
6.637214 -4.893375 -1.012491
8.194206 -6.045706 -0.890906
10.967507 -8.094810 -0.714386
9.742723 -7.196087 -0.211418
3.785644 -2.805322 -1.262519
9.779606 -7.247100 0.212466
4.214316 -3.124124 -1.211136
41.337112 -30.654892 2.697082
4.799620 -3.560615 -1.161645
5.576632 -4.140062 -1.100047
6.626467 -4.921248 -1.013466
8.176251 -6.076649 -0.891255
10.940969 -8.137338 -0.714595
18.583179 -13.826264 -0.404302
3.764992 -2.810429 -1.258896
9.748172 -7.279305 0.212361
4.212204 -3.146547 -1.213836
4.782444 -3.573821 -1.160500
5.570055 -4.165418 -1.101612
6.621100 -4.955018 -1.015416
8.150205 -6.101571 -0.890732
10.918891 -8.180270 -0.715014
40.614525 -30.438858 11.717701
3.752071 -2.821233 -1.257861
9.709596 -7.300776 0.212047
4.203304 -3.161669 -1.214286
4.782488 -3.599939 -1.163553
5.545166 -4.175548 -1.099422
6.607802 -4.979336 -1.015903
8.135221 -6.134781 -0.891429
10.904461 -8.226056 -0.715851
40.553806 -30.603895 11.729398
18.594728 -14.037590 -0.406676
3.739614 -2.831327 -1.256825
9.685644 -7.335831 0.212082
4.184476 -3.170438 -1.212036
41.178452 -31.199539 2.707549
4.770524 -3.615778 -1.163553
5.539999 -4.202042 -1.101299
6.593543 -5.004772 -1.016390
8.125939 -6.170159 -0.892649
10.859778 -8.251986 -0.714805
40.542919 -30.818386 11.757292
3.734317 -2.847878 -1.258378
9.659676 -7.366697 0.212047
4.180137 -3.189025 -1.213836
40.910522 -31.221922 2.697082
4.757874 -3.632409 -1.163553
5.522895 -4.217992 -1.100673
6.570602 -5.021788 -1.015416
8.109099 -6.202117 -0.893172
10.857733 -8.307370 -0.716479
40.499302 -30.997669 11.774388
10.744230 -8.226476 -0.236201
3.735578 -2.868482 -1.262002
9.627559 -7.395497 0.211907
4.168980 -3.203597 -1.213836
40.801289 -31.364536 2.697082
4.738940 -3.644207 -1.162027
5.515967 -4.243267 -1.102237
6.562471 -5.051959 -1.016878
8.088980 -6.231602 -0.893346
10.811395 -8.334915 -0.715433
3.720455 -2.878608 -1.260449
9.597226 -7.428287 0.211837
4.163373 -3.223628 -1.215636
4.722448 -3.659147 -1.161264
5.511306 -4.271926 -1.104427
6.550184 -5.080843 -1.017853
8.072380 -6.266094 -0.894044
9.553640 -7.421252 -0.633998
10.661404 -8.284743 -0.235677
3.699215 -2.883910 -1.256825
9.557321 -7.453574 0.211558
4.151530 -3.238866 -1.215636
4.723575 -3.686480 -1.164698
5.492498 -4.289665 -1.103802
6.544923 -5.113454 -1.019803
8.058306 -6.300370 -0.894915
9.515094 -7.444710 -0.633160
10.605649 -8.300956 -0.235084
3.700269 -2.904511 -1.260449
4.130039 -3.244188 -1.212486
4.708237 -3.699697 -1.163935
5.481348 -4.310298 -1.104427
6.527930 -5.135129 -1.019803
8.042066 -6.330754 -0.895438
9.440942 -7.439966 -0.209813
3.695163 -2.920359 -1.262002
3.954182 -3.127310 -1.163897
4.702101 -3.720163 -1.165461
5.473219 -4.333356 -1.105679
6.500629 -5.150489 -1.018340
8.041327 -6.373477 -0.897704
40.339901 -32.007420 11.888663
9.449372 -7.500226 -0.210581
3.683435 -2.932037 -1.261484
3.854835 -3.070671 -1.137802
4.679874 -3.729213 -1.163172
5.456515 -4.351203 -1.105366
6.479508 -5.170672 -1.017853
8.017473 -6.400264 -0.897530
40.294914 -32.201565 11.908459
10.444636 -8.349789 -0.233408
3.667150 -2.940042 -1.259413
40.641853 -32.595219 0.909375
3.865373 -3.101181 -1.144101
4.669891 -3.747983 -1.163935
5.445914 -4.373934 -1.106305
6.479988 -5.208182 -1.020778
8.122857 -6.535614 -0.546387
40.267277 -32.410450 11.933654
9.340709 -7.520865 -0.209324
3.653858 -2.950399 -1.258378
3.839367 -3.102407 -1.139602
4.655252 -3.763027 -1.163553
5.435221 -4.396644 -1.107243
6.458683 -5.228271 -1.020290
7.583953 -6.141364 -0.853778
40.226562 -32.609715 11.955249
8.682256 -7.040794 -0.195118
3.650513 -2.969866 -1.260966
3.809835 -3.101694 -1.134203
4.642951 -3.781304 -1.163935
5.419069 -4.416536 -1.107243
6.464089 -5.271983 -1.024190
7.964317 -6.497854 -0.899273
40.206387 -32.838291 11.984942
3.638630 -2.981367 -1.260449
3.780902 -3.100146 -1.128804
3.778158 -3.098999 -0.949847
3.803452 -3.121968 -0.779357
3.794536 -3.117976 -0.429678
3.725585 -3.063498 -0.252783
3.632670 -2.997739 -1.262002
3.742739 -3.089667 0.084714
3.755031 -3.100916 -1.124305
3.697600 -3.053489 0.251317
3.746127 -3.094663 -0.944505
3.739739 -3.090485 0.424448
3.740767 -3.092432 -0.768719
3.700491 -3.060225 0.589604
3.781023 -3.127934 -0.602522
3.709245 -3.068555 0.762462
3.722232 -3.080392 -0.422705
3.709615 -3.071042 0.936109
3.711792 -3.073936 -0.252573
3.636105 -3.012326 1.090113
3.712703 -3.075783 -0.084155
3.638284 -3.015202 1.266143
3.614756 -3.004227 -1.259413
3.680185 -3.058604 0.083527
3.738734 -3.108368 -1.122506
3.680776 -3.061269 0.250899
3.708136 -3.085119 -0.937635
3.695238 -3.075480 0.420614
3.697088 -3.077020 -0.761836
3.665914 -3.052157 0.585704
3.706565 -3.087098 -0.592285
3.652982 -3.043550 0.753076
3.686969 -3.072956 -0.419916
3.663216 -3.053159 0.926950
3.689306 -3.075996 -0.251736
3.629089 -3.026864 1.091013
3.689660 -3.078475 -0.083876
3.611422 -3.014266 1.260449
3.584031 -2.998841 -1.252167
3.648018 -3.053463 0.083039
3.709931 -3.106387 -1.117107
3.667006 -3.071534 0.250689
3.697885 -3.097399 -0.937635
3.657531 -3.064684 0.417476
3.698436 -3.100058 -0.764339
3.643069 -3.054731 0.583754
3.686641 -3.092363 -0.590823
3.630230 -3.046125 0.750573
3.671641 -3.081965 -0.419393
3.634491 -3.050781 0.922371
3.670898 -3.082434 -0.251213
3.611041 -3.033247 1.088763
3.654396 -3.070753 -0.083318
3.589047 -3.016910 1.256308
3.590741 -3.026899 -1.258378
3.634279 -3.063601 0.082969
3.693106 -3.114293 -1.115307
3.637943 -3.068862 0.249433
3.698511 -3.121061 -0.940688
3.634094 -3.067787 0.416081
3.671956 -3.100847 -0.761210
3.617217 -3.054622 0.581317
3.666726 -3.097527 -0.589360
3.619575 -3.058778 0.750573
3.654775 -3.089617 -0.418696
3.614290 -3.056475 0.920081
3.648902 -3.086838 -0.250480
3.602874 -3.048979 1.089663
3.658920 -3.096408 -0.083667
3.587342 -3.036909 1.259413
3.581625 -3.040665 -1.258896
3.619978 -3.074311 0.082899
3.699489 -3.142949 -1.120706
3.629714 -3.084762 0.249643
3.690586 -3.136495 -0.941452
3.617291 -3.075292 0.415384
3.685187 -3.134122 -0.766216
3.612045 -3.073004 0.582292
3.670466 -3.123811 -0.591798
3.623381 -3.084830 0.753701
3.663689 -3.119147 -0.420962
3.609578 -3.074165 0.921608
3.644186 -3.104737 -0.250899
3.578861 -3.050160 1.085614
3.647546 -3.109798 -0.083667
3.577657 -3.051290 1.259931
3.578331 -3.059425 -1.261484
3.630500 -3.105126 0.083388
3.697380 -3.163445 -1.123406
3.624994 -3.102608 0.250061
3.700497 -3.167231 -0.946794
3.645884 -3.121591 0.419916
3.698228 -3.167526 -0.771222
3.631445 -3.111426 0.587167
3.677626 -3.152106 -0.594722
3.603593 -3.089744 0.751824
3.673954 -3.150072 -0.423403
3.622668 -3.107196 0.927713
3.654547 -3.135647 -0.252364
3.588894 -3.080403 1.091912
3.694322 -3.172013 -0.084993
3.578707 -3.073830 1.264072
3.560311 -3.065595 -1.258896
3.677214 -3.167372 0.084714
3.709935 -3.196685 -1.130604
3.638894 -3.135472 0.251736
3.656090 -3.152513 0.422357
5.314581 -4.584187 -1.111623
3.659638 -3.157801 0.593504
6.417517 -5.537498 -1.040764
3.635197 -3.137818 0.760584
7.825021 -6.756760 -0.904502
3.647458 -3.150623 0.936872
10.516662 -9.087352 -0.728412
7.916728 -6.843187 -0.182657
3.597721 -3.110952 1.274425
3.558883 -3.084976 -1.262002
3.737588 -3.242170 -1.142301
4.543331 -3.942502 -1.169278
5.291892 -4.595309 -1.110059
6.300210 -5.472829 -1.024678
7.811594 -6.790515 -0.905548
9.124238 -7.937172 -0.633788
7.866839 -6.845773 -0.182029
3.541356 -3.090410 -1.259413
3.732688 -3.259674 -1.144101
4.536146 -3.962713 -1.170804
5.279599 -4.615433 -1.110685
6.284056 -5.497402 -1.025165
7.789033 -6.816382 -0.905548
8.409705 -7.364733 -0.585849
9.498701 -8.324273 -0.220459
3.536351 -3.107854 -1.261484
8.808284 -7.743716 0.204717
3.706653 -3.259814 -1.139602
4.516390 -3.973336 -1.169278
5.273835 -4.642972 -1.112875
6.258871 -5.514054 -1.024190
7.777150 -6.854067 -0.906943
8.344999 -7.359695 -0.583127
7.261115 -6.408295 -0.169044
3.535607 -3.129142 -1.265108
3.698169 -3.275317 -1.140502
4.502493 -3.989077 -1.169278
5.259074 -4.662662 -1.113188
6.242555 -5.538503 -1.024678
7.753467 -6.883850 -0.907117
9.433271 -8.378195 -0.661213
3.511138 -3.130509 -1.260449
8.989837 -8.015283 0.210232
3.884502 -3.464615 -1.201689
4.493701 -4.010781 -1.170804
5.239002 -4.679275 -1.112562
6.235026 -5.570841 -1.026627
7.723449 -6.905560 -0.906420
9.354871 -8.370097 -0.657863
8.950592 -8.011189 -0.209673
3.504501 -3.146618 -1.262002
3.948604 -3.547859 -1.225533
4.476753 -4.023818 -1.170041
5.224105 -4.698854 -1.112875
6.220468 -5.598968 -1.027602
7.714103 -6.945809 -0.908163
7.223071 -6.508249 -0.509543
11.674597 -10.526624 -0.274387
3.500661 -3.165310 -1.264590
3.930415 -3.556390 -1.223734
4.477236 -4.052596 -1.173857
5.219384 -4.727671 -1.115378
6.200885 -5.620647 -1.027602
7.694239 -6.976709 -0.908686
39.729042 -36.036732 10.426186
8.944180 -8.115778 -0.632951
10.447504 -9.486516 -0.246323
3.499589 -3.186615 -1.268213
3.913656 -3.566151 -1.222384
4.458710 -4.064231 -1.172712
5.205769 -4.748524 -1.116004
6.181228 -5.642258 -1.027602
7.678667 -7.011585 -0.909732
10.298799 -9.410690 -0.731133
9.863972 -9.016520 -0.233269
3.479901 -3.190977 -1.265108
3.900373 -3.577792 -1.221934
7.279963 -6.680212 0.517812
4.438710 -4.074460 -1.171186
5.188538 -4.764424 -1.115691
6.162484 -5.662725 -1.027602
21.650202 -19.901407 4.657681
7.181902 -6.604097 -0.853603
10.167579 -9.352844 -0.724016
3.463622 -3.197258 -1.263037
9.906357 -9.147727 0.235363
3.897880 -3.600641 -1.225083
4.432384 -4.095819 -1.173094
5.177677 -4.787871 -1.116942
6.145594 -5.686899 -1.028090
7.635376 -7.070436 -0.910429
39.609383 -36.678696 10.493351
9.790545 -9.069318 -0.699418
3.454710 -3.212562 -1.264072
3.888142 -3.616880 -1.225983
4.414468 -4.109362 -1.172330
21.283735 -19.819641 2.544425
5.157203 -4.804123 -1.116316
6.128609 -5.711022 -1.028577
7.613564 -7.099763 -0.910778
39.578049 -36.920044 10.520827
6.569562 -6.130505 -0.470919
8.775008 -8.191421 -0.209534
3.456166 -3.236486 -1.268731
3.869171 -3.625776 -1.224184
4.411555 -4.135487 -1.175383
5.141842 -4.823447 -1.116629
6.127899 -5.752467 -1.031990
7.617783 -7.153575 -0.914264
39.546230 -37.149376 10.546777
9.980103 -9.378497 -0.717735
8.752190 -8.227481 -0.209673
3.436415 -3.240579 -1.265625
3.855709 -3.637250 -1.223734
7.145310 -6.742824 0.514881
4.397093 -4.150861 -1.175383
5.125819 -4.840472 -1.116629
6.091476 -5.756395 -1.029065
20.976898 -19.829933 4.571954
7.589870 -7.177383 -0.913915
39.516972 -37.369339 10.571963
9.603628 -9.084876 -0.692823
8.796027 -8.326718 -0.211418
3.434056 -3.259937 -1.268731
3.842989 -3.650686 -1.223734
7.157664 -6.799496 0.517393
4.381881 -4.164068 -1.175002
5.123207 -4.871947 -1.119758
6.074221 -5.780360 -1.029552
6.550105 -6.235401 -0.791200
8.744678 -8.330355 -0.632951
9.440072 -8.995944 -0.227614
3.415674 -3.265229 -1.266143
3.844946 -3.676878 -1.228233
4.371574 -4.183410 -1.176147
20.675983 -19.792950 2.504159
5.104168 -4.886178 -1.119132
7.539932 -7.220436 1.281822
6.066487 -5.811458 -1.031502
20.721630 -19.857449 4.545673
7.552346 -7.239910 -0.915310
8.708357 -8.351013 -0.632323
11.092381 -10.644646 -0.268348
3.407611 -3.279217 -1.267178
3.830684 -3.688926 -1.227783
6.882753 -6.630366 0.500855
4.368989 -4.208780 -1.179200
20.590149 -19.842049 2.501718
5.087081 -4.903965 -1.119132
6.051879 -5.838110 -1.032477
20.547003 -19.828154 4.522521
7.536899 -7.273216 -0.916355
7.926317 -7.654356 -0.577475
11.055157 -10.683300 -0.268348
3.397531 -3.292436 -1.267696
7.131574 -6.913390 0.173372
3.812188 -3.696848 -1.225983
6.558521 -6.362310 0.478874
4.351452 -4.221271 -1.178436
5.067097 -4.918940 -1.118507
6.040007 -5.867499 -1.033940
6.928831 -6.733289 1.530242
7.520038 -7.307811 -0.917401
39.372433 -38.274647 10.673474
7.686204 -7.474507 -0.561879
11.036427 -10.739954 -0.268802
3.388783 -3.306974 -1.268731
7.098814 -6.929861 0.173163
3.797866 -3.708772 -1.225533
6.513412 -6.362834 0.477199
4.342309 -4.241922 -1.179963
5.049896 -4.936598 -1.118507
6.022326 -5.891324 -1.034427
20.170889 -19.739004 4.469959
7.496050 -7.338112 -0.917750
7.648651 -7.490111 -0.561041
3.380772 -3.323436 -1.270284
7.162995 -7.041512 0.175327
3.796013 -3.732937 -1.229133
6.135209 -6.035371 0.451031
4.304343 -4.235776 -1.173857
6.867832 -6.760791 0.843145
5.043029 -4.966162 -1.121009
6.442639 -6.344439 1.110230
5.998897 -5.909523 -1.033940
7.484578 -7.378220 -0.919493
7.594727 -7.489418 2.073331
7.713567 -7.609266 -0.567845
3.363659 -3.329780 -1.268213
3.778152 -3.742710 -1.227783
6.136807 -6.079240 0.452706
4.300687 -4.261831 -1.176910
7.045115 -6.983901 0.867897
5.028468 -4.986517 -1.121635
6.441890 -6.390378 1.114130
5.985651 -5.939860 -1.035402
7.368283 -7.314467 -0.908337
7.499921 -7.450344 -0.554029
3.356120 -3.345593 -1.269766
3.768480 -3.757971 -1.228683
6.112721 -6.097803 0.452497
4.291343 -4.282364 -1.178436
6.676639 -6.664997 0.825365
5.006312 -4.997582 -1.120384
6.378524 -6.369625 1.106817
5.971539 -5.965288 -1.036377
7.218707 -7.216187 -0.892998
7.493534 -7.493534 -0.555389
3.350461 -3.362177 -1.271837
3.751214 -3.766960 -1.227333
6.187216 -6.215356 0.459614
4.279889 -4.299354 -1.179200
6.707905 -6.740766 0.831989
4.994410 -5.020629 -1.121635
7.238093 -7.278631 1.260373
5.953479 -5.988913 -1.036864
7.085194 -7.129852 -0.879401
7.375854 -7.427527 -0.548586
10.923371 -11.007580 -0.270687
3.340064 -3.375225 -1.272354
3.739412 -3.781417 -1.227783
6.114934 -6.185781 0.455846
4.275897 -4.325437 -1.182253
6.731949 -6.812324 0.837915
4.979630 -5.040843 -1.122261
6.372956 -6.453548 1.113642
5.943694 -6.020959 -1.038814
6.937111 -7.029744 -0.864062
7.225071 -7.326662 -0.539270
10.884881 -11.045643 -0.270687
3.333678 -3.392375 -1.274425
3.733017 -3.801399 -1.230032
6.048532 -6.161480 0.452497
4.247018 -4.326326 -1.178436
6.805814 -6.935324 0.850117
4.973071 -5.069476 -1.124764
5.914302 -6.033165 -1.037352
6.837228 -6.977073 -0.854649
7.119799 -7.270499 -0.533303
11.165142 -11.409431 -0.278645
3.319117 -3.401226 -1.273390
3.722446 -3.817197 -1.230932
6.036747 -6.192567 0.453229
4.234632 -4.343936 -1.179200
6.636950 -6.810640 0.831989
4.959480 -5.091049 -1.125703
6.851250 -7.035461 1.205775
5.907054 -6.067997 -1.039789
6.715565 -6.900945 -0.842447
7.037287 -7.236601 -0.529012
9.419459 -9.693010 -0.235922
3.305881 -3.411404 -1.272872
3.707743 -3.828767 -1.230482
5.994255 -6.192076 0.451659
4.230367 -4.369976 -1.182253
5.734710 -5.926034 0.721475
4.932064 -5.098391 -1.123512
6.857010 -7.090728 1.211138
5.891356 -6.094288 -1.040764
5.838127 -6.041336 1.330632
6.644361 -6.875632 -0.836521
38.996475 -40.367920 10.910077
6.977299 -7.225204 -0.526395
9.352241 -9.691298 -0.235084
3.291273 -3.420139 -1.271837
11.322248 -11.769668 0.285068
3.691654 -3.838877 -1.229582
6.037659 -6.280635 0.456579
4.209645 -4.379055 -1.180726
4.914238 -5.115575 -1.123512
5.872796 -6.117680 -1.041252
5.885389 -6.132941 1.346275
6.523753 -6.798155 -0.824319
38.936871 -40.588806 10.932975
6.940976 -7.237983 -0.525558
9.382000 -9.790297 -0.236690
3.283319 -3.435796 -1.273390
3.684961 -3.858787 -1.231832
5.993634 -6.278557 0.454904
4.199756 -4.399403 -1.182253
6.485487 -6.796167 0.821879
4.904532 -5.141274 -1.125390
6.823780 -7.155665 1.214063
5.843187 -6.129521 -1.039789
5.877574 -6.167748 1.349404
6.439507 -6.757423 -0.816649
38.870781 -40.804081 10.954345
6.903273 -7.249150 -0.524616
11.327329 -11.903182 -0.286813
3.277954 -3.454243 -1.275978
7.043628 -7.425031 0.178643
3.671468 -3.871626 -1.231832
5.970307 -6.297991 0.454800
4.178971 -4.408337 -1.180726
6.143778 -6.483249 0.781438
4.889273 -5.161232 -1.126015
5.859683 -6.187781 1.046370
5.838132 -6.167180 -1.042714
5.850577 -6.182487 1.348152
6.344667 -6.704607 -0.807585
38.814461 -41.030792 10.978768
6.785983 -7.175975 -0.517603
9.258484 -9.797421 -0.235293
3.259252 -3.458635 -1.273390
7.021781 -7.453939 0.178748
3.665948 -3.892931 -1.234531
5.852173 -6.214519 0.447368
4.160866 -4.420039 -1.179963
5.910836 -6.281207 0.754594
4.879348 -5.186900 -1.127893
5.820369 -6.189398 -1.043202
5.735335 -6.101106 1.326252
6.274837 -6.677350 -0.801659
38.805424 -41.309120 11.016931
6.706204 -7.141382 -0.513416
11.224145 -11.956681 -0.286254
3.246445 -3.468013 -1.272872
10.937548 -11.688118 0.279413
3.653018 -3.905066 -1.234531
6.119425 -6.541648 0.469454
4.160936 -4.449585 -1.184161
6.001543 -6.420124 0.768888
4.862121 -5.203052 -1.127893
7.164393 -7.669442 1.288647
5.810653 -6.220270 -1.045152
5.871463 -6.287567 1.362544
6.181962 -6.622386 -0.792594
6.596730 -7.069177 1.879469
6.709733 -7.192790 -0.515509
17.253296 -18.501896 -0.441581
3.244136 -3.488663 -1.276496
10.947742 -11.777051 0.280670
3.638722 -3.915730 -1.234081
6.031306 -6.492731 0.464429
4.148830 -4.466237 -1.184924
6.069699 -6.536349 0.780393
4.844841 -5.219146 -1.127893
6.623116 -7.137306 1.195538
5.797005 -6.249247 -1.046614
6.100358 -6.578569 -0.784925
6.583928 -7.102531 1.882522
6.733357 -7.266275 -0.519173
10.952286 -11.827394 -0.281368
3.238491 -3.507062 -1.279084
11.082894 -12.006210 0.285207
3.622388 -3.925544 -1.233182
6.539453 -7.089219 0.505461
4.142533 -4.490792 -1.187595
5.895574 -6.393449 0.760870
4.826592 -5.236026 -1.127893
6.552424 -7.110748 1.187251
5.780535 -6.275285 -1.047589
7.114677 -7.726321 1.663524
5.888410 -6.394632 -0.760521
6.680904 -7.260341 -0.517079
11.124795 -12.098123 -0.286883
3.221007 -3.512650 -1.277013
11.648971 -12.708166 0.300914
3.615246 -3.945349 -1.235431
6.120738 -6.681954 0.474897
4.113571 -4.490748 -1.183779
5.924351 -6.469828 0.767493
4.816288 -5.261585 -1.129770
6.892067 -7.531921 1.253548
5.763955 -6.301283 -1.048564
6.989021 -7.643230 1.640372
5.888910 -6.440144 -0.763484
6.638006 -7.264450 -0.515719
10.912598 -11.950818 -0.282485
3.208726 -3.523872 -1.277013
6.532517 -7.176627 0.169393
3.605386 -3.962268 -1.236781
6.578501 -7.232213 0.512369
4.100513 -4.507985 -1.184542
5.872243 -6.458037 0.763659
4.795236 -5.275442 -1.129144
5.736585 -6.315487 -1.047589
7.036662 -7.749477 1.657893
5.776656 -6.361833 -0.751805
6.613951 -7.289056 -0.515823
6.304091 -6.950005 2.166279
11.238861 -12.394737 -0.292049
3.187336 -3.525020 -1.273390
6.495359 -7.186034 0.169079
3.588921 -3.971937 -1.235881
6.531795 -7.231418 0.510694
4.093963 -4.532469 -1.187214
5.804266 -6.428217 0.757732
4.783410 -5.299479 -1.130708
6.623885 -7.341094 1.214063
5.727800 -6.350214 -1.050026
6.091538 -6.755848 1.440762
5.723728 -6.347926 -0.747796
6.497264 -7.208349 1.886338
6.601836 -7.326937 -0.516870
10.911859 -12.118849 -0.284649
3.182756 -3.544749 -1.276496
6.482256 -7.222057 0.169393
3.569828 -3.978638 -1.234081
6.757226 -7.533696 0.530373
4.079428 -4.548193 -1.187595
5.779132 -6.445472 0.757383
4.762245 -5.313202 -1.130083
6.616764 -7.384870 1.217475
5.713545 -6.379040 -1.051489
5.496045 -6.138362 1.304976
5.733430 -6.403491 -0.751980
5.542432 -6.192345 1.615389
7.018363 -7.844100 -0.551621
10.802847 -12.082327 -0.282904
3.175506 -3.561605 -1.278566
6.470313 -7.259568 0.169742
3.557215 -3.992531 -1.234531
5.410481 -6.074724 0.426329
4.066139 -4.565337 -1.188358
5.886436 -6.611436 0.774466
4.746296 -5.332745 -1.130708
6.519692 -7.327836 1.204313
5.685967 -6.393013 -1.050514
6.388109 -7.184992 1.522733
5.712367 -6.424954 -0.752154
5.497306 -6.185239 1.608520
6.986959 -7.864071 -0.551307
6.268495 -7.057894 2.179326
16.928869 -19.067444 -0.445071
6.740057 -7.594178 2.720706
3.173299 -3.584240 -1.282707
3.551005 -4.013680 -1.237231
6.492760 -7.341311 0.513625
4.039773 -4.567739 -1.185306
5.823731 -6.587162 0.769237
4.738117 -5.361121 -1.133211
6.536133 -7.398154 1.212113
5.642591 -6.389015 -1.046614
5.434755 -6.155850 1.300596
5.684631 -6.438880 -0.751457
5.525048 -6.260326 1.623021
7.020248 -7.957306 -0.556122
6.279912 -7.120656 2.191923
