# This PCD file was generated using the MATLAB® pcwrite function
# from Computer Vision Toolbox®.
# .PCD v.7 - Point Cloud Data file format
VERSION .7
FIELDS x y z
SIZE 4 4 4
TYPE F F F
COUNT 1 1 1
WIDTH 1602
HEIGHT 1
VIEWPOINT 0 0 0 1 0 0 0
POINTS 1602
DATA ascii
-4.722950 -8.516923 0.852035
-0.616941 -1.112534 -0.201488
-4.722541 -8.512681 1.195295
-4.821319 -8.687162 -1.219912
-4.726358 -8.512552 1.542131
-4.733732 -8.522332 -0.852906
-4.696921 -8.456061 1.880232
-4.727389 -8.507416 -0.510066
-4.708683 -8.470267 2.237363
-4.731269 -8.507403 -0.169917
-4.703679 -8.454319 2.592332
-0.440526 -0.789522 -0.242255
-4.751451 -8.512183 0.170161
-0.544418 -0.974919 -0.257794
-4.755910 -8.516679 0.511218
-0.622371 -1.114058 -0.248052
-4.757972 -8.513389 0.853255
-0.624677 -1.117270 -0.202739
-4.767732 -8.523865 1.199194
-4.865185 -8.694532 -1.223325
-4.764205 -8.514071 1.545260
-4.763914 -8.510065 -0.853255
-4.732165 -8.449892 1.882522
-4.766820 -8.508288 -0.511113
-4.747748 -8.470779 2.241862
-4.769233 -8.509111 -0.170266
-4.738302 -8.450468 2.595955
-0.452751 -0.804817 -0.247431
-4.787496 -8.510323 0.170440
-0.547648 -0.973109 -0.257794
-4.794428 -8.515688 0.512160
-0.622402 -1.105036 -0.246525
-4.797441 -8.514086 0.854998
-0.630318 -1.118634 -0.203365
-4.789148 -8.495903 1.197488
-4.892041 -8.674893 -1.222837
-4.798749 -8.505992 1.546824
-4.805341 -8.514204 -0.855346
-4.767881 -8.447831 1.885575
-4.798936 -8.499390 -0.511532
-4.778687 -8.460078 2.243212
-4.808743 -8.509821 -0.170615
-4.775377 -8.447330 2.600096
-0.466994 -0.823396 -0.253643
-4.824577 -8.503155 0.170650
-0.552172 -0.972790 -0.258244
-4.826095 -8.502377 0.512369
-0.630133 -1.109686 -0.248052
-4.830084 -8.502485 0.855521
-0.637342 -1.121469 -0.204303
-4.833010 -8.500726 1.200657
-4.929692 -8.667257 -1.224300
-4.840131 -8.509794 1.550579
-4.837989 -8.502575 -0.855869
-4.809495 -8.449067 1.889772
-4.835986 -8.492157 -0.512160
-4.812558 -8.447588 2.244562
-4.845349 -8.505147 -0.170859
-4.815357 -8.449073 2.605790
-0.458359 -0.801637 -0.247431
-4.864657 -8.507941 0.171068
-0.557330 -0.974337 -0.259144
-4.863682 -8.499345 0.513206
-0.628151 -1.097257 -0.245762
-4.871615 -8.506319 0.857612
-0.633204 -1.105636 -0.201800
-4.869068 -8.498431 1.202607
-4.974201 -8.678418 -1.228199
-4.871772 -8.496275 1.551204
-4.876561 -8.501188 -0.857438
-4.845302 -8.446695 1.892825
-4.876050 -8.496861 -0.513416
-4.845396 -8.440032 2.246811
-4.879987 -8.496851 -0.171034
-4.849632 -8.440587 2.608378
-0.466801 -0.810156 -0.250537
-4.903316 -8.506499 0.171383
-0.562675 -0.975761 -0.260043
-4.896313 -8.487507 0.513520
-0.634729 -1.100269 -0.246907
-4.899797 -8.490118 0.857612
-0.638047 -1.105129 -0.202113
-4.906644 -8.495137 1.204557
-5.012410 -8.674753 -1.230149
-4.909308 -8.492898 1.553707
-4.910196 -8.491014 -0.858135
-4.886551 -8.450125 1.897405
-4.913681 -8.493618 -0.514253
-4.892398 -8.453426 2.254909
-4.915629 -8.490149 -0.171243
-4.877130 -8.420264 2.607343
-0.469767 -0.808439 -0.250537
-4.935992 -8.494519 0.171487
-0.566078 -0.973791 -0.260043
-4.937961 -8.491080 0.514777
-0.642706 -1.104723 -0.248433
-4.940902 -8.489323 0.859356
-0.641099 -1.101076 -0.201800
-4.944261 -8.491680 1.206507
-5.046654 -8.664065 -1.231124
-4.945884 -8.487658 1.555897
-4.945826 -8.484149 -0.859181
-4.918478 -8.433854 1.897786
-4.958869 -8.499703 -0.515719
-4.923348 -8.435438 2.254909
-4.952291 -8.485027 -0.171487
-4.917208 -8.421539 2.613037
-0.482351 -0.823464 -0.255713
-4.970125 -8.481547 0.171592
-0.570629 -0.973391 -0.260493
-4.973089 -8.479818 0.515195
-0.650531 -1.109247 -0.249960
-4.985629 -8.497801 0.861970
-0.646938 -1.102239 -0.202426
-4.978364 -8.478638 1.207238
-5.092454 -8.669472 -1.234537
-4.987969 -8.488207 1.559339
-4.983485 -8.480577 -0.860576
-4.948884 -8.418327 1.898168
-4.991547 -8.487508 -0.516033
-4.956715 -8.424920 2.256709
-4.995530 -8.487499 -0.171906
-4.944120 -8.396801 2.610967
-0.469507 -0.795159 -0.247431
-5.009871 -8.481364 0.171941
-0.569066 -0.963005 -0.258244
-5.009773 -8.474442 0.515928
-0.652401 -1.103590 -0.249197
-5.016275 -8.482061 0.862145
-0.648770 -1.096574 -0.201800
-5.017031 -8.476583 1.209432
-5.027638 -8.487740 1.562468
-5.012044 -8.461413 -0.860402
-4.997253 -8.433092 1.905419
-5.024196 -8.475187 -0.516347
-4.985101 -8.405890 2.256259
-5.033289 -8.483768 -0.172185
-4.986217 -8.401090 2.617696
-0.482160 -0.810116 -0.252607
-5.047631 -8.477570 0.172220
-0.581399 -0.976081 -0.262293
-5.048069 -8.474941 0.516975
-0.656249 -1.101306 -0.249197
-5.058096 -8.485036 0.864236
-0.658665 -1.104482 -0.203678
-5.056759 -8.476066 1.211869
-4.801868 -8.045630 -1.150447
-5.055755 -8.471022 1.562468
-4.827057 -8.084627 -0.823796
-5.036727 -8.432451 1.909235
-5.034409 -8.421891 2.265257
-5.063446 -8.470465 -0.172255
-5.023964 -8.401089 2.622872
-0.473059 -0.788548 -0.246396
-5.086004 -8.477933 0.172569
-0.583630 -0.972476 -0.261843
-5.087903 -8.474391 0.518021
-0.662111 -1.102374 -0.249960
-5.090762 -8.472451 0.864759
-0.666393 -1.109065 -0.204929
-5.090976 -8.469460 1.213331
-4.846936 -8.060283 -1.154834
-5.091403 -8.463477 1.564345
-4.826483 -8.019931 -0.818915
-5.072762 -8.429160 1.912288
-4.838652 -8.036975 -0.491644
-5.070353 -8.418504 2.268856
-5.103302 -8.469866 -0.172604
-5.067221 -8.406664 2.630119
-0.481667 -0.796895 -0.249502
-5.117636 -8.463550 0.172639
-0.589038 -0.973768 -0.262743
-5.125725 -8.470250 0.518859
-0.667796 -1.103532 -0.250723
-5.128116 -8.470862 0.866328
-0.670260 -1.106732 -0.204929
-5.133881 -8.473707 1.216500
-4.864752 -8.026338 -1.152397
-5.137302 -8.472680 1.569351
-4.852018 -8.002176 -0.818741
-5.100118 -8.408044 1.911525
-4.869785 -8.025160 -0.491958
-5.107798 -8.414080 2.272455
-5.139064 -8.462255 -0.172814
-5.102553 -8.398830 2.633225
-0.480425 -0.788610 -0.247431
-5.155474 -8.459295 0.172918
-0.586347 -0.961723 -0.260043
-5.169821 -8.476177 0.520324
-0.675733 -1.107898 -0.252250
-5.166994 -8.468217 0.867897
-0.670003 -1.097641 -0.203678
-5.170671 -8.467594 1.218206
-4.907228 -8.033024 -1.155809
-5.173027 -8.464808 1.571228
-4.892389 -8.005591 -0.820833
-5.143774 -8.413640 1.916867
-4.895685 -8.004704 -0.491749
-5.151377 -8.419472 2.278754
-5.176923 -8.457910 -0.173093
-5.145963 -8.404034 2.640472
-0.501370 -0.816561 -0.256748
-5.197528 -8.461696 0.173337
-0.587660 -0.956349 -0.259144
-5.196238 -8.452976 0.520010
-0.677540 -1.102188 -0.251486
-5.204872 -8.463707 0.869291
-0.675901 -1.098661 -0.204303
-5.202278 -8.452875 1.218693
-5.304706 -8.615934 -1.242336
-5.209795 -8.458473 1.573418
-5.118830 -8.310786 -0.853952
-5.181350 -8.409004 1.919920
-4.930933 -7.999467 -0.492481
-5.188918 -8.414709 2.282353
-5.223214 -8.467018 -0.173651
-5.187443 -8.405747 2.646684
-0.498118 -0.804950 -0.253643
-5.238612 -8.462203 0.173721
-0.599203 -0.967547 -0.262743
-5.235181 -8.450066 0.520952
-0.683451 -1.103154 -0.252250
-5.244881 -8.462421 0.871035
-0.688059 -1.109725 -0.206806
-5.243263 -8.453221 1.221375
-5.353589 -8.627728 -1.246724
-5.249705 -8.457020 1.576547
-5.293866 -8.528162 -0.878181
-5.216886 -8.400874 1.922210
-5.260255 -8.467415 -0.522418
-5.220316 -8.399855 2.283253
-5.258017 -8.457225 -0.173826
-5.219813 -8.392509 2.648237
-0.498880 -0.799928 -0.252607
-5.277645 -8.459135 0.174035
-0.604640 -0.968755 -0.263643
-5.280092 -8.459768 0.522627
-0.685218 -1.097431 -0.251486
-5.276497 -8.447443 0.871383
-0.690882 -1.105641 -0.206494
-5.286415 -8.456750 1.224543
-5.388481 -8.620028 -1.248186
-5.279816 -8.442915 1.577173
-5.283451 -8.445445 -0.871557
-5.256595 -8.399255 1.926026
-5.298257 -8.462545 -0.523255
-5.256414 -8.395712 2.286852
-5.286034 -8.439742 -0.173826
-5.242486 -8.366968 2.645648
-0.499475 -0.794997 -0.251572
-5.309924 -8.448359 0.174175
-0.609924 -0.970044 -0.264542
-5.313432 -8.450666 0.523150
-0.693035 -1.101800 -0.253013
-5.310847 -8.440017 0.872429
-0.690335 -1.096658 -0.205242
-5.320777 -8.449252 1.226006
-5.427615 -8.618909 -1.250623
-5.320420 -8.445416 1.580927
-5.322050 -8.444735 -0.873301
-5.288605 -8.388421 1.927553
-5.334815 -8.458445 -0.524092
-5.286305 -8.381532 2.287752
-5.324663 -8.439078 -0.174175
-5.283607 -8.370776 2.652378
-0.495909 -0.783542 -0.248466
-5.344330 -8.440841 0.174384
-0.613138 -0.968016 -0.264542
-5.353589 -8.448938 0.524197
-0.700888 -1.106129 -0.254539
-5.350541 -8.440869 0.874346
-0.696083 -1.097699 -0.205868
-5.351956 -8.436590 1.226737
-5.357279 -8.438467 1.583117
-5.362177 -8.442924 -0.875044
-5.320604 -8.377466 1.929079
-5.361766 -8.439019 -0.523988
-5.325984 -8.379474 2.292251
-5.360524 -8.430566 -0.174384
-5.317981 -8.360431 2.654966
-0.509169 -0.798005 -0.253643
-5.385593 -8.440679 0.174768
-0.614416 -0.962585 -0.263643
-5.385199 -8.433567 0.524406
-0.709165 -1.110171 -0.256066
-5.396461 -8.444706 0.876787
-0.708614 -1.108455 -0.208371
-5.389927 -8.431237 1.228687
-4.680175 -7.318186 -1.066601
-5.397348 -8.436355 1.586246
-4.675240 -7.304850 -0.758778
-5.361858 -8.374442 1.932895
-5.396968 -8.426040 -0.524406
-5.356660 -8.359897 2.292251
-5.399630 -8.426956 -0.174699
-5.362768 -8.366213 2.662730
-0.507772 -0.789723 -0.251572
-5.430557 -8.442746 0.175222
-0.622158 -0.966882 -0.265442
-5.425802 -8.428886 0.525348
-0.708785 -1.101086 -0.254539
-5.441009 -8.449269 0.879227
-0.721037 -1.119260 -0.210874
-5.432621 -8.429779 1.231368
-4.696209 -7.284298 -1.064163
-5.431445 -8.421495 1.587184
-4.692071 -7.275092 -0.757383
-5.399574 -8.368873 1.935948
-5.446927 -8.439033 -0.526395
-5.413294 -8.383714 2.303949
-5.430480 -8.407109 -0.174699
-5.405978 -8.365973 2.668942
-0.506324 -0.781461 -0.249502
-5.469784 -8.438841 0.175536
-0.623409 -0.961434 -0.264542
-5.463885 -8.423303 0.526186
-0.708351 -1.092016 -0.253013
-5.465046 -8.421868 0.878356
-0.728166 -1.121706 -0.211812
-5.471745 -8.425748 1.233562
-4.754051 -7.317801 -1.071475
-5.471572 -8.419047 1.590313
-4.708752 -7.245304 -0.755989
-5.439455 -8.366433 1.939764
-5.487240 -8.436709 -0.527442
-5.447840 -8.372932 2.306198
-5.471793 -8.406537 -0.175083
-5.441473 -8.356765 2.672048
-0.506937 -0.776453 -0.248466
-5.501392 -8.423045 0.175606
-0.635288 -0.972303 -0.268142
-5.508555 -8.427582 0.527651
-0.716455 -1.096110 -0.254539
-5.507495 -8.422750 0.880447
-0.732077 -1.119158 -0.211812
-5.517427 -8.431512 1.237218
-4.755647 -7.264622 -1.066113
-5.518243 -8.426338 1.595319
-4.746020 -7.247157 -0.757906
-5.481537 -8.367102 1.944344
-5.528700 -8.435880 -0.528593
-5.486650 -8.368532 2.310247
-5.512071 -8.404107 -0.175432
-5.480148 -8.352257 2.676707
-0.520261 -0.790818 -0.253643
-5.538456 -8.415483 0.175850
-0.633320 -0.961941 -0.265892
-5.548923 -8.424983 0.528698
-0.726756 -1.103440 -0.256829
-5.555496 -8.431759 0.883411
-0.735980 -1.116596 -0.211812
-5.551195 -8.418832 1.238193
-4.811581 -7.294375 -1.072938
-5.557415 -8.421864 1.598135
-4.778971 -7.242187 -0.759126
-5.521526 -8.364300 1.948160
-5.560315 -8.419863 -0.528803
-5.525496 -8.363963 2.314296
-5.552399 -8.401498 -0.175781
-5.520989 -8.350802 2.682401
-0.527288 -0.795438 -0.255713
-5.581060 -8.416098 0.176269
-0.633442 -0.954853 -0.264542
-5.581248 -8.413193 0.529117
-0.734946 -1.107440 -0.258355
-5.592609 -8.423934 0.884631
-0.739873 -1.114020 -0.211812
-5.587142 -8.409323 1.239655
-5.706183 -8.585243 -1.265735
-5.594060 -8.416549 1.600638
-5.596282 -8.416710 -0.884282
-5.559389 -8.358053 1.951213
-5.597417 -8.412042 -0.529535
-5.558976 -8.351115 2.316096
-5.591307 -8.399686 -0.176130
-5.555076 -8.342095 2.685507
-0.530061 -0.793593 -0.255713
-5.622267 -8.417498 0.176688
-0.634440 -0.949507 -0.263643
-5.620571 -8.408603 0.530059
-0.732259 -1.095076 -0.256066
-5.633058 -8.420920 0.886374
-0.752349 -1.124695 -0.214315
-5.633766 -8.418795 1.243799
-5.742350 -8.577822 -1.267441
-5.628900 -8.405178 1.602202
-5.638937 -8.416985 -0.886374
-5.595816 -8.352620 1.954266
-5.634175 -8.406709 -0.530373
-5.596405 -8.347201 2.320145
-5.627279 -8.390080 -0.176339
-5.596002 -8.340301 2.691200
-0.524064 -0.779008 -0.251572
-5.662780 -8.414412 0.177037
-0.648634 -0.963452 -0.268142
-5.665155 -8.414770 0.531629
-0.738080 -1.095898 -0.256829
-5.665406 -8.408804 0.887071
-0.750750 -1.113872 -0.212751
-5.673104 -8.413892 1.245992
-5.775587 -8.562661 -1.268173
-5.668892 -8.404480 1.605644
-5.677961 -8.414757 -0.888117
-5.635920 -8.349309 1.958082
-5.672428 -8.400231 -0.531210
-5.635328 -8.342148 2.324194
-5.662906 -8.382973 -0.176583
-5.626872 -8.326501 2.692753
-0.526780 -0.777174 -0.251572
-5.695140 -8.402207 0.177177
-0.657293 -0.969360 -0.270391
-5.705706 -8.411472 0.532675
-0.740799 -1.091691 -0.256447
-5.699200 -8.395572 0.887768
-0.755550 -1.113011 -0.213064
-5.707665 -8.404885 1.247455
-5.810643 -8.553314 -1.269635
-5.710408 -8.402612 1.609085
-5.717381 -8.409714 -0.889686
-5.672408 -8.343563 1.961135
-5.720471 -8.411102 -0.533094
-5.666248 -8.328249 2.325544
-5.710135 -8.389606 -0.177142
-5.664603 -8.319582 2.696894
-0.533984 -0.781618 -0.253643
-5.731875 -8.386883 0.177316
-0.652212 -0.953959 -0.266792
-5.744727 -8.399393 0.533303
-0.749228 -1.095450 -0.257974
-5.745683 -8.397646 0.890209
-0.756471 -1.105211 -0.212125
-5.743261 -8.387822 1.248186
-5.859149 -8.553867 -1.273047
-5.749330 -8.390401 1.610962
-5.751544 -8.393634 -0.890209
-5.711062 -8.331437 1.963425
-5.754983 -8.392369 -0.533303
-5.713617 -8.328928 2.331843
-5.751359 -8.380810 -0.177421
-5.716185 -8.326440 2.706212
-0.538899 -0.782932 -0.254678
-5.779260 -8.393175 0.177875
-0.657749 -0.954886 -0.267692
-5.777411 -8.384223 0.533617
-0.757503 -1.099294 -0.259500
-5.788532 -8.397223 0.892300
-0.767052 -1.112321 -0.214002
-5.783777 -8.384063 1.250623
-5.895736 -8.543166 -1.274510
-5.795417 -8.394665 1.615655
-5.800052 -8.401379 -0.893172
-5.760192 -8.340528 1.970294
-5.797867 -8.391948 -0.534560
-5.762600 -8.337790 2.339941
-5.799912 -8.388644 -0.178015
-5.757304 -8.323913 2.711906
-0.543831 -0.784221 -0.255713
-5.823341 -8.394310 0.178329
-0.667744 -0.962191 -0.270391
-5.816568 -8.381428 0.534664
-0.752379 -1.083742 -0.256447
-5.832583 -8.398240 0.894567
-0.775439 -1.116126 -0.215254
-5.825470 -8.381754 1.253304
-5.941386 -8.545352 -1.277922
-5.829989 -8.385131 1.617532
-5.838444 -8.394167 -0.894567
-5.791514 -8.323593 1.971057
-5.843100 -8.394608 -0.536025
-5.808373 -8.341612 2.346689
-5.839125 -8.385775 -0.178364
-5.795917 -8.320626 2.717082
-0.550991 -0.788653 -0.257784
-5.863742 -8.392986 0.178713
-0.677629 -0.969555 -0.273091
-5.858380 -8.379077 0.535816
-0.767410 -1.097197 -0.260263
-5.867572 -8.385993 0.895438
-0.788195 -1.126497 -0.217757
-5.865756 -8.380279 1.255986
-5.981078 -8.541863 -1.280359
-5.872821 -8.384147 1.621287
-5.873426 -8.381893 -0.895438
-5.830351 -8.320420 1.974873
-5.883516 -8.393175 -0.537176
-5.840479 -8.328687 2.348489
-5.884439 -8.388260 -0.178852
-5.831584 -8.309832 2.720188
-0.544710 -0.774181 -0.253643
-5.895305 -8.375736 0.178782
-0.685497 -0.973557 -0.274890
-5.900243 -8.376539 0.536967
-0.772174 -1.096251 -0.260645
-5.903382 -8.377891 0.896658
-0.780742 -1.107593 -0.214628
-5.906410 -8.375977 1.258423
-6.020010 -8.533912 -1.282309
-5.911165 -8.376505 1.623790
-5.912678 -8.378650 -0.897181
-5.868415 -8.312850 1.977926
-5.923147 -8.387269 -0.538118
-5.871764 -8.311431 2.349389
-5.919454 -8.375834 -0.179027
-5.857211 -8.284694 2.718635
-0.540706 -0.762819 -0.250537
-5.933760 -8.368157 0.179062
-0.673107 -0.948906 -0.268592
-5.942161 -8.373809 0.538118
-0.781677 -1.101555 -0.262553
-5.944124 -8.373479 0.898401
-0.785747 -1.106471 -0.214941
-5.944812 -8.368254 1.260373
-6.042862 -8.503137 -1.280847
-5.949524 -8.368702 1.626293
-5.966130 -8.392061 -0.900842
-5.911052 -8.311512 1.982506
-5.966282 -8.386072 -0.539374
-5.915429 -8.311525 2.355237
-5.967213 -8.381184 -0.179585
-5.902905 -8.287800 2.726400
-0.563573 -0.789226 -0.259854
-5.974557 -8.363665 0.179411
-0.680947 -0.952892 -0.270391
-5.980647 -8.366014 0.538956
-0.795793 -1.113194 -0.265988
-5.983747 -8.367264 0.899970
-0.786156 -1.098902 -0.214002
-5.985536 -8.363594 1.262810
-6.027441 -8.419042 -1.271341
-5.997105 -8.373577 1.631299
-6.014254 -8.394431 -0.903456
-5.953748 -8.309980 1.987085
-6.001335 -8.373312 -0.539898
-5.950086 -8.298744 2.357487
-6.012747 -8.383054 -0.180074
-5.945311 -8.285980 2.732612
-0.575489 -0.799699 -0.263995
-6.018900 -8.363859 0.179865
-0.693377 -0.963162 -0.273990
-6.022654 -8.362915 0.540107
-0.795278 -1.103898 -0.264461
-6.035343 -8.374371 0.903108
-5.902081 -8.186449 -1.598448
-6.029787 -8.363583 1.265979
-6.084661 -8.436592 -1.277191
-6.029763 -8.357400 1.632237
-6.055181 -8.389543 -0.905200
-6.007151 -8.319938 1.994717
-6.053034 -8.380404 -0.541782
-5.989591 -8.289517 2.361086
-6.050171 -8.373360 -0.180318
-5.999098 -8.299620 2.743999
-0.560135 -0.772660 -0.255713
-6.064777 -8.362786 0.180318
-0.703769 -0.970078 -0.276690
-6.068515 -8.361798 0.541468
-0.802586 -1.105881 -0.265606
-6.070391 -8.361314 0.903979
-5.941068 -8.180181 -1.601263
-6.073235 -8.359092 1.268660
-6.134215 -8.439926 -1.281091
-6.074294 -8.354415 1.635992
-6.131295 -8.432813 -0.912172
-6.043086 -8.308443 1.997007
-6.146880 -8.448048 -0.547539
-6.026518 -8.279588 2.364236
-6.138497 -8.430340 -0.182029
-6.037440 -8.288507 2.747623
-0.565107 -0.773820 -0.256748
-6.152911 -8.422301 0.182064
-0.702552 -0.961322 -0.274890
-6.110632 -8.358299 0.542619
-0.812234 -1.110998 -0.267514
-6.108951 -8.352940 0.905374
-5.963755 -8.151423 -1.599699
-6.118791 -8.360269 1.272072
-6.198820 -8.466513 -1.288403
-6.116259 -8.350691 1.639433
-6.194834 -8.457973 -0.917227
-6.072051 -8.287298 1.997007
-6.195223 -8.452313 -0.549214
-6.081886 -8.294647 2.374583
-6.185628 -8.433047 -0.182552
-6.077762 -8.282959 2.752800
-0.579253 -0.787404 -0.261925
-6.202425 -8.428152 0.182657
-0.705903 -0.958864 -0.274890
-6.214097 -8.440928 0.549318
-0.817272 -1.109736 -0.267896
-6.212522 -8.432620 0.916355
-6.000376 -8.141686 -1.601889
-6.195056 -8.402770 1.281822
-6.248066 -8.474671 -1.292790
-6.182610 -8.382825 1.649758
-6.242064 -8.460346 -0.919842
-6.121929 -8.294486 2.003876
-6.241299 -8.453131 -0.550679
-6.130194 -8.302652 2.382682
-6.244449 -8.454309 -0.183460
-6.115529 -8.276742 2.757458
-0.577261 -0.779270 -0.259854
-6.256532 -8.442883 0.183425
-0.707918 -0.954953 -0.274440
-6.253948 -8.436321 0.550365
-0.826795 -1.114905 -0.269804
-6.287935 -8.475978 0.923328
-6.042644 -8.142366 -1.605956
-6.292701 -8.476218 -1.296202
-16.718430 -22.511383 4.441175
-6.285532 -8.460391 -0.922108
-6.151743 -8.277290 2.004639
-6.278829 -8.445210 -0.551516
-6.160018 -8.285405 2.383581
-6.291545 -8.459229 -0.184018
-6.154474 -8.271916 2.762635
-0.572912 -0.768060 -0.256748
-6.301237 -8.444528 0.183913
-0.713412 -0.955723 -0.275340
-6.308454 -8.448043 0.552563
-0.818740 -1.096426 -0.265988
-6.082619 -8.139688 -1.609398
-18.447676 -24.677469 3.783068
-6.324627 -8.457380 -1.296690
-16.770868 -22.418091 4.434292
-6.202683 -8.288280 2.012272
-6.191237 -8.266973 2.384481
-6.329428 -8.448419 -0.184263
-6.191421 -8.261203 2.766258
-0.578044 -0.769044 -0.257784
-6.351100 -8.449656 0.184507
-0.721429 -0.959457 -0.277140
-6.347509 -8.438743 0.553400
-0.818032 -1.087143 -0.264461
-6.119541 -8.126808 -1.611275
-18.414288 -24.454348 3.758695
-6.366054 -8.451109 -1.299127
-16.853783 -22.365721 4.435544
-15.285428 -20.277092 -2.221600
-6.244841 -8.281167 2.016088
-16.947674 -22.465836 -1.474827
-6.241454 -8.270668 2.392130
-6.216728 -8.234915 2.764705
-0.585390 -0.773182 -0.259854
-0.736709 -0.972339 -0.281639
-5.185896 -6.842081 -1.668815
-6.144291 -8.100677 -1.610337
-6.418589 -8.456181 -1.303515
-16.949978 -22.322676 4.439298
-15.356120 -20.223608 -2.221600
-6.276083 -8.262445 2.016851
-17.059820 -22.451071 -1.477758
-6.280899 -8.262793 2.396179
-6.277277 -8.252052 2.778164
-0.592771 -0.777279 -0.261925
-0.731823 -0.958918 -0.278489
-5.204983 -6.817695 -1.667289
-6.179727 -8.088598 -1.612214
-6.460124 -8.449493 -1.305952
-17.070993 -22.319862 4.450561
-15.487136 -20.249012 -2.230315
-6.326360 -8.268554 2.023721
-6.316810 -8.250104 2.398878
-6.321321 -8.250024 2.784893
-0.595481 -0.775205 -0.261925
-9.955913 -12.956059 0.285207
-0.735166 -0.956357 -0.278489
-5.233536 -6.805709 -1.668815
-17.229792 -22.397594 2.472260
-6.215151 -8.076369 -1.614091
-6.489579 -8.426891 -1.305952
-17.183485 -22.313213 4.460573
-9.993665 -12.972357 -1.432666
-6.371962 -8.268190 2.029063
-10.033604 -13.014801 -0.861241
-6.352710 -8.237262 2.401577
-10.049338 -13.030506 -0.287232
-6.368703 -8.255019 2.793693
-0.598183 -0.773121 -0.261925
-10.060007 -13.002051 0.286952
-0.751454 -0.970866 -0.283438
-5.252453 -6.781191 -1.667289
-17.327394 -22.362513 2.475049
-6.250369 -8.066646 -1.616281
-6.529653 -8.421012 -1.308389
-17.290325 -22.290556 4.468082
-6.408974 -8.259422 2.032116
-6.408677 -8.253091 2.412375
-6.409333 -8.247993 2.798869
-0.600743 -0.771133 -0.261925
-0.752442 -0.965163 -0.282539
-5.271288 -6.759090 -1.666144
-6.285779 -8.054123 -1.618158
-6.578558 -8.423201 -1.312289
-15.830837 -20.255262 -2.249141
-6.447437 -8.249375 2.035169
-17.473543 -22.349033 -1.486760
-6.461458 -8.261370 2.421373
-6.439279 -8.227089 2.799387
-0.586866 -0.747652 -0.254678
-19.771370 -25.188196 0.558931
-0.760620 -0.968661 -0.284338
-17.616734 -22.427130 1.494610
-5.310583 -6.758249 -1.670724
-5.737702 -7.296561 -1.470171
-10.220123 -12.996799 2.030100
-6.622648 -8.418908 -1.315214
-6.484918 -8.234944 2.037459
-17.525677 -22.247185 -1.484248
-6.506166 -8.256000 2.426772
-6.477523 -8.216700 2.803528
-0.601454 -0.760753 -0.259854
-19.739510 -24.958719 0.555440
-0.759329 -0.959754 -0.282539
-17.719700 -22.396824 1.496704
-5.348763 -6.758145 -1.675303
-5.734928 -7.240872 -1.462975
-5.753344 -7.258916 -1.137285
-6.678565 -8.426254 1.702946
-5.752246 -7.254927 -0.810025
-6.511184 -8.209181 2.036695
-5.762634 -7.262824 -0.485887
-6.550696 -8.253079 2.432621
-6.522984 -8.215219 2.810775
-0.608919 -0.764694 -0.261925
-0.769792 -0.966376 -0.285238
-17.815201 -22.356699 1.498169
-5.367424 -6.733293 -1.673777
-5.762603 -7.226448 -1.463914
-20.159479 -25.271429 3.969285
-5.772430 -7.233590 -1.136310
-6.698078 -8.390541 1.700443
-5.771320 -7.227019 -0.809154
-6.577574 -8.236635 2.048907
-5.814113 -7.278004 -0.488190
-6.571945 -8.223701 2.430371
-6.570924 -8.216541 2.819057
-0.616285 -0.768700 -0.263995
-0.778039 -0.969763 -0.287038
-17.896736 -22.306849 1.498797
-5.379892 -6.703207 -1.670724
-5.792743 -7.212447 -1.465165
-20.167994 -25.101870 3.953686
-5.790184 -7.204113 -1.134847
-6.740716 -8.386758 1.704197
-5.803993 -7.218710 -0.810374
-6.625970 -8.238104 2.055013
-6.611609 -8.214372 2.434420
-6.622367 -8.224798 2.829410
-0.611683 -0.757526 -0.260890
-17.945930 -22.224760 0.498615
-0.781251 -0.967178 -0.287038
-17.987045 -22.259777 1.499844
-5.415599 -6.699655 -1.674540
-5.851405 -7.236208 -1.473926
-20.126280 -24.880516 3.929312
-5.839016 -7.215734 -1.139722
-6.774921 -8.369319 1.705449
-5.836678 -7.207698 -0.811420
-6.670550 -8.237445 2.060356
-5.908777 -7.294131 -0.491958
-6.658444 -8.216625 2.441619
-6.659553 -8.212136 2.833033
-0.616629 -0.758491 -0.261925
-18.061253 -22.208523 0.499662
-0.794460 -0.976538 -0.290637
-18.089853 -22.227837 1.501937
-5.445222 -6.690795 -1.676829
-6.480382 -7.957070 -1.625354
-6.842366 -8.395553 -1.329838
-6.831558 -8.379300 1.712332
-5.859283 -7.184192 -0.811071
-6.701745 -8.217153 2.061119
-6.708033 -8.219000 2.449267
-6.701621 -8.205299 2.838727
-0.626749 -0.765193 -0.265031
-18.158934 -22.170099 0.500221
-0.792924 -0.967730 -0.288837
-18.220509 -22.229431 1.506334
-5.480911 -6.684458 -1.680264
-6.530805 -7.959226 -1.630673
-6.889261 -8.393100 -1.333251
-6.868285 -8.364564 1.714209
-16.621037 -20.234785 -2.290976
-6.736806 -8.198601 2.062645
-18.204601 -22.146883 -1.502461
-6.752963 -8.212421 2.454666
-6.735133 -8.187822 2.840798
-0.626958 -0.760020 -0.263995
-18.283348 -22.155828 0.501408
-0.796465 -0.964817 -0.288837
-18.312037 -22.174820 1.507171
-5.507962 -6.669825 -1.681409
-6.566097 -7.945518 -1.632550
-6.927570 -8.376970 -1.334713
-6.878748 -8.314983 1.709203
-6.785408 -8.199236 2.068751
-18.281797 -22.083200 -1.502461
-6.798989 -8.209811 2.460964
-6.779889 -8.180933 2.847010
-0.629607 -0.757827 -0.263995
-18.386135 -22.122633 0.502106
-0.804812 -0.968025 -0.290637
-18.430199 -22.159903 1.510521
-5.527445 -6.646030 -1.680264
-6.610222 -7.942287 -1.636618
-19.876492 -23.873444 3.814267
-6.974553 -8.374093 -1.338125
-6.887502 -8.266637 1.704197
-6.839128 -8.205663 2.076384
-6.840088 -8.200994 2.465464
-18.579744 -22.268475 -0.506225
-6.841827 -8.197261 2.860986
-0.624810 -0.746735 -0.260890
-18.494049 -22.095121 0.502943
-0.815693 -0.974174 -0.293336
-18.534355 -22.135414 1.513033
-5.556912 -6.634221 -1.682172
-6.639174 -7.920678 -1.636930
-19.847464 -23.670057 3.792818
-7.031807 -8.383156 -1.343488
-6.917415 -8.246779 1.704823
-6.882875 -8.199784 2.080963
-18.499741 -22.031509 -1.507694
-6.876193 -8.186020 2.468163
-18.681784 -22.240425 -0.506992
-6.877673 -8.184880 2.864609
-0.627413 -0.744549 -0.260890
-8.663157 -10.280545 0.234665
-0.821430 -0.974444 -0.294236
-18.650129 -22.116390 1.516173
-5.585100 -6.620786 -1.683699
-6.664130 -7.897109 -1.636618
-19.810604 -23.467592 3.770881
-7.067253 -8.368891 -1.344950
-6.971656 -8.252762 1.711080
-6.922701 -8.191910 2.084779
-7.151080 -8.459168 -0.580510
-6.923436 -8.186981 2.475361
-6.916184 -8.172622 2.868750
-0.627379 -0.739518 -0.259854
-18.747532 -22.090696 0.505736
-0.819782 -0.965629 -0.292436
-18.807377 -22.145542 1.522663
-5.618462 -6.615696 -1.687133
-6.703168 -7.887344 -1.639433
-7.109284 -8.359293 -1.347388
-7.013222 -8.243421 1.714209
-6.958888 -8.176667 2.087069
-7.216819 -8.476735 -0.583441
-6.972188 -8.186501 2.482560
-6.969733 -8.177834 2.879103
-0.647658 -0.757774 -0.267101
-18.858313 -22.064638 0.506643
-0.828213 -0.968686 -0.294236
-18.874180 -22.067614 1.521825
-5.641397 -6.593565 -1.686752
-6.733315 -7.864225 -1.639746
-19.651186 -22.951748 3.709947
-7.151335 -8.349501 -1.349825
-7.065087 -8.245893 1.719841
-7.171470 -8.367100 -0.964117
-7.027148 -8.195817 2.098517
-7.175021 -8.365332 -0.577580
-7.012297 -8.172725 2.486159
-7.000753 -8.156387 2.880138
-0.650299 -0.755508 -0.267101
-0.836845 -0.971550 -0.296036
-19.007084 -22.058809 1.526012
-5.664378 -6.573834 -1.686752
-6.773627 -7.855632 -1.642875
-19.641823 -22.771339 3.692398
-7.205231 -8.350287 -1.354212
-7.108172 -8.234895 1.722969
-7.205842 -8.348046 -0.964814
-7.060845 -8.177183 2.100044
-7.161094 -8.290357 -0.574125
-7.058622 -8.168839 2.492458
-7.211958 -8.343353 -0.192500
-7.045763 -8.148211 2.886350
-0.655463 -0.756153 -0.268137
-7.234223 -8.342589 0.192744
-0.847893 -0.977455 -0.298735
-7.258427 -8.364596 0.580406
-5.693724 -6.561436 -1.688660
-6.813957 -7.846856 -1.646004
-7.252564 -8.346063 -1.357625
-7.157608 -8.233887 1.727975
-7.251930 -8.342392 -0.967080
-7.094499 -8.158413 2.101570
-7.243737 -8.327091 -0.578417
-7.110117 -8.170612 2.500556
-7.256793 -8.336226 -0.192919
-7.088120 -8.139590 2.892044
-0.658098 -0.753861 -0.268137
-7.276454 -8.332349 0.193093
-0.853864 -0.977425 -0.299635
-7.288895 -8.340713 0.580510
-5.724344 -6.550391 -1.690949
-6.838706 -7.820049 -1.645378
-7.299956 -8.341610 -1.361037
-7.204522 -8.229660 1.732355
-7.295443 -8.333518 -0.968998
-7.141042 -8.154275 2.106913
-7.300395 -8.333304 -0.580615
-7.156577 -8.166262 2.506855
-7.304303 -8.331896 -0.193408
-7.153426 -8.156920 2.907056
-0.665827 -0.757362 -0.270207
-7.317383 -8.320412 0.193408
-0.859845 -0.977364 -0.300535
-7.336437 -8.336211 0.581976
-5.752362 -6.536266 -1.692476
-6.879017 -7.810954 -1.648507
-7.347404 -8.336927 -1.364449
-7.248881 -8.222242 1.736110
-7.327123 -8.310990 -0.969346
-7.190240 -8.152858 2.113019
-7.322834 -8.300282 -0.580092
-7.191486 -8.148536 2.509104
-7.341283 -8.315342 -0.193617
-7.194644 -8.146380 2.912232
-0.663345 -0.749248 -0.268137
-7.356989 -8.306793 0.193687
-0.863252 -0.974357 -0.300535
-7.366689 -8.314826 0.582185
-5.782957 -6.524960 -1.694765
-6.916725 -7.798719 -1.651010
-9.837917 -11.084608 -1.819753
-7.318068 -8.245436 1.746122
-7.430164 -8.368798 -0.979108
-7.239514 -8.151196 2.119125
-7.382272 -8.309010 -0.582499
-7.238008 -8.143777 2.515403
-7.395385 -8.320848 -0.194315
-7.238306 -8.141246 2.918961
-0.665956 -0.746928 -0.268137
-7.411110 -8.312202 0.194385
-0.867775 -0.972943 -0.300985
-7.407635 -8.302473 0.583127
-5.803084 -6.501805 -1.694002
-7.419004 -8.309375 0.974575
-6.950443 -7.784581 -1.652887
-7.430305 -8.319105 1.369568
-9.319124 -10.430197 -1.717383
-7.352069 -8.225734 1.747373
-17.615818 -19.702219 -2.312242
-7.287443 -8.150559 2.125231
-19.521090 -21.825483 -1.534595
-7.280568 -8.137157 2.520802
-7.275701 -8.126004 2.922585
-0.668430 -0.744715 -0.268137
-0.885490 -0.985856 -0.305933
-7.448474 -8.292722 0.584174
-5.829861 -6.488366 -1.695529
-7.470493 -8.311399 0.977713
-6.988140 -7.772023 -1.655390
-7.469919 -8.304924 1.371518
-9.355474 -10.397606 -1.717383
-7.403089 -8.227739 1.753005
-17.691715 -19.655546 -2.313636
-7.350005 -8.163006 2.135153
-19.613192 -21.775023 -1.535851
-7.340237 -8.146438 2.531599
-7.312955 -8.113312 2.926726
-0.660662 -0.730912 -0.263995
-0.891369 -0.985805 -0.306833
-19.698954 -21.778332 1.538991
-5.860376 -6.476713 -1.697819
-7.013875 -7.748806 -1.655390
-19.750175 -21.811985 3.612939
-9.349922 -10.322386 -1.710071
-7.437070 -8.207704 1.754256
-17.813745 -19.652712 -2.320609
-7.374397 -8.135678 2.134390
-19.714809 -21.742411 -1.538154
-7.381612 -8.137931 2.536548
-7.374988 -8.124928 2.940185
-0.678684 -0.745864 -0.270207
-0.893492 -0.981247 -0.306383
-19.839411 -21.780308 1.544016
-5.897687 -6.474660 -1.702398
-26.472282 -29.051889 3.438643
-7.043542 -7.727195 -1.656015
-19.791414 -21.704779 3.606602
-10.041411 -11.008321 -1.829503
-7.471000 -8.187529 1.755508
-17.954769 -19.669878 -2.330022
-7.415985 -8.124389 2.138206
-19.836376 -21.723610 -1.541713
-7.429690 -8.133696 2.543297
-7.420249 -8.117672 2.946914
-0.681413 -0.743371 -0.270207
-19.932024 -21.744366 0.514881
-0.902180 -0.983867 -0.308183
-19.909918 -21.705036 1.543597
-5.921378 -6.453001 -1.702398
-7.087849 -7.718787 -1.659770
-19.912704 -21.685272 3.614889
-10.103950 -10.999517 -1.833890
-7.512901 -8.175946 1.758636
-18.001749 -19.583616 -2.327233
-7.477605 -8.131837 2.147365
-19.975357 -21.715435 -1.546318
-7.462088 -8.109279 2.544196
-7.466858 -8.111620 2.954161
-0.676141 -0.732471 -0.267101
-20.049572 -21.712299 0.515858
-0.908425 -0.983417 -0.309083
-20.064165 -21.720495 1.549668
-5.942533 -6.430851 -1.702016
-7.120114 -7.699800 -1.661021
-20.008228 -21.629629 3.617814
-10.225092 -11.049830 -1.848514
-7.517245 -8.123573 1.753005
-18.126842 -19.582066 -2.334554
-7.527288 -8.128733 2.153470
-20.064611 -21.660229 -1.547365
-7.512868 -8.107482 2.551845
-7.504322 -8.095422 2.957784
-0.673433 -0.724447 -0.265031
-20.170477 -21.698420 0.517115
-0.922297 -0.991816 -0.312682
-20.131695 -21.641558 1.549040
-5.975646 -6.421565 -1.705069
-7.161760 -7.693496 -1.664776
-20.133953 -21.621275 3.627563
-10.440284 -11.207592 -1.880688
-7.561717 -8.114625 1.756759
-18.222254 -19.547825 -2.338040
-7.575620 -8.126705 2.159576
-20.149952 -21.608179 -1.548412
-7.562310 -8.106748 2.559493
-7.539124 -8.076240 2.960372
-0.694311 -0.741957 -0.272278
-20.232431 -21.613279 0.516766
-0.921757 -0.984323 -0.311332
-20.261732 -21.629456 1.553227
-6.007644 -6.413177 -1.708122
-7.185868 -7.665570 -1.664150
-20.252760 -21.597195 3.635363
-9.884480 -10.536953 -1.773930
-7.611622 -8.111230 1.761765
-18.303337 -19.504723 -2.340132
-7.606631 -8.103072 2.160340
-20.269007 -21.584299 -1.551761
-7.617245 -8.108709 2.568491
-7.609612 -8.094916 2.976937
-0.683648 -0.725470 -0.267101
-20.354383 -21.592001 0.517953
-0.917166 -0.972593 -0.308633
-20.391937 -21.616705 1.557414
-6.038079 -6.400734 -1.710412
-7.223430 -7.651931 -1.666653
-20.371639 -21.572550 3.643162
-9.828503 -10.404261 -1.757356
-7.669738 -8.116198 1.768648
-8.896230 -9.414084 -1.133199
-7.659146 -8.102152 2.167209
-20.415581 -21.588881 -1.557204
-7.669611 -8.107551 2.576589
-7.664384 -8.096363 2.987290
-0.702134 -0.739895 -0.273313
-20.451658 -21.544025 0.518511
-0.925923 -0.975037 -0.310432
-20.519535 -21.600422 1.561391
-6.067143 -6.386736 -1.712320
-7.260987 -7.638122 -1.669156
-20.482380 -21.538715 3.649500
-9.864761 -10.369890 -1.757356
-7.717089 -8.109407 1.773028
-18.554438 -19.497700 -2.354774
-7.700915 -8.089588 2.171025
-20.499079 -21.526161 -1.557832
-7.707274 -8.090607 2.579739
-34.128307 -35.813210 -0.863510
-7.705926 -8.083545 2.992466
-0.712720 -0.745819 -0.276419
-20.559900 -21.507195 0.519349
-0.927974 -0.970391 -0.309983
-20.583767 -21.517118 1.560554
-6.088044 -6.364100 -1.711938
-7.295799 -7.621293 -1.671033
-20.626087 -21.538773 3.661687
-10.939054 -11.419100 -1.941623
-7.753548 -8.090980 1.774906
-8.967250 -9.357501 -1.133896
-7.764431 -8.099505 2.180947
-20.623865 -21.506365 -1.561600
-7.750309 -8.079123 2.584688
-7.752829 -8.076105 2.999713
-0.699245 -0.726623 -0.270207
-20.673683 -21.475634 0.520326
-0.939466 -0.975568 -0.312682
-20.711407 -21.499794 1.564531
-6.114308 -6.347052 -1.713083
-7.334697 -7.608579 -1.673849
-20.720440 -21.486647 3.665099
-10.557115 -10.943670 -1.867038
-7.800948 -8.083765 1.779286
-18.713621 -19.392069 -2.357737
-7.819928 -8.100603 2.188579
-20.723787 -21.460104 -1.563484
-7.789292 -8.063234 2.588287
-20.965008 -21.694736 -0.526609
-7.789029 -8.057327 3.002819
-0.701777 -0.724178 -0.270207
-20.818115 -21.475126 0.522071
-0.959146 -0.989070 -0.318081
-20.803011 -21.444574 1.565787
-6.144627 -6.334127 -1.715373
-26.056387 -26.850574 3.273395
-7.354331 -7.575842 -1.672285
-20.825747 -21.445513 3.670461
-10.647810 -10.960862 -1.876301
-7.851144 -8.079151 1.784292
-18.842293 -19.389496 -2.365407
-7.856369 -8.081701 2.190869
-20.848692 -21.439184 -1.567253
-7.859515 -8.079297 2.602234
-7.835970 -8.049470 3.010066
-0.720491 -0.738315 -0.276419
-20.923681 -21.433807 0.522839
-0.951700 -0.974563 -0.314482
-20.929827 -21.432627 1.569974
-6.170816 -6.316851 -1.716518
-7.400062 -7.569902 -1.676665
-20.908800 -21.381207 3.671924
-10.697978 -10.939684 -1.878738
-7.902758 -8.078488 1.789923
-18.943300 -19.357786 -2.369590
-7.901010 -8.071065 2.195448
-21.035196 -21.480436 -1.575626
-7.920351 -8.087997 2.613482
-7.901833 -8.063455 3.025077
-0.722936 -0.735922 -0.276419
-21.045101 -21.415648 0.524096
-5.252779 -5.343403 -1.729874
-21.025990 -21.388742 1.571858
-6.204120 -6.308951 -1.719952
-7.434823 -7.555176 -1.678855
-21.060362 -21.393803 3.686061
-10.664567 -10.833415 -1.866551
-7.948908 -8.071942 1.794304
-19.057726 -19.345959 -2.375865
-7.947024 -8.064396 2.200791
-21.106312 -21.410564 -1.575626
-7.959441 -8.074178 2.617531
-7.947523 -8.056461 3.032324
-0.728089 -0.736268 -0.277454
-5.263616 -5.319029 -1.727624
-6.220862 -6.284158 -1.718807
-7.464007 -7.534690 -1.679794
-21.173103 -21.366150 3.693373
-11.129963 -11.227516 -1.941135
-8.007638 -8.075005 1.801187
-19.211567 -19.373190 -2.387021
-7.993080 -8.057511 2.206134
-21.247540 -21.411337 -1.580860
-7.994441 -8.053260 2.619780
-8.001466 -8.054709 3.042159
-0.717023 -0.720033 -0.272278
-5.289029 -5.307525 -1.729874
-21.332729 -21.399849 1.583582
-6.251078 -6.270746 -1.721097
-7.507004 -7.525372 -1.683548
-21.317671 -21.362364 3.705560
-11.242015 -11.261652 -1.953810
-8.049732 -8.060983 1.804315
-19.315674 -19.342670 -2.391553
-8.035032 -8.043451 2.209950
-21.353210 -21.368120 -1.583163
-8.039035 -8.041844 2.625179
-8.025434 -8.022633 3.040606
-0.727740 -0.725710 -0.275383
-5.317186 -5.298659 -1.733023
-6.278493 -6.254430 -1.722624
-7.536026 -7.501908 -1.684174
-21.406181 -21.301821 3.707997
-11.374140 -11.314743 -1.969896
-8.105837 -8.060690 1.810573
-19.450891 -19.342558 -2.399920
-8.093692 -8.045804 2.218345
-21.492830 -21.358217 -1.587978
-8.083650 -8.030212 2.630578
-21.776249 -21.624750 -0.535684
-8.089033 -8.029958 3.054065
-0.730268 -0.723165 -0.275383
-12.515953 -12.389894 0.307407
-5.330110 -5.274582 -1.731223
-21.549759 -21.317823 1.588606
-6.312847 -6.244903 -1.726058
-7.569193 -7.482500 -1.685738
-21.519941 -21.266045 3.714822
-11.453109 -11.314033 -1.976721
-8.153603 -8.051778 1.814953
-19.518293 -19.274544 -2.399920
-8.155259 -8.050607 2.227504
-21.587156 -21.302702 -1.589443
-8.160187 -8.049846 2.646324
-21.840206 -21.537376 -0.535405
-8.139029 -8.023371 3.062347
-0.732788 -0.720612 -0.275383
-5.352658 -5.260043 -1.732573
-12.730500 -12.505862 0.935244
-6.337408 -6.225580 -1.726821
-7.603722 -7.464336 -1.687615
-21.636547 -21.232508 3.722134
-11.475530 -11.257300 -1.973796
-8.204224 -8.045400 1.819959
-19.650887 -19.270468 -2.407939
-8.205742 -8.044080 2.233610
-21.755541 -21.319477 -1.596352
-8.207725 -8.040407 2.652623
-21.955257 -21.500183 -0.536382
-8.205640 -8.032750 3.076841
-0.746356 -0.728848 -0.279525
-12.693724 -12.391613 0.309641
-5.376565 -5.246770 -1.734373
-12.751199 -12.439036 0.933569
-6.356289 -6.200680 -1.726058
-7.643877 -7.451538 -1.690744
-21.730434 -21.176247 3.725546
-11.540347 -11.242109 -1.978183
-8.237918 -8.022223 1.821210
-19.738020 -19.221218 -2.410379
-8.267536 -8.048252 2.242769
-21.869900 -21.282412 -1.599282
-8.251105 -8.026653 2.657572
-12.459443 -12.116277 -0.303358
-8.239169 -8.009446 3.078912
-0.737801 -0.715479 -0.275383
-12.711058 -12.322175 0.309012
-5.400445 -5.233395 -1.736172
-13.113011 -12.702954 0.956806
-6.380716 -6.181185 -1.726821
-7.669841 -7.424810 -1.690744
-21.926901 -21.218985 3.746508
-11.616615 -11.237643 -1.984521
-8.291431 -8.018137 1.826842
-19.816450 -19.163280 -2.411774
-8.304047 -8.027533 2.245059
-21.944057 -21.205940 -1.599282
-8.291688 -8.009989 2.661621
-12.737567 -12.300529 -0.309082
-8.285146 -7.998079 3.085641
-0.748643 -0.720939 -0.278489
-22.060535 -21.236740 0.534497
-5.421487 -5.217216 -1.737072
-6.405084 -6.161597 -1.727585
-7.705679 -7.407577 -1.692934
-22.072401 -21.211088 3.758695
-11.713033 -11.252032 -1.994270
-8.364963 -8.032929 1.836854
-19.937832 -19.146431 -2.418397
-8.346180 -8.012093 2.248875
-22.121706 -21.228783 -1.606819
-8.349130 -8.009326 2.671069
-8.339511 -7.994512 3.095476
-0.751155 -0.718321 -0.278489
-12.999136 -12.426590 0.313899
-5.434031 -5.192873 -1.735272
-12.656246 -12.094570 0.917449
-6.445008 -6.156831 -1.732546
-7.747209 -7.395635 -1.696376
-22.146309 -21.133909 3.758695
-11.752236 -11.211081 -1.994270
-8.405847 -8.018782 1.839982
-20.056452 -19.126217 -2.424673
-8.408202 -8.015422 2.258034
-13.023018 -12.410330 -0.942780
-8.406668 -8.008360 2.680517
-12.629879 -12.031476 -0.304475
-8.403749 -8.002782 3.109452
-0.762063 -0.723677 -0.281595
-13.135976 -12.474296 0.316203
-5.449808 -5.173484 -1.734823
-13.011321 -12.347280 0.940059
-6.470731 -6.138350 -1.733691
-7.781725 -7.379419 -1.698566
-22.268133 -21.109520 3.767469
-11.772058 -11.155662 -1.991345
-8.465338 -8.019277 1.846866
-20.137560 -19.069792 -2.426416
-8.457544 -8.009094 2.264140
-22.410730 -21.215023 -1.617286
-8.467149 -8.012586 2.691314
-13.607331 -12.872313 -0.326953
-8.455492 -7.995965 3.118252
-0.770080 -0.726448 -0.283666
-5.477761 -5.163785 -1.737972
-12.499081 -11.778542 0.900074
-6.485336 -6.111473 -1.732164
-7.817503 -7.361691 -1.700756
-11.839841 -11.141709 -1.996220
-8.501912 -7.997799 1.848743
-20.380636 -19.172186 -2.448030
-8.519773 -8.011803 2.273299
-13.209063 -12.417155 -0.950107
-8.506428 -7.993656 2.694914
-13.165381 -12.367446 -0.315295
-8.493212 -7.975656 3.121875
-0.761332 -0.713190 -0.279525
-5.501441 -5.149960 -1.739771
-12.753036 -11.934083 0.915356
-6.519532 -6.100872 -1.735599
-7.843151 -7.334359 -1.700756
-22.580276 -21.108088 3.795255
-11.890265 -11.111152 -1.998170
-8.549986 -7.986954 1.853123
-8.564907 -7.998094 2.277878
-13.304885 -12.420035 -0.953875
-8.551374 -7.979870 2.700312
-8.537955 -7.961771 3.128087
-0.758159 -0.705265 -0.277454
-5.520813 -5.132052 -1.740221
-6.552293 -6.088768 -1.738652
-7.874495 -7.312313 -1.702007
-22.653822 -21.029140 3.795255
-11.928976 -11.069582 -1.998170
-8.609674 -7.986615 1.860006
-13.442763 -12.469946 -1.604189
-8.601414 -7.976155 2.280168
-13.181175 -12.218731 -0.941943
-8.610624 -7.979113 2.710210
-8.602548 -7.966049 3.141546
-0.769131 -0.710479 -0.280560
-5.542989 -5.116715 -1.741571
-13.100247 -12.088561 0.934197
-6.577836 -6.069853 -1.739796
-13.281296 -12.251337 1.580831
-7.913042 -7.296833 -1.704823
-13.321568 -12.279883 2.224603
-8.872741 -8.176070 -1.481444
-8.678181 -7.993986 1.868766
-8.876017 -8.176224 -1.055805
-8.655197 -7.970022 2.287037
-8.941716 -8.230975 -0.636929
-8.671406 -7.979356 2.720558
-8.653054 -7.956893 3.149828
-0.777300 -0.713014 -0.282630
-12.597068 -11.551178 0.298331
-5.560815 -5.097336 -1.741571
-12.833132 -11.759399 0.912216
-6.612011 -6.058792 -1.743231
-13.203507 -12.094547 1.566537
-7.951576 -7.281173 -1.707639
-13.458065 -12.319088 2.240202
-8.892441 -8.137008 -1.479982
-8.732269 -7.987644 1.874398
-8.910383 -8.150570 -1.056502
-8.726430 -7.979506 2.298485
-8.915848 -8.149854 -0.633056
-8.725101 -7.972701 2.728656
-8.913331 -8.141844 -0.210720
-8.710735 -7.953996 3.160698
-0.779784 -0.710296 -0.282630
-8.932022 -8.133220 0.210860
-5.592987 -5.091011 -1.746070
-8.962385 -8.155143 0.635045
-6.627311 -6.030389 -1.741705
-7.976944 -7.253372 -1.707639
-13.700761 -12.453627 2.273351
-8.923727 -8.108590 -1.480469
-8.771796 -7.967739 1.876901
-8.925508 -8.107361 -1.054933
-8.783300 -7.975391 2.306118
-8.935370 -8.110626 -0.632428
-8.762980 -7.951363 2.731806
-8.953546 -8.121428 -0.211000
-8.765640 -7.948194 3.170533
-0.785124 -0.710162 -0.283666
-8.973708 -8.114061 0.211174
-5.620843 -5.080604 -1.749219
-8.996722 -8.129166 0.635463
-6.659973 -6.017750 -1.744758
-8.999861 -8.129146 1.061034
-8.011011 -7.233426 -1.709516
-9.016879 -8.138806 1.491437
-9.052198 -8.167817 -1.497043
-8.831826 -7.966179 1.883784
-8.921204 -8.046796 -1.051098
-8.843162 -7.973608 2.314513
-8.938405 -8.056655 -0.630648
-8.821085 -7.948119 2.741254
-8.955094 -8.066038 -0.210371
-8.820606 -7.942110 3.180368
-0.781850 -0.702253 -0.281595
-8.963292 -8.047950 0.210267
-5.639993 -5.062255 -1.749669
-9.001259 -8.076370 0.633788
-6.691167 -6.003643 -1.747429
-9.016317 -8.087038 1.059640
-8.039151 -7.208057 -1.710142
-9.046712 -8.108606 1.491681
-9.071784 -8.128221 -1.495581
-8.871349 -7.945846 1.886287
-8.974466 -8.038206 -1.054062
-8.868017 -7.940070 2.313750
-8.985821 -8.042721 -0.632009
-8.877820 -7.943269 2.750252
-8.981707 -8.033394 -0.210336
-8.884279 -7.943463 3.193310
-0.792947 -0.707235 -0.284701
-8.998791 -8.023269 0.210441
-5.660539 -5.045130 -1.750569
-9.007030 -8.024969 0.632218
-6.722347 -5.989391 -1.750100
-9.020684 -8.034315 1.056851
-8.079018 -7.193087 -1.713270
-9.045307 -8.050581 1.486806
-9.138659 -8.130814 -1.501918
-8.943313 -7.954215 1.895673
-9.035223 -8.035960 -1.057896
-8.933827 -7.942983 2.323672
-9.028768 -8.024576 -0.633056
-8.946284 -7.948472 2.762849
-9.036607 -8.025895 -0.210965
-8.927844 -7.926511 3.199003
-0.792518 -0.701901 -0.283666
-9.044711 -8.007715 0.210860
-5.682493 -5.029215 -1.751919
-9.043961 -8.001422 0.632846
-6.756445 -5.977599 -1.753535
-9.059122 -8.012017 1.058071
-8.115918 -7.175307 -1.715773
-9.065914 -8.012387 1.485587
-9.219054 -8.144865 -1.510449
-8.997676 -7.946483 1.901305
-9.090101 -8.028111 -1.061034
-8.976217 -7.924743 2.327488
-9.077688 -8.011513 -0.634521
-8.992973 -7.933953 2.768698
-9.094562 -8.020756 -0.211663
-8.975744 -7.913187 3.206250
-0.806569 -0.709337 -0.287807
-9.104146 -8.003820 0.211593
-5.708797 -5.017066 -1.754618
-9.103346 -7.997486 0.635045
-6.771369 -5.948794 -1.752008
-9.122963 -8.011899 1.062254
-8.149821 -7.154755 -1.717651
-9.123668 -8.006880 1.490462
-9.272798 -8.134891 -1.514592
-9.055063 -7.941076 1.907562
-9.136045 -8.012095 -1.063126
-9.051064 -7.934778 2.339700
-9.134139 -8.004786 -0.636510
-9.044066 -7.923059 2.775896
-9.131529 -7.996868 -0.211872
-9.041107 -7.914890 3.219709
-0.801764 -0.700163 -0.285219
-9.168181 -8.003556 0.212431
-5.732148 -5.002234 -1.756418
-9.161308 -7.991919 0.637138
-6.800970 -5.932865 -1.754298
-9.164392 -7.991788 1.063823
-8.189636 -7.139244 -1.720779
-9.175508 -7.995850 1.494362
-9.310120 -8.110294 -1.516055
-9.097623 -7.922394 1.910691
-9.184991 -7.998476 -1.065566
-9.111283 -7.931494 2.348096
-9.202706 -8.008252 -0.639336
-9.087840 -7.905512 2.780845
-9.197112 -7.997749 -0.212745
-9.081801 -7.894688 3.224368
-0.802744 -0.696095 -0.284701
-9.218731 -7.991149 0.212954
-5.752520 -4.984746 -1.757318
-9.214810 -7.982123 0.638917
-6.829057 -5.915517 -1.756206
-9.217835 -7.981924 1.066786
-8.496787 -7.354959 -1.779912
-9.227379 -7.984557 1.498262
-9.351883 -8.089436 -1.518248
-9.164072 -7.924182 1.918825
-9.250532 -7.998944 -1.069924
-9.162681 -7.920181 2.354202
-9.257805 -7.999587 -0.641220
-9.152248 -7.905587 2.792093
-9.252219 -7.989118 -0.213373
-9.154636 -7.902072 3.240415
-0.811025 -0.698330 -0.286772
-9.275365 -7.983707 0.213617
-5.769884 -4.964637 -1.757318
-9.277447 -7.979863 0.641325
-6.854130 -5.895482 -1.757351
-9.278876 -7.978276 1.070621
-8.598808 -7.390925 -1.795868
-9.282297 -7.975583 1.502649
-9.404159 -8.077437 -1.522148
-9.218655 -7.915308 1.924457
-9.310143 -7.993861 -1.073584
-9.214107 -7.908610 2.360307
-9.308410 -7.986731 -0.642790
-9.227122 -7.914190 2.806489
-9.307374 -7.980205 -0.214001
-9.193899 -7.880126 3.244556
-0.820799 -0.701772 -0.289360
-9.330539 -7.974670 0.214246
-5.794587 -4.950796 -1.759567
-9.325115 -7.967219 0.642790
-6.883626 -5.879171 -1.759641
-9.343034 -7.976889 1.074805
-8.651603 -7.383945 -1.801500
-9.340284 -7.968902 1.507524
-9.467035 -8.074188 -1.527754
-9.271906 -7.907767 1.930089
-9.371345 -7.989751 -1.077419
-9.268552 -7.899321 2.367177
-9.363597 -7.977504 -0.644674
-9.279914 -7.903413 2.814138
-9.371846 -7.981709 -0.214874
-9.255283 -7.879651 3.256979
-0.830607 -0.705154 -0.291948
-9.391994 -7.973450 0.215049
-5.822858 -4.941640 -1.763166
-9.389424 -7.965627 0.645302
-6.901111 -5.852567 -1.758877
-9.395138 -7.964841 1.077594
-8.677547 -7.356494 -1.801812
-9.399976 -7.966118 1.512886
-9.533139 -8.076111 -1.534091
-9.329600 -7.900888 1.936346
-9.426549 -7.980162 -1.080557
-9.342646 -7.909133 2.379388
-9.415918 -7.968342 -0.646454
-9.317974 -7.882666 2.817737
-9.425608 -7.970898 -0.215467
-9.315188 -7.874732 3.268367
-0.822603 -0.693678 -0.288324
-9.461050 -7.975417 0.215991
-5.844543 -4.925052 -1.764516
-9.446195 -7.957252 0.647291
-6.921983 -5.830915 -1.759259
-9.441311 -7.950324 1.079860
-8.715264 -7.336333 -1.804315
-9.459622 -7.960098 1.518005
-9.597729 -8.073457 -1.539941
-9.381314 -7.888613 1.941352
-9.480275 -7.969003 -1.083520
-9.403260 -7.904265 2.387784
-9.484960 -7.970120 -0.649280
-9.378261 -7.877666 2.827635
-9.476346 -7.957237 -0.215991
-9.381090 -7.874464 3.281826
-0.831066 -0.695618 -0.290395
-9.508767 -7.959028 0.216445
-5.873658 -4.914623 -1.768115
-9.499956 -7.946016 0.649071
-6.949331 -5.810544 -1.760786
-9.507079 -7.946331 1.084043
-8.726934 -7.291677 -1.801187
-9.516293 -7.951215 1.522636
-9.645658 -8.056447 -1.543110
-9.426991 -7.871010 1.945106
-9.530977 -7.955015 -1.086135
-9.459301 -7.892386 2.394653
-9.546319 -7.962165 -0.651478
-9.442991 -7.873193 2.838433
-9.539388 -7.953565 -0.216794
-9.423362 -7.854036 3.287002
-0.836460 -0.695183 -0.291430
-9.568637 -7.949680 0.217143
-5.882635 -4.885593 -1.765416
-9.561438 -7.940878 0.651373
-6.980146 -5.795028 -1.763457
-9.573086 -7.944909 1.088401
-8.744733 -7.254864 -1.799622
-9.566764 -7.934021 1.526048
-9.691934 -8.034977 -1.545791
-9.503070 -7.878401 1.955118
-9.604709 -7.959837 -1.091364
-9.495864 -7.866834 2.396943
-9.595589 -7.946630 -0.652943
-9.512446 -7.874978 2.851030
-9.600980 -7.948271 -0.217562
-9.495369 -7.858043 3.302531
-0.850802 -0.702095 -0.295571
-9.618082 -7.936996 0.217666
-5.904817 -4.871019 -1.767215
-9.613750 -7.927788 0.653048
-7.003361 -5.773126 -1.764220
-9.634588 -7.939319 1.092236
-8.759596 -7.218287 -1.797745
-9.626731 -7.930020 1.531410
-9.753770 -8.031815 -1.551397
-9.576266 -7.882844 1.964504
-9.663206 -7.951578 -1.094850
-9.576475 -7.880209 2.410681
-9.663535 -7.949024 -0.655770
-9.565603 -7.865669 2.859128
-9.656475 -7.937563 -0.218190
-9.551099 -7.848155 3.312366
-0.850137 -0.696821 -0.294536
-9.687492 -7.937595 0.218609
-5.930830 -4.857786 -1.769915
-9.673820 -7.920750 0.655246
-7.023985 -5.751113 -1.764602
-9.691699 -7.932564 1.095722
-8.764865 -7.171405 -1.793678
-9.688156 -7.924019 1.536773
