# This PCD file was generated using the MATLAB® pcwrite function
# from Computer Vision Toolbox®.
# .PCD v.7 - Point Cloud Data file format
VERSION .7
FIELDS x y z
SIZE 4 4 4
TYPE F F F
COUNT 1 1 1
WIDTH 1720
HEIGHT 1
VIEWPOINT 0 0 0 1 0 0 0
POINTS 1720
DATA ascii
-0.487809 24.513500 1.284953
-0.152160 7.714089 -1.499759
-0.371873 19.021692 1.664500
-0.148133 7.645249 -1.211116
-0.152284 7.930967 0.973980
-0.148329 7.796032 -0.957406
-0.145949 7.670975 1.215183
-0.145972 7.743042 -0.677549
-0.143826 7.700504 1.497087
-0.141584 7.652187 -0.401103
-0.140738 7.678696 1.773064
-0.140460 7.663546 -0.133790
-0.140083 7.716476 2.067964
-0.097683 5.829510 -1.562232
-0.687928 41.053986 0.716701
-0.111956 6.751457 -1.558911
-0.402264 24.517050 1.285057
-0.125230 7.714574 -1.499759
-0.306189 19.066702 1.668335
-0.122781 7.645698 -1.211116
-0.126044 7.935399 0.974467
-0.121822 7.754799 -0.952287
-0.119085 7.665513 1.214244
-0.117717 7.663818 -0.670576
-0.118227 7.697013 1.496324
-0.116240 7.654612 -0.401207
-0.115099 7.667428 1.770365
-0.113647 7.659990 -0.133720
-0.113144 7.716918 2.067964
-0.078171 5.816280 -1.558608
-0.544786 41.068134 0.716910
-0.088387 6.751806 -1.558911
-0.320965 24.518250 1.285057
-0.099497 7.703168 -1.497469
-0.242752 19.051674 1.666941
-0.096090 7.646080 -1.211116
-0.098416 7.941745 0.975199
-0.094196 7.709524 -0.946681
-0.093687 7.667840 1.214557
-0.092112 7.648229 -0.669182
-0.091427 7.703268 1.497469
-0.089661 7.666954 -0.401836
-0.088400 7.673630 1.771715
-0.088246 7.660325 -0.133720
-0.087354 7.699865 2.063306
-0.057888 5.818449 -1.559126
-0.409002 41.109707 0.717608
-0.065919 6.744268 -1.557111
-0.235384 24.519220 1.285057
-0.072757 7.719173 -1.500522
-0.176906 19.124130 1.673216
-0.070659 7.638455 -1.209864
-0.071941 7.926147 0.973249
-0.069462 7.803089 -0.958137
-0.067004 7.677997 1.216122
-0.065433 7.650496 -0.669356
-0.065786 7.691750 1.495179
-0.064234 7.667208 -0.401836
-0.062966 7.675829 1.772164
-0.061536 7.664586 -0.133790
-0.060538 7.707851 2.065376
-0.038579 5.816678 -1.558608
-0.042317 6.734713 -1.554862
-0.149849 24.529879 1.285581
-0.047156 7.719372 -1.500522
-0.113609 19.144535 1.674959
-0.043997 7.638656 -1.209864
-0.044259 7.924365 0.973005
-0.042060 7.773508 -0.954481
-0.040204 7.678184 1.216122
-0.040071 7.652663 -0.669530
-0.038894 7.684079 1.493653
-0.037442 7.661395 -0.401522
-0.036183 7.677951 1.772614
-0.034801 7.668753 -0.133860
-0.033617 7.704151 2.064341
-0.018261 5.812913 -1.557573
-0.018787 6.727025 -1.553062
-0.064190 24.520266 1.285057
-0.020208 7.719490 -1.500522
-0.046873 19.180677 1.678097
-0.017367 7.654566 -1.212367
-0.016592 7.922486 0.972761
-0.014866 7.741846 -0.950581
-0.013400 7.678277 1.216122
-0.013363 7.656741 -0.669879
-0.012091 7.697911 1.496324
-0.010681 7.647498 -0.400789
-0.009380 7.678031 1.772614
-0.008020 7.658830 -0.133685
-0.006733 7.711949 2.066411
0.002030 5.814873 -1.558091
0.004696 6.727050 -1.553062
0.021397 24.520340 1.285057
0.006723 7.703808 -1.497469
0.020156 19.248465 1.684023
0.009347 7.650629 -1.211741
0.011070 7.928452 0.973492
0.012191 7.761702 -0.953018
0.013390 7.672352 1.215183
0.013384 7.668695 -0.670925
0.014774 7.695943 1.495943
0.016049 7.663466 -0.401626
0.017416 7.676068 1.772164
0.018718 7.660810 -0.133720
0.020184 7.709994 2.065894
0.022292 5.805171 -1.555503
0.028193 6.730890 -1.553962
0.107004 24.522114 1.285162
0.033633 7.707664 -1.498232
0.087432 19.268200 1.685766
0.036069 7.654500 -1.212367
0.038757 7.930349 0.973736
0.039478 7.799328 -0.957649
0.040149 7.668308 1.214557
0.041350 7.897724 -0.690971
0.041661 7.699771 1.496706
0.044208 7.675960 1.772164
0.045473 7.662698 -0.133755
0.047039 7.700218 2.063306
0.042495 5.797331 -1.553432
0.051660 6.726853 -1.553062
0.192600 24.523588 1.285267
0.060501 7.703573 -1.497469
0.154951 19.299656 1.688555
0.062758 7.650377 -1.211741
0.066533 7.942076 0.975199
0.066480 7.773337 -0.954481
0.066970 7.674047 1.215496
0.068463 7.691726 1.495179
0.071004 7.675759 1.772164
0.072200 7.660493 -0.133720
0.073935 7.701938 2.063823
0.062774 5.801012 -1.554467
0.074878 6.703248 -1.547663
0.278254 24.526758 1.285476
0.087572 7.719019 -1.500522
0.222874 19.346811 1.692739
0.089437 7.648136 -1.211429
0.094116 7.929885 0.973736
0.092372 7.669840 -0.941806
0.093804 7.677716 1.216122
0.095363 7.695366 1.495943
0.097870 7.681310 1.773514
0.099041 7.668193 -0.133860
0.100847 7.703565 2.064341
0.082942 5.794961 -1.552914
0.098221 6.699049 -1.546763
0.363755 24.517651 1.285057
0.114459 7.714741 -1.499759
0.290871 19.377789 1.695528
0.116106 7.645802 -1.211116
0.121829 7.931494 0.973980
0.121082 7.794518 -0.957162
0.120730 7.685243 1.217373
0.120111 7.645848 -0.669007
0.122070 7.685172 1.494035
0.122819 7.648516 -0.400893
0.124589 7.675076 1.772164
0.125941 7.675798 -0.134000
0.127891 7.712823 2.066929
0.103168 5.794637 -1.552914
0.121606 6.698665 -1.546763
0.449477 24.524220 1.285476
0.141207 7.704480 -1.497851
0.358737 19.388609 1.696574
0.143017 7.657200 -1.212993
0.149513 7.931020 0.973980
0.148367 7.798017 -0.957649
0.147368 7.674900 1.215809
0.146877 7.649366 -0.669356
0.149084 7.694513 1.495943
0.149597 7.652035 -0.401103
0.151420 7.676543 1.772614
0.152454 7.661316 -0.133755
0.154777 7.710399 2.066411
0.122985 5.774928 -1.547738
0.144983 6.698200 -1.546763
0.530189 24.494640 1.284010
0.167802 7.690200 -1.495179
0.427286 19.427074 1.700060
0.169477 7.644805 -1.211116
0.177420 7.940373 0.975199
0.175588 7.797451 -0.957649
0.173039 7.684244 1.217373
0.173392 7.640840 -0.668659
0.175809 7.688058 1.494798
0.176493 7.659453 -0.401522
0.178300 7.679864 1.773514
0.177811 7.658770 -0.133720
0.180211 7.704049 2.064858
0.143091 5.772532 -1.547220
0.167196 6.697682 -1.546763
0.195239 7.713120 -1.499759
0.493375 19.357748 1.694133
0.194930 7.648150 -1.211741
0.204054 7.951647 0.976661
0.201545 7.800795 -0.958137
0.199705 7.677669 1.216435
0.200064 7.640188 -0.668659
0.201404 7.691358 1.495561
0.201785 7.654832 -0.401312
0.203821 7.681179 1.773964
0.204759 7.666099 -0.133860
0.207000 7.699511 2.063823
0.162397 5.777819 -1.548773
0.189911 6.673682 -1.541365
0.592384 20.816994 1.091414
0.221039 7.720280 -1.501285
0.529336 18.376156 1.608372
0.221399 7.639525 -1.210490
0.231345 7.935012 0.974711
0.228656 7.796076 -0.957649
0.225394 7.684862 1.217686
0.225636 7.647448 -0.669356
0.227900 7.678833 1.493271
0.228383 7.650089 -0.401103
0.230692 7.682369 1.774414
0.230302 7.669374 -0.133930
0.232701 7.704575 2.065376
0.182566 5.777216 -1.548773
0.211792 6.665225 -1.539565
0.622435 19.481312 1.021493
0.247862 7.715536 -1.500522
0.556434 17.227177 1.507969
0.246985 7.646646 -1.211741
0.257595 7.932218 0.974467
0.252631 7.737737 -0.950581
0.252609 7.695874 1.219563
0.252656 7.656570 -0.670228
0.253753 7.689808 1.495561
0.253752 7.649290 -0.401103
0.255905 7.673771 1.772614
0.257204 7.672521 -0.134000
0.259661 7.705647 2.065894
0.201519 5.770787 -1.547220
0.235193 6.668340 -1.540465
0.687317 19.391195 1.016888
0.273306 7.710748 -1.499759
0.579520 16.269499 1.424299
0.273886 7.651660 -1.212680
0.285637 7.941190 0.975686
0.282151 7.806241 -0.959112
0.279182 7.687049 1.218312
0.279234 7.651660 -0.669879
0.280664 7.690838 1.495943
0.280600 7.652348 -0.401312
0.282760 7.674778 1.773064
0.283835 7.667580 -0.133930
0.286703 7.708554 2.066929
0.222223 5.758427 -1.544114
0.258017 6.655795 -1.537765
0.955656 24.541697 1.287151
0.301414 7.705770 -1.498996
0.603474 15.359433 1.344813
0.302083 7.654553 -1.213306
0.313667 7.948078 0.976661
0.310025 7.821076 -0.961062
0.305858 7.682080 1.217686
0.305625 7.642675 -0.669182
0.308458 7.679949 1.494035
0.308805 7.655260 -0.401522
0.310890 7.673690 1.773064
0.310357 7.660548 -0.133825
0.313136 7.695925 2.063823
0.241834 5.746036 -1.541009
0.282739 6.662592 -1.539565
1.041069 24.532223 1.286837
0.329144 7.724287 -1.502812
0.624888 14.604799 1.278923
0.328124 7.637663 -1.210803
0.343054 7.952825 0.977392
0.337399 7.790140 -0.957406
0.333269 7.694780 1.219876
0.332213 7.639571 -0.669007
0.335263 7.678825 1.494035
0.335873 7.662117 -0.401940
0.338187 7.684239 1.775764
0.337534 7.669407 -0.134000
0.340000 7.694785 2.063823
0.261977 5.747087 -1.541526
0.303764 6.638258 -1.534166
1.126794 24.530436 1.286941
0.355742 7.715246 -1.501285
0.642153 13.874094 1.215125
0.353908 7.646399 -1.212367
0.369888 7.961558 0.978611
0.364246 7.810790 -0.960087
0.360128 7.693571 1.219876
0.360283 7.668218 -0.671622
0.360451 7.671788 1.492890
0.363761 7.685022 1.776214
0.364305 7.668182 -0.134000
0.367220 7.701270 2.065894
0.281412 5.753904 -1.543597
0.326454 6.627425 -1.531917
1.211916 24.516380 1.286418
0.381230 7.712062 -1.500904
0.656368 13.231127 1.158997
0.380694 7.647090 -1.212680
0.397873 7.964184 0.979098
0.391808 7.815419 -0.960818
0.387480 7.702130 1.221440
0.387424 7.674405 1.493653
0.386908 7.637712 -0.400789
0.390191 7.675921 1.774414
0.391272 7.670858 -0.134069
0.394498 7.707659 2.067964
0.301093 5.745170 -1.541526
2.639904 50.204987 0.877542
0.349892 6.632083 -1.533266
1.297810 24.517981 1.286732
0.408150 7.710685 -1.500904
0.696847 13.121318 1.149584
0.408014 7.657550 -1.214557
0.425461 7.958782 0.978611
0.418451 7.802110 -0.959356
0.413721 7.688896 1.219563
0.426705 7.930193 -0.694806
0.414530 7.678887 1.494798
0.414649 7.656257 -0.401836
0.416766 7.670620 1.773514
0.417830 7.665452 -0.134000
0.421191 7.702376 2.066929
0.320063 5.724796 -1.536350
2.811118 50.123592 0.876285
0.372604 6.623038 -1.531467
1.380224 24.533484 1.287779
0.434725 7.703333 -1.499759
0.742867 13.122784 1.149933
0.434855 7.658052 -1.214870
0.649429 11.401756 1.402229
0.445908 7.804566 -0.959843
0.439444 7.691426 1.220189
0.438426 7.650177 -0.670402
0.441785 7.685233 1.496324
0.441830 7.662739 -0.402254
0.443991 7.676900 1.775314
0.443592 7.670014 -0.134104
0.446509 7.697080 2.065894
0.340389 5.729429 -1.537903
2.980866 50.173878 0.877333
0.394451 6.619821 -1.531017
1.466087 24.532505 1.287988
0.462202 7.711567 -1.501667
1.170756 19.476315 1.707032
0.459894 7.650652 -1.213932
0.657851 10.912092 1.342269
0.470706 7.785211 -0.957649
0.466172 7.687874 1.219876
0.465731 7.658544 -0.671273
0.467143 7.681767 1.495943
0.467966 7.673194 -0.402882
0.469924 7.683167 1.777113
0.470361 7.668418 -0.134104
0.473369 7.695475 2.065894
0.358784 5.718628 -1.535315
0.416570 6.602845 -1.527418
1.552980 24.547171 1.289035
0.488394 7.719789 -1.503575
1.235079 19.468349 1.706684
0.486467 7.647029 -1.213619
0.670287 10.507573 1.292790
0.499402 7.807293 -0.960574
0.493758 7.698028 1.221753
0.492719 7.660848 -0.671622
0.492949 7.664415 1.492890
0.493721 7.655568 -0.402045
0.496861 7.683424 1.777563
0.497516 7.672717 -0.134209
0.500230 7.693775 2.065894
0.380508 5.728840 -1.538420
0.439488 6.599407 -1.526968
1.636268 24.505728 1.287151
0.517076 7.723824 -1.504720
1.310158 19.519352 1.711564
0.515027 7.653078 -1.214870
0.682439 10.140737 1.247942
0.525981 7.795599 -0.959356
0.520761 7.698228 1.222066
0.519190 7.655106 -0.671273
0.522101 7.678227 1.495943
0.522726 7.667656 -0.402778
0.524492 7.673774 1.775764
0.524844 7.678913 -0.134349
0.527346 7.695837 2.066929
0.399966 5.719769 -1.536350
0.463398 6.593863 -1.526068
1.719261 24.464005 1.285267
0.543209 7.710221 -1.502430
1.410294 19.967796 1.751307
0.541594 7.649263 -1.214557
0.698236 9.837191 1.210894
0.555397 7.805499 -0.960818
0.547352 7.692422 1.221440
0.547179 7.671133 -0.672842
0.549602 7.686149 1.497851
0.548633 7.653831 -0.402150
0.552112 7.683559 1.778463
0.550783 7.665067 -0.134139
0.554486 7.697803 2.067964
0.418937 5.704851 -1.532727
0.485550 6.596178 -1.526968
1.801420 24.414036 1.282964
0.569683 7.702404 -1.501285
1.485875 20.042231 1.758280
0.567689 7.657275 -1.216122
0.729381 9.815024 1.208457
0.579507 7.779860 -0.957893
0.575081 7.702284 1.223318
0.573657 7.665203 -0.672494
0.574792 7.680369 1.497087
0.574611 7.659936 -0.402568
0.577587 7.681686 1.778463
0.577534 7.663097 -0.134139
0.580482 7.684262 2.064858
0.437260 5.695726 -1.530656
3.223076 41.887787 0.733315
0.507824 6.584727 -1.524718
1.882930 24.359808 1.280452
0.595826 7.708303 -1.502812
1.558173 20.112679 1.764904
0.593805 7.647369 -1.214870
0.764559 9.824293 1.209919
0.609441 7.813413 -0.962280
0.602427 7.706138 1.224256
0.598920 7.661272 -0.672319
0.601137 7.672443 1.495943
0.602282 7.669831 -0.403196
0.605011 7.687394 1.780263
0.604593 7.665022 -0.134209
0.608061 7.691819 2.067447
0.457450 5.698016 -1.531691
0.529865 6.571260 -1.522019
1.966026 24.329197 1.279196
0.622731 7.706176 -1.502812
1.631591 20.146832 1.768390
0.621133 7.653125 -1.216122
0.800299 9.839371 1.212113
0.635742 7.799367 -0.960818
0.629321 7.703988 1.224256
0.625982 7.663106 -0.672668
0.628237 7.674212 1.496706
0.628886 7.665691 -0.403092
0.632638 7.694946 1.782512
0.632004 7.670836 -0.134349
0.635223 7.693501 2.068482
0.477016 5.692534 -1.530656
0.552148 6.561603 -1.520219
1.997243 23.685324 1.245701
0.649134 7.698086 -1.501667
1.703245 20.156898 1.769785
0.647845 7.650910 -1.216122
1.271684 14.987188 1.846808
0.663971 7.808968 -0.962280
0.657218 7.713554 1.226133
0.653575 7.670800 -0.673540
0.655524 7.677841 1.497851
0.655980 7.667430 -0.403301
0.659663 7.694633 1.782962
0.659292 7.674561 -0.134453
0.662073 7.691236 2.068482
0.497051 5.692760 -1.531174
3.616238 41.333794 0.724240
0.575044 6.559636 -1.520219
2.012443 22.910221 1.205297
0.675828 7.693818 -1.501285
1.778492 20.206402 1.774665
0.674200 7.644667 -1.215496
1.324337 14.986614 1.847296
0.689826 7.790784 -0.960331
0.683090 7.699407 1.224256
0.681226 7.678395 -0.674411
0.681798 7.669639 1.496706
0.682565 7.663104 -0.403196
0.686864 7.696165 1.783862
0.685541 7.666237 -0.134349
0.689780 7.698499 2.071070
0.515872 5.679446 -1.528068
3.761577 41.332870 0.724449
0.597586 6.553707 -1.519319
2.028445 22.202936 1.168453
0.701968 7.683591 -1.499759
1.854822 20.263561 1.780243
0.702322 7.658004 -1.217999
1.386455 15.088645 1.860458
0.720655 7.827864 -0.965205
0.710686 7.704844 1.225508
0.706742 7.662083 -0.673191
0.709471 7.676987 1.498614
0.710417 7.672606 -0.403824
0.714082 7.697602 1.784762
0.712299 7.663797 -0.134349
0.716114 7.690273 2.069517
0.534601 5.666071 -1.524962
3.899069 41.247818 0.723193
0.620093 6.547701 -1.518420
2.041024 21.511736 1.132445
0.728223 7.675231 -1.498614
1.919893 20.197460 1.775014
0.728864 7.653539 -1.217686
1.436466 15.056049 1.857045
0.747411 7.819372 -0.964474
0.737767 7.704282 1.225821
0.740892 7.736918 -0.679989
0.736072 7.672510 1.498232
0.737193 7.670080 -0.403824
0.740950 7.695062 1.784762
0.739425 7.665246 -0.134418
0.743509 7.693496 2.071070
0.555319 5.673783 -1.527550
3.900978 39.785126 0.697782
0.642182 6.537739 -1.516620
2.051439 20.884691 1.099788
0.754243 7.664826 -1.497087
1.955596 19.837698 1.743986
0.755379 7.648983 -1.217373
1.489407 15.054893 1.857533
0.774703 7.830678 -0.966180
0.764482 7.713588 1.227698
0.761397 7.668859 -0.674237
0.763240 7.673800 1.498996
0.763370 7.661498 -0.403510
0.766852 7.696440 1.785661
0.765637 7.670711 -0.134558
0.769401 7.694832 2.072105
0.573354 5.664222 -1.525479
3.930399 38.761307 0.680050
0.663660 6.533635 -1.516170
2.088789 20.563822 1.083250
0.779459 7.660330 -1.496706
1.969241 19.319719 1.699014
0.782344 7.662158 -1.219876
1.540943 15.065669 1.859483
0.801476 7.835965 -0.967155
0.791666 7.726731 1.230201
0.786618 7.664310 -0.674062
0.789288 7.677086 1.500140
0.789385 7.664885 -0.403824
0.792369 7.693855 1.785661
0.791889 7.676086 -0.134698
0.795511 7.698002 2.073658
0.592736 5.668054 -1.527032
3.937224 37.586594 0.659666
0.684511 6.523646 -1.514371
2.560567 24.362188 1.283801
0.803009 7.640131 -1.493271
1.977377 18.782057 1.652298
0.807336 7.655591 -1.219250
1.593810 15.088114 1.862895
0.830288 7.846938 -0.968861
0.817798 7.716063 1.228949
0.814421 7.671422 -0.674934
0.814533 7.672474 1.499759
0.815223 7.666197 -0.404034
0.819632 7.694918 1.786561
0.817832 7.665322 -0.134558
0.823406 7.704784 2.076247
0.611009 5.642796 -1.520821
4.070134 37.588524 0.659945
0.706020 6.509592 -1.511671
2.644939 24.347149 1.283487
0.829943 7.627378 -1.491363
1.993114 18.287441 1.609418
0.834959 7.648654 -1.218625
1.649050 15.106140 1.865820
0.859611 7.861753 -0.971055
0.845160 7.717089 1.229575
0.845538 7.708144 -0.678420
0.843290 7.675292 1.500904
0.845061 7.679040 -0.404871
0.848258 7.695737 1.787461
0.845024 7.666395 -0.134628
0.849442 7.694182 2.074176
0.631133 5.644469 -1.521856
4.231013 37.780033 0.663575
0.730307 6.510834 -1.512571
2.734833 24.343241 1.283801
0.855907 7.618581 -1.490218
2.007030 17.836876 1.570372
0.862098 7.649618 -1.219250
1.707081 15.123665 1.868745
0.887753 7.852631 -0.970324
0.874770 7.725717 1.231452
0.868406 7.669509 -0.675283
0.870078 7.672301 1.500904
0.871409 7.672074 -0.404662
0.875775 7.698537 1.788811
0.873795 7.669207 -0.134733
0.876763 7.683340 2.072105
0.650389 5.638393 -1.520821
4.341532 37.580292 0.660329
0.750791 6.488887 -1.508072
2.820934 24.343468 1.284325
0.881364 7.605796 -1.488310
2.015069 17.362694 1.529235
0.889253 7.650486 -1.219876
1.763073 15.145220 1.872157
0.916995 7.865258 -0.972274
0.902422 7.728502 1.232391
0.900720 7.713926 -0.679466
0.896853 7.669218 1.500904
0.898182 7.668985 -0.404662
0.903553 7.703176 1.790610
0.901258 7.672069 -0.134837
0.905607 7.697500 2.076764
0.670068 5.636088 -1.520821
4.475532 37.588734 0.660748
0.772051 6.474617 -1.505373
2.902361 24.339930 1.284639
0.906746 7.592926 -1.486402
2.028349 16.959894 1.494372
0.917125 7.657143 -1.221440
1.818770 15.162623 1.875082
0.940710 7.842464 -0.969836
0.930165 7.743118 1.235207
0.936683 7.785903 -0.686090
0.925029 7.677735 1.503193
0.924231 7.659855 -0.404348
0.929091 7.700137 1.790610
0.926457 7.667052 -0.134802
0.930898 7.692537 2.076247
0.687581 5.624248 -1.518233
4.603065 37.597507 0.661167
0.793516 6.472021 -1.505373
2.984513 24.342064 1.285267
0.929765 7.572340 -1.482968
2.033513 16.537804 1.457767
0.942511 7.654060 -1.221440
1.870010 15.164391 1.876057
0.969626 7.862944 -0.972761
0.955354 7.736070 1.234581
0.949779 7.679934 -0.677026
0.950965 7.678523 1.503957
0.950612 7.664676 -0.404766
0.954383 7.695079 1.790160
0.951382 7.659969 -0.134733
0.958547 7.706661 2.080905
0.705266 5.614269 -1.516162
4.730206 37.601875 0.661516
0.814489 6.465487 -1.504473
3.070720 24.341406 1.285790
0.954873 7.569215 -1.482968
2.041893 16.163305 1.425345
0.969377 7.662650 -1.223318
1.925280 15.197493 1.880932
0.995566 7.847696 -0.971299
0.982600 7.734648 1.234894
0.975578 7.668665 -0.676329
0.975682 7.669484 1.502812
0.976776 7.667426 -0.405080
0.981976 7.697500 1.791510
0.977610 7.652634 -0.134663
0.984219 7.693687 2.078317
0.725094 5.605899 -1.514609
4.862212 37.591087 0.661621
0.837051 6.462605 -1.504473
3.157976 24.348364 1.286732
0.982607 7.565665 -1.482968
2.052304 15.780319 1.392226
0.995413 7.643375 -1.220815
1.972162 15.143435 1.875082
1.025009 7.859921 -0.973249
1.011638 7.746841 1.237397
1.012414 7.742261 -0.683127
1.004548 7.671697 1.503957
1.006695 7.677656 -0.405813
1.010688 7.697714 1.792410
1.005877 7.661071 -0.134872
1.011319 7.692120 2.078835
0.744659 5.603333 -1.514609
5.002323 37.590847 0.661935
0.858160 6.440176 -1.499974
3.247202 24.336626 1.286732
1.008493 7.558296 -1.482204
2.061989 15.433387 1.362244
1.023661 7.651602 -1.222692
2.001562 14.941322 1.850952
1.056976 7.879720 -0.976174
1.041604 7.754827 1.239274
1.029887 7.667592 -0.676851
1.031323 7.668143 1.503957
1.032684 7.668157 -0.405499
1.038335 7.699933 1.793760
1.035289 7.667242 -0.135047
1.040539 7.696019 2.080905
0.763952 5.598786 -1.514091
5.137038 37.598915 0.662389
0.880369 6.435211 -1.499524
3.295264 24.056032 1.272497
1.032471 7.537225 -1.478770
2.073076 15.114217 1.334703
1.050635 7.649939 -1.223005
2.010432 14.619591 1.811954
1.081769 7.856317 -0.973736
1.068939 7.753101 1.239587
1.068621 7.750794 -0.684521
1.059693 7.676165 1.506246
1.058900 7.660549 -0.405290
1.065743 7.700121 1.794659
1.063143 7.671504 -0.135186
1.069257 7.705735 2.084529
0.783760 5.597998 -1.514609
5.274351 37.624321 0.663157
0.902284 6.428239 -1.498624
3.298391 23.499079 1.243607
1.058776 7.533574 -1.478770
2.079177 14.775433 1.305419
1.080358 7.667742 -1.226446
2.023188 14.341227 1.778318
1.109743 7.856424 -0.974224
1.094089 7.745603 1.238961
1.083109 7.658243 -0.676677
1.086208 7.670475 1.505865
1.086757 7.664716 -0.405708
1.092610 7.696355 1.794659
1.087732 7.661997 -0.135082
1.095894 7.709797 2.086599
0.799997 5.572281 -1.508397
1.104596 7.693928 0.135675
0.923875 6.427141 -1.499074
3.310412 23.001106 1.217858
1.083102 7.516231 -1.476099
2.088635 14.476233 1.279621
1.105781 7.664116 -1.226446
2.026172 14.025981 1.740051
1.136921 7.860561 -0.975199
1.123100 7.755421 1.241151
1.111266 7.664274 -0.677549
1.114454 7.686261 1.509681
1.114172 7.674906 -0.406441
1.118688 7.696547 1.795559
1.114185 7.656175 -0.135047
1.122245 7.702101 2.085564
0.817911 5.565775 -1.507362
1.131449 7.690026 0.135675
0.945454 6.418092 -1.497724
3.321900 22.523104 1.193155
1.107163 7.506771 -1.474954
2.094132 14.181458 1.254171
1.132529 7.660210 -1.226446
2.037910 13.767470 1.708852
1.166101 7.868325 -0.976661
1.150746 7.755361 1.241777
1.139017 7.676313 -0.678943
1.138679 7.664846 1.506246
1.141545 7.674921 -0.406650
1.146698 7.700305 1.797359
1.143556 7.670039 -0.135361
1.147977 7.690495 2.083493
0.837911 5.566707 -1.508397
1.158883 7.689984 0.135745
0.965812 6.401265 -1.494575
3.332491 22.061104 1.169290
1.132775 7.498977 -1.474190
2.101319 13.894324 1.229419
1.159256 7.656210 -1.226446
2.044008 13.483537 1.674485
1.194753 7.872057 -0.977636
1.179883 7.764968 1.243967
1.165800 7.672291 -0.678943
1.166316 7.666648 1.507391
1.168932 7.674838 -0.406860
1.174740 7.703961 1.799158
1.171531 7.673907 -0.135500
1.177736 7.705537 2.088670
0.856748 5.559930 -1.507362
1.186937 7.693797 0.135884
0.988152 6.397854 -1.494575
3.345390 21.634836 1.147309
1.157147 7.483336 -1.471901
2.129077 13.753017 1.217566
1.185976 7.652117 -1.226446
2.048757 13.203653 1.640605
1.220394 7.856069 -0.976174
1.209714 7.778370 1.246783
1.193495 7.674081 -0.679466
1.193676 7.666409 1.508154
1.194175 7.660844 -0.406336
1.201025 7.695963 1.798259
1.199239 7.675698 -0.135605
1.204625 7.701380 2.088670
0.875246 5.551181 -1.505809
1.216282 7.705409 0.136164
1.009565 6.388592 -1.493225
3.417753 21.603302 1.146262
1.180188 7.459860 -1.468084
2.180191 13.765180 1.219309
1.214844 7.661588 -1.228637
2.060279 12.978803 1.613550
1.249058 7.859604 -0.977149
1.237481 7.778001 1.247409
1.223095 7.687577 -0.681035
1.222281 7.673829 1.510444
1.223742 7.674380 -0.407278
1.229113 7.699421 1.800058
1.225392 7.667516 -0.135535
1.233944 7.712389 2.092811
0.894005 5.544277 -1.504774
1.244126 7.707039 0.136268
1.032172 6.386952 -1.493675
3.410213 21.078619 1.119048
1.208104 7.467324 -1.470374
3.246933 20.047186 1.776757
1.242531 7.663150 -1.229575
2.072178 12.765789 1.587958
1.275210 7.847358 -0.976174
1.266209 7.783382 1.248973
1.253440 7.704893 -0.682952
1.249690 7.673391 1.511207
1.252450 7.681889 -0.407906
1.255980 7.695084 1.800058
1.253437 7.671087 -0.135675
1.259612 7.700407 2.090740
0.912409 5.535405 -1.503221
1.270043 7.696731 0.136164
1.053827 6.379465 -1.492775
3.408167 20.609430 1.094764
1.232239 7.451439 -1.468084
1.312375 7.927410 0.702998
1.269275 7.658766 -1.229575
1.321693 7.966462 0.991529
1.305199 7.858525 -0.978123
1.293372 7.778915 1.248973
1.287845 7.745675 -0.686962
1.276143 7.667046 1.510826
1.278931 7.675500 -0.407802
1.283797 7.696419 1.801408
1.282511 7.680472 -0.135919
1.288075 7.705491 2.093328
0.931727 5.532186 -1.503221
1.298898 7.704081 0.136373
1.072196 6.352689 -1.487376
1.347250 7.973889 0.423817
1.259225 7.452900 -1.469229
1.343360 7.942426 0.704741
1.296659 7.658184 -1.230201
1.346842 7.946142 0.989579
1.330628 7.842178 -0.976661
1.323162 7.789933 1.251476
1.301861 7.664526 -0.680163
1.305204 7.676092 1.513497
1.305379 7.669021 -0.407697
1.314254 7.713023 1.806357
1.309651 7.677919 -0.135954
1.316263 7.708566 2.095399
0.951358 5.530804 -1.503739
1.332907 7.740885 0.137106
1.094697 6.350827 -1.487826
1.375418 7.971106 0.423921
1.283900 7.440720 -1.467703
1.324731 7.661397 -1.231452
2.083866 12.039227 1.500212
1.357993 7.837486 -0.976661
1.350348 7.785266 1.251476
1.331333 7.675639 -0.681558
1.333672 7.681161 1.515405
1.334191 7.676224 -0.408325
1.340503 7.704548 1.805457
1.337819 7.681181 -0.136094
1.344489 7.711536 2.097470
0.970027 5.529521 -1.504256
1.352000 7.699000 0.136443
1.115750 6.347163 -1.487826
4.315465 24.549377 1.306306
1.306520 7.424821 -1.465413
3.285235 18.650530 1.656831
1.351501 7.664743 -1.232704
2.090300 11.842628 1.476569
1.381560 7.819255 -0.974955
1.376173 7.788767 1.252727
1.357472 7.675107 -0.681907
1.360504 7.684430 1.516932
1.360687 7.677657 -0.408639
1.366724 7.703898 1.806357
1.363339 7.684815 -0.136233
1.369386 7.711078 2.098505
0.987281 5.514691 -1.501150
1.378579 7.700380 0.136548
1.137137 6.345346 -1.488276
4.406417 24.563654 1.307876
1.331391 7.414418 -1.464268
3.289696 18.301662 1.626849
1.378311 7.667996 -1.233955
2.096519 11.651981 1.453658
1.412055 7.840029 -0.978123
1.405808 7.797524 1.254917
1.384253 7.670321 -0.681907
1.388069 7.691468 1.519221
1.386138 7.673103 -0.408639
1.394693 7.712747 1.809506
1.389798 7.678043 -0.136199
1.394915 7.698648 2.096434
1.004178 5.503785 -1.499080
1.405093 7.693554 0.136513
1.159275 6.341339 -1.488276
4.459784 24.371304 1.298455
1.355266 7.406099 -1.463505
3.295800 17.992767 1.600354
1.405063 7.663140 -1.233955
2.101707 11.451297 1.429528
1.439415 7.835052 -0.978123
1.435513 7.806170 1.257107
1.410761 7.671568 -0.682429
1.411713 7.669198 1.515787
1.417259 7.691787 -0.409895
1.422662 7.713581 1.810856
1.418771 7.684943 -0.136408
1.423888 7.705130 2.099540
1.023031 5.498347 -1.498562
1.433403 7.696466 0.136652
1.176405 6.310433 -1.481978
4.543736 24.349697 1.298141
1.380031 7.395534 -1.462360
3.304441 17.691292 1.574556
1.432895 7.664013 -1.234894
2.105153 11.248768 1.405154
1.469678 7.845589 -0.980073
1.463848 7.806936 1.258046
1.468744 7.833048 -0.697246
1.441736 7.681589 1.519221
1.442623 7.678942 -0.409477
1.451382 7.718144 1.813105
1.447439 7.689769 -0.136583
1.453278 7.713402 2.103164
1.042574 5.496641 -1.499080
1.461381 7.697309 0.136757
1.198424 6.306288 -1.481978
4.629434 24.337614 1.298350
1.405099 7.386815 -1.461597
3.312518 17.397810 1.549455
1.460750 7.664786 -1.235832
2.110549 11.063910 1.382973
1.497802 7.844311 -0.980561
1.492204 7.807599 1.258985
1.466532 7.673273 -0.683475
1.471856 7.693865 1.522656
1.469796 7.675820 -0.409581
1.477216 7.707289 1.811756
1.476151 7.694490 -0.136757
1.482018 7.717768 2.105752
1.061756 5.492968 -1.499080
1.488615 7.694125 0.136792
1.221173 6.305892 -1.482877
4.716267 24.331108 1.298874
1.430130 7.378010 -1.460834
3.319329 17.108402 1.524703
1.489754 7.671275 -1.237710
2.122267 10.918122 1.365668
1.526690 7.846830 -0.981536
1.519825 7.804281 1.259298
1.496734 7.685708 -0.685044
1.498705 7.688681 1.522656
1.499642 7.686325 -0.410419
1.504856 7.705911 1.812656
1.503003 7.689290 -0.136757
1.509321 7.714443 2.106270
1.077563 5.472169 -1.494421
1.519333 7.708501 0.137141
1.242047 6.295856 -1.481528
4.739720 24.025330 1.283382
1.455114 7.369122 -1.460070
3.328813 16.842615 1.502042
1.517675 7.671841 -1.238648
2.123733 10.725657 1.342513
1.556384 7.853136 -0.982998
1.546463 7.803075 1.259923
1.521616 7.670665 -0.684173
1.527445 7.693030 1.524564
1.526458 7.681045 -0.410419
1.534409 7.713989 1.815805
1.529666 7.690147 -0.136862
1.533381 7.701817 2.104199
1.096660 5.468374 -1.494421
1.543316 7.695578 0.137001
1.262533 6.289792 -1.481078
4.744869 23.617014 1.262448
1.480830 7.363997 -1.460070
3.332551 16.557442 1.477638
1.541547 7.659020 -1.237397
2.127930 10.562874 1.323014
1.583989 7.855714 -0.983973
1.576820 7.813119 1.262426
1.550353 7.675072 -0.685044
1.553338 7.689847 1.524946
1.553111 7.681813 -0.410733
1.560366 7.710769 1.816255
1.559675 7.700440 -0.137141
1.562561 7.707778 2.107305
1.114400 5.462815 -1.493904
1.571371 7.696021 0.137106
1.280578 6.266253 -1.476579
4.751173 23.248922 1.243607
1.503666 7.351352 -1.458544
3.339491 16.312071 1.456721
1.572236 7.672945 -1.240525
2.129291 10.382310 1.301321
1.612202 7.854026 -0.984461
1.604311 7.815587 1.263678
1.577399 7.677695 -0.685741
1.582938 7.697840 1.527617
1.579918 7.676344 -0.410733
1.588057 7.709093 1.817155
1.587217 7.705019 -0.137316
1.589671 7.710122 2.109375
1.134639 5.464567 -1.495457
1.597285 7.692726 0.137141
1.302145 6.265788 -1.477479
4.759094 22.880222 1.224766
1.529717 7.347981 -1.458926
3.345198 16.054550 1.434758
1.598480 7.671556 -1.241151
2.131290 10.219729 1.281822
1.638236 7.848637 -0.984461
1.633601 7.819608 1.265242
1.605415 7.677993 -0.686264
1.609262 7.696391 1.528380
1.604545 7.667153 -0.410523
1.612815 7.699969 1.816255
1.615746 7.707260 -0.137455
1.616577 7.704526 2.109375
1.151160 5.453213 -1.493386
1.625370 7.692973 0.137246
1.324008 6.261205 -1.477479
4.776068 22.566467 1.208856
1.551232 7.329422 -1.456254
3.335658 15.747101 1.408262
1.627706 7.677524 -1.243028
2.151291 10.138437 1.272560
1.669745 7.862290 -0.986898
1.660885 7.813858 1.265242
1.632522 7.680422 -0.686962
1.636524 7.692647 1.528762
1.634624 7.677134 -0.411361
1.640900 7.700010 1.817604
1.642642 7.701573 -0.137455
1.646686 7.713951 2.113516
1.169378 5.445384 -1.492351
1.653476 7.693118 0.137350
1.345034 6.252735 -1.476579
4.850613 22.530132 1.207809
1.575569 7.318204 -1.455109
3.357455 15.581491 1.394492
1.656992 7.683382 -1.244906
2.192115 10.156091 1.275728
1.697182 7.856413 -0.986898
1.689401 7.813806 1.266181
1.658900 7.672730 -0.686787
1.665445 7.696481 1.530670
1.663528 7.681141 -0.411884
1.669831 7.703759 1.819854
1.669514 7.695792 -0.137455
1.672785 7.704380 2.112481
1.185080 5.426170 -1.488210
1.680745 7.689253 0.137385
1.367687 6.251809 -1.477479
5.334617 24.364603 1.307143
1.601103 7.312661 -1.455109
3.361923 15.341972 1.374097
1.684651 7.681410 -1.245531
2.229253 10.156134 1.276703
1.725446 7.854318 -0.987386
1.719637 7.821365 1.268371
1.687386 7.674676 -0.687485
1.691880 7.688704 1.530288
1.694195 7.692842 -0.412826
1.698391 7.705495 1.821654
1.699815 7.705539 -0.137734
1.700499 7.702267 2.113516
1.206525 5.433316 -1.491315
1.707144 7.681387 0.137350
1.386118 6.231779 -1.473879
5.424401 24.367279 1.308294
1.623205 7.291697 -1.452057
3.369533 15.124004 1.355620
1.713175 7.683194 -1.246783
3.293267 14.757451 1.856558
1.756315 7.863745 -0.989335
1.749085 7.824953 1.269935
1.716340 7.678461 -0.688356
1.720846 7.692332 1.532196
1.718858 7.677136 -0.412303
1.728263 7.712831 1.824803
1.728447 7.707365 -0.137874
1.729915 7.707593 2.116622
1.225911 5.430955 -1.491833
1.737026 7.689036 0.137595
1.406142 6.219299 -1.472080
5.512517 24.361830 1.309027
1.649950 7.291730 -1.453201
3.374769 14.902287 1.336795
1.743475 7.692580 -1.249286
3.304805 14.569696 1.834378
1.783756 7.857566 -0.989335
1.780326 7.836138 1.272751
1.762112 7.755967 -0.695851
1.750301 7.697764 1.534486
1.747864 7.680827 -0.412826
1.753875 7.701050 1.823453
1.754454 7.697384 -0.137804
1.760248 7.716575 2.120763
1.242268 5.415346 -1.488727
1.763857 7.682925 0.137595
1.427409 6.212453 -1.471630
5.597966 24.344387 1.309132
1.672311 7.272533 -1.450530
3.382982 14.700137 1.319712
1.773422 7.699921 -1.251476
3.312835 14.372373 1.810979
1.811168 7.851294 -0.989335
1.807226 7.827950 1.272438
1.775730 7.691528 -0.690622
1.778043 7.695434 1.535249
1.777809 7.688301 -0.413559
1.783824 7.708171 1.826603
1.782668 7.697057 -0.137909
1.788041 7.714149 2.121799
1.258534 5.399688 -1.485621
1.794301 7.692300 0.137874
1.449524 6.209332 -1.472080
5.688193 24.366535 1.311330
1.695456 7.257092 -1.448622
3.383474 14.470949 1.300189
1.801634 7.699456 -1.252414
3.320441 14.179037 1.788067
1.841283 7.856519 -0.990798
1.834525 7.827684 1.273377
1.799378 7.671706 -0.689402
1.806691 7.696825 1.536776
1.805550 7.685936 -0.413768
1.812498 7.709487 1.828402
1.808635 7.693051 -0.137944
1.813614 7.708176 2.121799
1.276041 5.389622 -1.484068
1.819341 7.684361 0.137839
1.468761 6.198802 -1.470730
5.779211 24.371792 1.312691
1.721233 7.253040 -1.449004
3.397133 14.303973 1.286244
1.827159 7.693439 -1.252414
3.322914 13.980613 1.764424
1.867328 7.850369 -0.990798
1.866868 7.842371 1.276818
1.830304 7.682821 -0.690971
1.833568 7.696521 1.537921
1.832883 7.687677 -0.414187
1.838961 7.707224 1.829302
1.838730 7.700305 -0.138188
1.841410 7.705556 2.122834
1.296611 5.396632 -1.487174
1.848485 7.687687 0.138014
1.487200 6.180374 -1.467581
5.868932 24.370888 1.313737
1.743895 7.241567 -1.447859
3.445479 14.296505 1.286593
1.856784 7.698535 -1.254292
3.325588 13.777890 1.740294
1.898443 7.859242 -0.992748
1.896090 7.843487 1.278070
1.859518 7.692202 -0.692365
1.859963 7.688165 1.537539
1.859701 7.681234 -0.414187
1.869526 7.715910 1.832901
1.867014 7.699670 -0.138293
1.871939 7.714101 2.126975
1.314068 5.386442 -1.485621
1.878157 7.692843 0.138223
1.507838 6.171360 -1.466681
5.956808 24.361895 1.314365
1.769160 7.235435 -1.447859
3.501995 14.311483 1.289033
1.887403 7.707356 -1.256795
3.334441 13.606171 1.720064
1.924922 7.848711 -0.992260
1.926285 7.848331 1.279947
1.889210 7.697273 -0.693411
1.890065 7.694972 1.540210
1.889365 7.686333 -0.414815
1.897847 7.715013 1.834251
1.896268 7.702815 -0.138467
1.900702 7.715024 2.129046
1.331935 5.378071 -1.484586
1.907402 7.695945 0.138398
1.528432 6.162276 -1.465781
6.036043 24.317692 1.313109
1.791570 7.217782 -1.445569
3.457786 13.920181 1.254868
1.918105 7.716058 -1.259298
3.341184 13.430706 1.699346
1.950387 7.834239 -0.991285
1.953663 7.841560 1.279947
1.916543 7.692566 -0.693585
1.917866 7.692137 1.540974
1.918116 7.687443 -0.415234
1.925708 7.712123 1.835151
1.921692 7.690328 -0.138363
1.931372 7.723334 2.133187
1.346460 5.356528 -1.479927
1.939135 7.708632 0.138747
1.548031 6.149343 -1.463982
6.040868 23.978848 1.295943
1.815313 7.205774 -1.444424
3.453269 13.697445 1.235868
1.950829 7.732299 -1.263052
3.345765 13.251513 1.678141
1.980642 7.838931 -0.992748
1.982963 7.842353 1.281199
1.942409 7.681966 -0.693237
1.946629 7.693009 1.542500
1.947392 7.690380 -0.415757
1.955487 7.716689 1.837850
1.950981 7.693265 -0.138537
1.957367 7.712801 2.132151
1.362284 5.340563 -1.476822
1.963066 7.690191 0.138537
1.571415 6.151455 -1.465781
6.048348 23.659620 1.279824
1.840940 7.201296 -1.444806
3.456129 13.509656 1.220006
1.974867 7.713961 -1.261175
3.352099 13.083992 1.658398
2.010953 7.843506 -0.994210
2.013270 7.846864 1.283076
1.972676 7.688648 -0.694457
1.973961 7.688068 1.542882
1.973730 7.681601 -0.415652
1.983866 7.715478 1.839200
1.980317 7.696091 -0.138712
1.986689 7.715274 2.134739
1.385757 5.354478 -1.481998
1.990899 7.687164 0.138607
1.590924 6.138386 -1.463982
6.068728 23.398634 1.266844
1.864096 7.187224 -1.443279
3.464721 13.349016 1.206584
2.009232 7.735699 -1.265868
3.355800 12.910826 1.637924
2.044315 7.859492 -0.997135
2.045128 7.856993 1.285891
2.003520 7.697140 -0.695851
2.001279 7.683031 1.543263
2.001538 7.678530 -0.415862
2.015215 7.725476 1.843249
2.011208 7.704610 -0.138991
2.017513 7.723246 2.138880
1.405376 5.349362 -1.481998
2.025160 7.703023 0.139026
1.610435 6.121207 -1.461282
6.152395 23.385035 1.267263
1.888929 7.174648 -1.442134
3.487226 13.236043 1.197520
2.038074 7.730194 -1.266181
3.362082 12.742967 1.618181
2.070069 7.840431 -0.995673
2.073048 7.851716 1.286204
2.031207 7.687819 -0.695677
2.034947 7.696523 1.547461
2.030691 7.675004 -0.416071
2.040023 7.704852 1.840100
2.041159 7.709142 -0.139200
2.047430 7.727360 2.141986
1.426026 5.351892 -1.484068
2.054810 7.711724 0.139305
1.631229 6.117715 -1.461732
6.503291 24.372673 1.322006
1.910411 7.154733 -1.439463
4.770362 17.853079 1.616739
2.065738 7.731026 -1.267432
3.365346 12.586001 1.599657
2.102209 7.856536 -0.998597
2.101974 7.850157 1.287143
2.061126 7.692228 -0.696723
2.060457 7.689733 1.547461
2.060264 7.683662 -0.416908
2.069605 7.713101 1.843699
2.067022 7.698108 -0.139131
2.076896 7.729495 2.144575
1.437221 5.322887 -1.477339
2.084848 7.716086 0.139515
1.651558 6.108221 -1.460832
6.592495 24.365248 1.322844
1.929514 7.131303 -1.436029
4.761843 17.587152 1.594079
2.096330 7.737113 -1.269622
3.373933 12.443895 1.583083
2.133781 7.864476 -1.000547
2.130919 7.848490 1.288082
2.084015 7.675737 -0.695851
2.089344 7.690071 1.548987
2.092314 7.695695 -0.417955
2.099076 7.715232 1.845948
2.095455 7.696634 -0.139235
2.103863 7.722199 2.144575
1.456304 5.319701 -1.477857
2.109658 7.701046 0.139375
1.669774 6.091144 -1.458133
6.687023 24.376755 1.324728
1.954916 7.126417 -1.436410
4.767303 17.366762 1.575601
2.123843 7.731655 -1.269935
3.378944 12.292313 1.565290
2.165435 7.872292 -1.002497
2.160394 7.848623 1.289333
2.115549 7.685706 -0.697420
2.117741 7.688410 1.550132
2.119698 7.690270 -0.418060
2.127025 7.711616 1.846848
2.125503 7.700838 -0.139445
2.134922 7.729705 2.148716
1.475377 5.316448 -1.478374
2.139201 7.703270 0.139549
1.691550 6.087155 -1.458583
6.775304 24.381388 1.326193
1.978730 7.115766 -1.435647
4.775548 17.161907 1.558519
2.151881 7.728001 -1.270561
3.378675 12.125549 1.545547
2.195032 7.872334 -1.003472
2.188002 7.847124 1.290272
2.143973 7.684031 -0.697943
2.146679 7.688533 1.551659
2.146527 7.682825 -0.418060
2.160230 7.726665 1.852247
2.156411 7.713006 -0.139794
2.162627 7.730024 2.150786
1.494451 5.313125 -1.478892
2.166898 7.703835 0.139689
1.706976 6.064629 -1.454533
6.863614 24.369127 1.326821
2.003019 7.106927 -1.435265
4.780267 16.949539 1.540739
2.178570 7.724623 -1.271187
3.383813 11.990102 1.529704
2.224361 7.876474 -1.004935
2.222903 7.866050 1.294652
2.172953 7.684169 -0.698640
2.173231 7.685152 1.552422
2.173622 7.681430 -0.418374
2.184780 7.715708 1.851347
2.183868 7.707355 -0.139829
2.193807 7.737298 2.154927
1.509946 5.300707 -1.476822
2.198164 7.711607 0.139968
1.729734 6.064257 -1.455883
6.953575 24.362301 1.327763
2.021728 7.083254 -1.431831
4.787198 16.761175 1.525051
2.209319 7.730267 -1.273377
3.386895 11.842707 1.512399
2.250751 7.864844 -1.004447
2.248715 7.852548 1.293713
2.202505 7.686113 -0.699512
2.205991 7.698280 1.556620
2.205379 7.691074 -0.419316
2.213310 7.713655 1.852697
2.211861 7.703530 -0.139898
2.222938 7.737019 2.156998
1.526147 5.284002 -1.473716
2.227842 7.713494 0.140143
1.750894 6.058182 -1.455883
7.049678 24.376251 1.329857
2.048766 7.079569 -1.432594
4.787634 16.533003 1.505877
2.238189 7.724014 -1.273690
3.393961 11.712598 1.497287
2.286481 7.885539 -1.008103
2.277761 7.850341 1.294652
2.230434 7.682205 -0.699861
2.237476 7.701454 1.558910
2.237454 7.696364 -0.420048
2.244836 7.716717 1.855396
2.239298 7.697681 -0.139933
2.250470 7.731068 2.157516
1.544583 5.278642 -1.473716
2.254976 7.701437 0.140073
1.770896 6.044242 -1.454084
7.142018 24.376413 1.331218
2.070706 7.062954 -1.430686
4.793721 16.340302 1.489840
2.266248 7.719947 -1.274315
3.398261 11.568663 1.480469
2.316489 7.880913 -1.008591
2.306266 7.846134 1.295278
2.260046 7.683929 -0.700732
2.264902 7.695480 1.559291
2.266001 7.694256 -0.420362
2.273409 7.714443 1.856746
2.269544 7.701328 -0.140143
2.280177 7.732430 2.160104
1.561900 5.269514 -1.472680
2.282774 7.701587 0.140213
1.787604 6.027127 -1.451384
7.236721 24.383886 1.332997
2.097026 7.061328 -1.431831
4.803054 16.163044 1.475198
2.292397 7.714283 -1.274628
3.398695 11.429846 1.464139
2.347142 7.888409 -1.010541
2.338148 7.853181 1.297781
2.291972 7.693180 -0.702301
2.292089 7.693572 1.560436
2.290935 7.684784 -0.420258
2.305662 7.729271 1.862145
2.299271 7.702939 -0.140317
2.313238 7.744784 2.165798
1.577700 5.258755 -1.471128
2.313671 7.706978 0.140457
1.809194 6.022717 -1.451834
7.327537 24.377607 1.334044
2.114774 7.035535 -1.428015
4.806130 15.979126 1.459859
2.322160 7.715690 -1.276192
3.401362 11.294364 1.448295
2.369507 7.863062 -1.008347
2.371251 7.863883 1.300909
2.319199 7.691259 -0.702824
2.324037 7.702439 1.563871
2.321785 7.690125 -0.420990
2.330376 7.713713 1.860345
2.329041 7.704437 -0.140492
2.345290 7.753304 2.170457
1.598295 5.260610 -1.473198
2.344630 7.712248 0.140701
1.827936 6.008907 -1.450034
7.421898 24.382450 1.335718
2.136464 7.018720 -1.426107
4.809628 15.790719 1.444171
2.355412 7.728323 -1.279634
3.407762 11.174191 1.434402
2.398097 7.858542 -1.008835
2.395224 7.844224 1.299032
2.349522 7.694550 -0.703870
2.357218 7.714934 1.568068
2.351533 7.691525 -0.421514
2.359566 7.712986 1.862145
2.357089 7.700085 -0.140562
2.376869 7.759848 2.174598
1.613809 5.245765 -1.470610
2.373887 7.711662 0.140841
1.848901 6.002489 -1.450034
7.512852 24.375477 1.336765
2.159218 7.005590 -1.424962
4.809521 15.594867 1.427785
2.386453 7.733266 -1.281824
3.411609 11.048424 1.419778
2.429028 7.861503 -1.010297
2.428428 7.854687 1.302161
2.376957 7.688205 -0.704044
2.383555 7.704783 1.567687
2.383090 7.698533 -0.422351
2.388207 7.710286 1.863495
2.387507 7.703269 -0.140771
2.402219 7.745970 2.173045
1.631535 5.238256 -1.470092
2.399604 7.699510 0.140771
1.871002 5.999720 -1.450934
7.571710 24.265215 1.332160
2.184242 6.999885 -1.425343
4.817615 15.429638 1.414189
2.414020 7.726775 -1.282137
3.415798 10.926558 1.405641
2.461198 7.868133 -1.012247
2.459374 7.857473 1.304038
2.406757 7.689367 -0.704916
2.411021 7.698290 1.568068
2.410548 7.692072 -0.422456
2.418024 7.711200 1.865744
2.417972 7.706336 -0.140981
2.428088 7.733850 2.172009
1.649811 5.232528 -1.470092
2.429472 7.700622 0.140946
1.886066 5.974570 -1.446435
7.599823 24.059612 1.322320
2.209847 6.995962 -1.426107
4.823413 15.260746 1.400244
2.441571 7.720185 -1.282450
3.415591 10.793441 1.390042
2.493444 7.874632 -1.014197
2.489168 7.856375 1.305289
2.437189 7.692317 -0.705962
2.441440 7.701055 1.570358
2.441613 7.696937 -0.423189
2.450227 7.719431 1.869793
2.447281 7.705473 -0.141120
2.459752 7.740055 2.176151
1.667475 5.224898 -1.469575
2.458773 7.699714 0.141085
1.908097 5.971662 -1.447335
7.816338 24.447664 1.345139
2.231858 6.980726 -1.424580
4.828084 15.092007 1.386299
2.475734 7.734191 -1.286204
3.422358 10.685040 1.377611
2.517280 7.854539 -1.012734
2.520197 7.858922 1.307166
2.467069 7.693248 -0.706833
2.472508 7.705572 1.573029
2.469685 7.692171 -0.423398
2.477756 7.712686 1.870243
2.477225 7.706401 -0.141295
2.491486 7.746136 2.180292
1.685111 5.217207 -1.469057
2.491786 7.710111 0.141434
1.928929 5.964965 -1.447335
7.909664 24.459616 1.347232
2.252587 6.961686 -1.422290
4.834099 14.931001 1.373052
2.504541 7.731141 -1.287143
3.427808 10.574833 1.364937
2.545760 7.853702 -1.013709
2.545028 7.846763 1.306541
2.501902 7.709226 -0.709099
2.501811 7.704365 1.574556
2.500226 7.694900 -0.424026
2.503923 7.706279 1.870693
2.503380 7.700047 -0.141330
2.518950 7.743342 2.181845
1.699405 5.202408 -1.466469
2.517960 7.703708 0.141469
1.946275 5.951127 -1.445535
8.027976 24.547152 1.353513
2.273220 6.946713 -1.420764
4.833984 14.763411 1.359107
2.536927 7.743442 -1.290584
3.431941 10.469090 1.352750
2.575501 7.856533 -1.015172
2.574111 7.847666 1.308105
2.521860 7.683850 -0.707530
2.530410 7.705351 1.576464
2.528845 7.696054 -0.424549
2.536154 7.718299 1.875642
2.530148 7.695503 -0.141399
2.545823 7.738616 2.182880
1.716646 5.196745 -1.466469
2.542867 7.693416 0.141434
1.964165 5.939089 -1.444186
8.186404 24.738932 1.365655
2.298710 6.946593 -1.422290
4.856616 14.667859 1.351786
2.561973 7.733111 -1.290272
3.441027 10.380399 1.342757
2.607912 7.862568 -1.017122
2.602732 7.842383 1.308731
2.552349 7.690572 -0.708925
2.557184 7.700645 1.577227
2.558762 7.700892 -0.425282
2.567383 7.722344 1.878791
2.563940 7.707496 -0.141783
2.575264 7.737014 2.184950
1.735387 5.192554 -1.466986
2.574141 7.697770 0.141679
1.981176 5.921109 -1.441486
8.324697 24.865509 1.374238
2.319202 6.927357 -1.420001
4.922965 14.696162 1.355969
2.592092 7.733485 -1.291836
3.467776 10.340092 1.339100
2.635336 7.853419 -1.017122
2.638896 7.859466 1.313111
2.585523 7.700503 -0.710668
2.587802 7.702837 1.579517
2.585623 7.691916 -0.425282
2.596811 7.720724 1.880591
2.589555 7.694708 -0.141714
2.606569 7.740793 2.188574
1.759072 5.202935 -1.471645
2.604842 7.700102 0.141888
1.995583 5.895699 -1.436987
8.460142 24.980066 1.382193
2.343371 6.919218 -1.420001
6.048505 17.849028 1.648812
2.622875 7.735616 -1.293713
3.512137 10.352363 1.342269
2.664012 7.847931 -1.017609
2.668219 7.855820 1.314050
2.613666 7.695205 -0.711016
2.617199 7.701193 1.581043
2.620175 7.705534 -0.426538
2.626886 7.720836 1.882840
2.624775 7.710232 -0.142167
2.639178 7.748106 2.193233
1.778474 5.200418 -1.472680
2.639472 7.713667 0.142307
2.018043 5.894228 -1.438337
8.627556 25.184673 1.395172
2.360512 6.890565 -1.415803
6.061671 17.684566 1.635565
2.654986 7.741361 -1.296216
4.773746 13.911267 1.805860
2.699124 7.861114 -1.020534
2.695627 7.846457 1.314050
2.648282 7.708645 -0.713108
2.651726 7.714289 1.585623
2.646405 7.694453 -0.426433
2.656355 7.718990 1.884640
2.650373 7.697240 -0.142097
2.670611 7.751633 2.196856
1.796615 5.194179 -1.472680
2.671615 7.719523 0.142586
2.038607 5.887147 -1.438337
8.672254 25.029850 1.388264
2.382621 6.876719 -1.414658
6.062025 17.486345 1.619179
2.684584 7.739511 -1.297468
4.792334 13.808253 1.794648
2.731760 7.866646 -1.022484
2.727536 7.850062 1.316240
2.675826 7.701236 -0.713283
2.681860 7.714259 1.587531
2.680467 7.705917 -0.427585
2.688406 7.724394 1.888239
2.681169 7.699273 -0.142307
2.697019 7.740438 2.196338
1.817923 5.196993 -1.475269
2.695905 7.702601 0.142447
2.060432 5.883674 -1.439237
8.849400 25.255770 1.402499
2.404665 6.862801 -1.413513
6.066342 17.303379 1.604189
2.714198 7.737550 -1.298719
3.492818 9.951639 1.294984
2.761836 7.864554 -1.023459
2.754920 7.840494 1.316240
2.703351 7.693730 -0.713457
2.708773 7.704850 1.587531
2.712654 7.711586 -0.428422
2.721174 7.731508 1.892288
2.714673 7.708729 -0.142656
2.727876 7.741909 2.199444
1.840944 5.207328 -1.479927
2.725429 7.704932 0.142656
2.076682 5.867624 -1.436987
8.867761 25.041784 1.392241
2.428063 6.856640 -1.413895
6.074438 17.144201 1.591290
2.741164 7.732229 -1.299345
3.490626 9.840846 1.282066
2.790555 7.862835 -1.024434
2.787517 7.849929 1.319368
2.735519 7.703497 -0.715200
2.732335 7.690274 1.586386
2.735534 7.695022 -0.428003
2.750718 7.733458 1.894988
2.744912 7.712872 -0.142900
2.760661 7.752840 2.205138
1.860409 5.204509 -1.480963
2.759717 7.716082 0.143040
2.093213 5.849330 -1.434288
8.846044 24.706060 1.375284
2.449334 6.840730 -1.412368
6.075118 16.957832 1.575950
2.772139 7.733770 -1.301222
3.490776 9.733306 1.269635
2.822005 7.864257 -1.025896
2.820244 7.855023 1.321871
2.762394 7.693901 -0.715200
2.773763 7.721340 1.594782
2.767781 7.700463 -0.428841
2.780995 7.732976 1.897237
2.771821 7.703242 -0.142900
2.789668 7.748609 2.206691
1.881849 5.207067 -1.483551
2.792757 7.723326 0.143354
2.112288 5.838324 -1.433388
8.861535 24.479717 1.364398
2.467854 6.817369 -1.409315
6.084071 16.797897 1.563051
2.806516 7.744477 -1.304664
3.494283 9.637081 1.258667
2.857565 7.876751 -1.028821
2.846966 7.843276 1.321558
2.794667 7.699195 -0.716594
2.798020 7.704228 1.593255
2.799421 7.703894 -0.429574
2.806634 7.719560 1.896337
2.799375 7.695400 -0.142935
2.820665 7.749715 2.209797
1.897364 5.193208 -1.481480
2.821757 7.719165 0.143459
2.134665 5.836405 -1.434738
9.244826 25.262650 1.409826
2.488264 6.799494 -1.407407
6.083754 16.615662 1.548060
2.838290 7.747616 -1.306854
3.504676 9.561453 1.250380
2.882307 7.859274 -1.027846
2.877731 7.842562 1.323123
2.820841 7.687522 -0.716420
2.835723 7.723900 1.599361
2.833180 7.712824 -0.430620
2.838943 7.724348 1.899937
2.832433 7.702472 -0.143249
2.849032 7.743450 2.210832
1.918153 5.193803 -1.483551
2.850766 7.714895 0.143564
2.153675 5.825261 -1.433838
9.255328 25.020432 1.398103
2.507892 6.779721 -1.405118
6.085012 16.441103 1.533767
2.865319 7.737661 -1.306854
3.514575 9.485876 1.242092
2.918006 7.871500 -1.030771
2.909213 7.843581 1.325000
2.851818 7.688837 -0.717466
2.862662 7.713957 1.599361
2.865649 7.717865 -0.431458
2.869963 7.725352 1.902636
2.864174 7.705660 -0.143494
2.879413 7.742509 2.213420
1.940326 5.197935 -1.486657
2.881172 7.714265 0.143738
2.171266 5.810407 -1.432038
9.251686 24.744768 1.384495
2.534982 6.780120 -1.407026
6.090696 16.281673 1.520868
2.895080 7.735013 -1.308105
3.528176 9.421497 1.235268
2.949646 7.872419 -1.032233
2.944894 7.855575 1.328755
2.886332 7.699358 -0.719384
