# This PCD file was generated using the MATLAB® pcwrite function
# from Computer Vision Toolbox®.
# .PCD v.7 - Point Cloud Data file format
VERSION .7
FIELDS x y z
SIZE 4 4 4
TYPE F F F
COUNT 1 1 1
WIDTH 1570
HEIGHT 1
VIEWPOINT 0 0 0 1 0 0 0
POINTS 1570
DATA ascii
-12.549293 -7.582172 1.282758
-10.138730 -6.123317 -1.875962
-12.441387 -7.511055 1.784411
-12.692540 -7.659652 -1.820241
-12.457529 -7.514863 2.304280
-12.600645 -7.601196 -1.287465
-12.456361 -7.511190 2.827408
-12.596469 -7.592682 -0.770804
-12.446991 -7.499621 3.354920
-12.587082 -7.581031 -0.256481
-12.436054 -7.487115 3.889533
-1.088168 -0.653320 -0.340088
-12.624693 -7.576686 0.257004
-6.841469 -4.104273 -1.841899
-12.615377 -7.565108 0.770909
-8.396708 -5.035284 -1.903129
-12.626950 -7.569052 1.287988
-10.432852 -6.251355 -1.926334
-12.545870 -7.514498 1.795623
-12.698762 -7.603064 -1.817316
-12.531145 -7.499736 2.313040
-12.673262 -7.584791 -1.292171
-12.546524 -7.505967 2.841909
-12.682890 -7.584543 -0.774468
-12.529965 -7.490123 3.370217
-12.671830 -7.571926 -0.257667
-12.528455 -7.483285 3.910238
-1.107039 -0.659404 -0.345265
-12.697453 -7.560197 0.257947
-6.864127 -4.085351 -1.844149
-12.695314 -7.555923 0.774258
-8.414234 -5.005943 -1.903129
-12.711517 -7.559555 1.293914
-10.468195 -6.222975 -1.928837
-12.633458 -7.507164 1.804398
-12.820800 -7.615461 -1.830965
-12.623882 -7.498494 2.325555
-12.754480 -7.573057 -1.297749
-12.640180 -7.502206 2.857174
-12.767692 -7.574874 -0.778026
-12.606319 -7.476161 3.383714
-12.760509 -7.567603 -0.258959
-12.583113 -7.459430 3.919556
-1.122639 -0.663398 -0.349406
-12.780988 -7.552638 0.259133
-6.875958 -4.061574 -1.843699
-12.783528 -7.548116 0.778026
-8.424893 -4.972549 -1.901603
-12.792738 -7.547536 1.299492
-10.500682 -6.195255 -1.931027
-12.668543 -7.471279 1.805860
-12.914387 -7.613228 -1.840715
-12.707842 -7.488482 2.336193
-12.844357 -7.565905 -1.304199
-12.698822 -7.480177 2.864806
-12.858140 -7.571001 -0.782004
-12.691502 -7.469899 3.399910
-12.845448 -7.557491 -0.260146
-12.698997 -7.468345 3.947508
-1.124833 -0.659671 -0.349406
-12.867654 -7.543373 0.260355
-6.896820 -4.041489 -1.845498
-12.870116 -7.538778 0.781690
-8.434560 -4.940614 -1.900076
-12.886470 -7.545341 1.306465
-10.437002 -6.108669 -1.915384
-12.773362 -7.473124 1.817072
-13.101956 -7.662304 -1.863626
-12.785066 -7.473982 2.345579
-12.792657 -7.475424 2.880071
-12.781449 -7.462892 3.417006
-12.940833 -7.552925 -0.261542
-12.765035 -7.447339 3.959932
-1.138933 -0.662343 -0.353029
-12.945765 -7.528569 0.261402
-6.936158 -4.032079 -1.852247
-12.956792 -7.528930 0.785353
-8.420355 -4.890933 -1.892825
-12.982962 -7.538073 1.313437
-10.462736 -6.072360 -1.916010
-12.871478 -7.470345 1.827309
-13.156096 -7.632462 -1.867526
-12.838419 -7.445164 2.350585
-12.887918 -7.467859 2.895336
-12.876173 -7.455055 3.435003
-32.093307 -18.581406 -0.647310
-12.857836 -7.441438 3.980637
-1.131198 -0.652571 -0.349923
-6.957642 -4.010523 -1.854047
-32.058403 -18.471640 1.939047
-8.423769 -4.853667 -1.889772
-10.506124 -6.048614 -1.920077
-12.953831 -7.454800 1.835109
-13.245928 -7.619825 -1.876301
-12.961515 -7.453205 2.368105
-20.569176 -11.827805 -2.075876
-12.978587 -7.460003 2.909837
-12.935914 -7.429474 3.444000
-12.948693 -7.430803 4.000307
-1.126762 -0.644781 -0.347853
-32.304726 -18.478636 0.649613
-6.971599 -3.986212 -1.854047
-32.209381 -18.409182 1.944281
-8.471340 -4.841771 -1.896641
-32.313972 -18.461479 3.255964
-10.590643 -6.048149 -1.931653
-13.041836 -7.444968 1.843883
-13.258653 -7.565671 -1.874351
-13.042363 -7.439231 2.378117
-13.035245 -7.432160 2.916706
-13.036275 -7.426714 3.463796
-13.024920 -7.414229 4.015836
-1.134046 -0.643704 -0.349406
-6.995642 -3.967620 -1.856746
-8.481359 -4.808298 -1.895115
-32.551559 -18.446800 3.273395
-10.596223 -6.002382 -1.928837
-13.126474 -7.432653 1.852170
-13.319532 -7.538899 -1.879225
-13.118533 -7.425133 2.387503
-13.132883 -7.427204 2.932734
-13.123195 -7.415680 3.479993
-15.733070 -8.890474 -0.315435
-13.109988 -7.405199 4.034472
-1.159853 -0.653010 -0.356653
-32.604008 -18.356422 0.653104
-7.007062 -3.943446 -1.856296
-8.503225 -4.781549 -1.896260
-10.653954 -5.988504 -1.935720
-13.237582 -7.437702 1.864357
-13.389460 -7.519962 -1.885563
-13.220161 -7.421844 2.401269
-13.222501 -7.420123 2.947236
-13.222505 -7.414057 3.499789
-13.233510 -7.414158 4.064495
-6.004013 -3.354154 -1.842792
-7.041203 -3.930358 -1.861695
-8.488174 -4.736106 -1.889391
-10.690319 -5.959935 -1.938536
-13.301613 -7.412708 1.869720
-13.484994 -7.511822 -1.895312
-13.311571 -7.412169 2.413158
-13.292923 -7.398746 2.957158
-13.295990 -7.394376 3.512386
-16.347054 -9.087447 -0.326465
-6.015684 -3.333177 -1.842792
-7.056586 -3.906700 -1.862145
-8.487476 -4.696944 -1.885575
-10.764649 -5.952214 -1.948235
-13.379526 -7.395042 1.877032
-13.618861 -7.524219 -1.910424
-13.403073 -7.401947 2.425047
-13.428666 -7.413026 2.981581
-13.372912 -7.376155 3.525883
-6.020510 -3.308436 -1.840721
-7.087261 -3.891425 -1.866644
-8.486609 -4.657842 -1.881758
-10.799215 -5.922203 -1.950738
-13.499258 -7.399821 1.890194
-13.732088 -7.524329 -1.922611
-13.491199 -7.389280 2.436311
-13.464796 -7.371760 2.983871
-13.490898 -7.379936 3.550178
-42.352551 -23.158529 -0.842567
-6.040504 -3.292021 -1.843309
-7.097378 -3.864798 -1.865744
-8.506266 -4.630064 -1.882522
-10.835441 -5.892964 -1.953554
-13.598256 -7.392471 1.900431
-13.841989 -7.521847 -1.934310
-13.582871 -7.377970 2.448200
-13.597418 -7.382795 3.007532
-21.280611 -11.549625 -1.268938
-13.574815 -7.364393 3.565474
-6.065554 -3.278266 -1.847450
-7.110826 -3.840000 -1.865744
-8.551745 -4.616199 -1.889009
-14.008142 -7.558386 1.392574
-10.880286 -5.868231 -1.957934
-13.655429 -7.361919 1.904818
-13.899616 -7.490435 -1.938698
-13.683777 -7.374120 2.461966
-13.678419 -7.365073 3.019743
-21.380594 -11.507456 -1.272497
-13.679384 -7.359430 3.586170
-6.076961 -3.257073 -1.847450
-7.140698 -3.825601 -1.870243
-8.572999 -4.589100 -1.890154
-14.034442 -7.509442 1.392574
-10.873561 -5.818142 -1.953241
-13.742784 -7.350298 1.913593
-13.990902 -7.479865 -1.947960
-13.733826 -7.339344 2.466346
-13.765108 -7.352973 3.033482
-21.492634 -11.476002 -1.276893
-13.738098 -7.332378 3.595168
-6.080905 -3.233275 -1.845380
-7.169497 -3.808882 -1.874292
-8.591639 -4.562487 -1.890917
-14.122620 -7.496489 1.398850
-10.921722 -5.794964 -1.958247
-13.849028 -7.345068 1.924805
-14.076558 -7.462595 -1.956247
-13.832671 -7.330203 2.479486
-13.863557 -7.343475 3.049510
-13.849729 -7.329957 3.617663
-13.962786 -7.383559 4.232209
-6.102969 -3.216371 -1.848486
-7.187922 -3.786555 -1.875642
-8.622200 -4.538283 -1.893970
-14.217007 -7.479929 1.405474
-10.948133 -5.757652 -1.959185
-13.955402 -7.339183 1.936017
-14.109550 -7.417111 -1.957222
-13.970087 -7.340683 2.499510
-13.963386 -7.330939 3.065537
-13.942078 -7.313550 3.634759
-6.117584 -3.196836 -1.849521
-7.205205 -3.761990 -1.876542
-8.641471 -4.509973 -1.894733
-14.214763 -7.415511 1.402684
-10.989182 -5.730364 -1.962940
-14.052621 -7.324686 1.945766
-14.277480 -7.438722 -1.976721
-14.049457 -7.316806 2.508896
-14.488537 -7.545474 -1.429180
-14.034167 -7.305726 3.075459
-14.505329 -7.547780 -0.856949
-14.036676 -7.300806 3.652755
-18.900923 -9.826625 -0.371841
-6.137282 -3.179905 -1.852109
-14.633389 -7.578753 0.287651
-7.218294 -3.736816 -1.876542
-8.637982 -4.469856 -1.890536
-14.272417 -7.382328 1.405822
-11.019648 -5.697410 -1.964817
-14.113373 -7.293816 1.950641
-14.373903 -7.425285 -1.986470
-14.148634 -7.305782 2.522037
-14.451058 -7.461942 -1.422905
-14.167747 -7.312521 3.099120
-14.488987 -7.475122 -0.854437
-14.148675 -7.296423 3.675251
-14.527049 -7.488340 -0.285277
-6.151781 -3.160230 -1.853144
-14.542350 -7.467340 0.285347
-7.245165 -3.718714 -1.880141
-14.601869 -7.491463 0.860089
-8.627329 -4.426236 -1.884811
-14.369013 -7.368828 1.412795
-11.092205 -5.685943 -1.974203
-14.251816 -7.302441 1.966240
-14.466875 -7.409451 -1.995733
-14.240865 -7.290555 2.533926
-14.492978 -7.419623 -1.424473
-14.238628 -7.286274 3.109042
-14.502544 -7.418133 -0.853704
-14.212230 -7.266507 3.685148
-14.524609 -7.423024 -0.284719
-6.159331 -3.136983 -1.852109
-14.552289 -7.408367 0.285033
-7.265047 -3.696937 -1.881940
-14.606568 -7.429581 0.858833
-8.626979 -4.388083 -1.881377
-14.455032 -7.349323 1.418721
-11.187708 -5.685672 -1.987656
-14.362170 -7.295806 1.977940
-14.549293 -7.387663 -2.003532
-14.333164 -7.274774 2.545815
-14.520567 -7.369890 -1.424648
-14.365520 -7.288048 3.131176
-14.515882 -7.361141 -0.852971
-14.341802 -7.269717 3.712142
-14.527241 -7.360533 -0.284265
-6.178867 -3.119817 -1.854697
-14.549499 -7.343109 0.284474
-7.281388 -3.673311 -1.882840
-14.597245 -7.364010 0.856844
-8.643996 -4.358826 -1.881758
-14.562441 -7.340073 1.426739
-11.211014 -5.648365 -1.988282
-14.447829 -7.275985 1.986227
-14.656555 -7.377889 -2.014744
-14.452489 -7.275165 2.562710
-14.590696 -7.341550 -1.429006
-14.447001 -7.266084 3.143388
-14.612867 -7.346310 -0.857158
-14.405396 -7.238864 3.722040
-14.599813 -7.336560 -0.285207
-6.194903 -3.100823 -1.856250
-14.632780 -7.324353 0.285626
-7.291787 -3.648272 -1.882390
-14.630006 -7.316585 0.857263
-8.650379 -4.324235 -1.879850
-14.702038 -7.346194 1.437895
-11.254422 -5.623518 -1.992663
-14.525155 -7.254643 1.993539
-14.748431 -7.362939 -2.024006
-14.562635 -7.267013 2.577727
-14.714293 -7.339486 -1.438593
-14.527233 -7.246180 3.155599
-14.703284 -7.330786 -0.861031
-14.579317 -7.265806 3.760732
-14.709460 -7.327459 -0.286848
-6.218993 -3.087137 -1.860391
-14.737073 -7.312342 0.287162
-7.318444 -3.629724 -1.885990
-14.725243 -7.300072 0.861345
-8.636526 -4.281578 -1.873744
-14.779875 -7.323939 1.443125
-11.296995 -5.595596 -1.996730
-14.639341 -7.247931 2.005726
-14.816741 -7.332546 -2.029856
-14.641031 -7.242411 2.587113
-14.806415 -7.324220 -1.445217
-14.661554 -7.249373 3.179260
-14.787868 -7.308622 -0.864485
-14.639536 -7.232133 3.769730
-14.815636 -7.315907 -0.288418
-6.233200 -3.067114 -1.861427
-14.837873 -7.297923 0.288628
-7.343310 -3.610175 -1.889139
-14.827717 -7.286500 0.865846
-8.649658 -4.250536 -1.873363
-14.862577 -7.300411 1.448703
-11.355469 -5.575281 -2.003613
-14.739398 -7.233521 2.015963
-14.924227 -7.320997 -2.041068
-14.758451 -7.236482 2.603383
-14.912392 -7.311963 -1.453061
-14.725553 -7.217163 3.187655
-14.926288 -7.312315 -0.871080
-14.759203 -7.227262 3.794024
-14.909330 -7.297555 -0.289745
-6.247340 -3.047031 -1.862462
-14.951334 -7.289026 0.290338
-7.362874 -3.587934 -1.890939
-14.929001 -7.274914 0.870347
-8.645028 -4.210860 -1.869165
-14.880804 -7.244998 1.448005
-11.387295 -5.541659 -2.005803
-14.825252 -7.211551 2.024250
-15.031814 -7.308786 -2.052280
-14.864090 -7.227235 2.617775
-15.009504 -7.294700 -1.460033
-14.891929 -7.234345 3.218185
-15.025385 -7.295936 -0.875371
-14.843945 -7.204633 3.809321
-15.016202 -7.288239 -0.291350
-6.264895 -3.028568 -1.864532
-15.045636 -7.273344 0.291700
-7.381750 -3.566890 -1.892738
-15.038833 -7.263580 0.875267
-8.659674 -4.180657 -1.869165
-14.970599 -7.224185 1.454281
-11.444747 -5.522756 -2.012686
-14.945635 -7.208919 2.037412
-15.134646 -7.296831 -2.063004
-14.939050 -7.199320 2.626535
-15.112061 -7.279442 -1.467528
-14.940598 -7.196849 3.223527
-15.132275 -7.285925 -0.880186
-14.966091 -7.202694 3.834516
-15.124447 -7.275655 -0.292956
-6.283614 -3.011951 -1.867121
-15.157496 -7.262258 0.293375
-7.397673 -3.542783 -1.893638
-15.152369 -7.253295 0.880396
-8.669949 -4.150222 -1.868402
-15.077147 -7.214057 1.462299
-11.474649 -5.487884 -2.014563
-15.078167 -7.208075 2.052036
-15.235250 -7.279906 -2.073241
-15.095998 -7.210126 2.649688
-15.227807 -7.273081 -1.476418
-15.040041 -7.180177 3.239555
-15.227912 -7.266608 -0.884268
-15.057981 -7.182289 3.851612
-15.236391 -7.264122 -0.294632
-6.301069 -2.993316 -1.869191
-15.262235 -7.247044 0.294911
-7.424078 -3.523623 -1.897237
-15.247971 -7.233750 0.884478
-8.641811 -4.099739 -1.859243
-15.167046 -7.192116 1.468574
-11.513371 -5.457103 -2.018005
-15.164227 -7.184297 2.060323
-15.292863 -7.241969 -2.077629
-15.160353 -7.175980 2.656570
-15.326937 -7.254830 -1.483565
-15.178590 -7.181374 3.263979
-15.336242 -7.252683 -0.889083
-15.178097 -7.174653 3.875907
-15.341209 -7.248485 -0.296167
-6.311479 -2.971303 -1.869191
-15.381528 -7.237995 0.296726
-7.455730 -3.506812 -1.902186
-15.347781 -7.218848 0.888874
-8.636526 -4.060360 -1.855045
-15.307467 -7.193357 1.479730
-11.532349 -5.416883 -2.018005
-15.293435 -7.180252 2.074460
-15.404309 -7.229022 -2.089328
-15.284208 -7.172661 2.674091
-15.456787 -7.250363 -1.493675
-15.285333 -7.166684 3.281533
-15.450080 -7.240634 -0.894212
-15.255988 -7.146431 3.889404
-15.446651 -7.235744 -0.297738
-6.321812 -2.949254 -1.869191
-15.486993 -7.224996 0.298297
-7.469084 -3.482892 -1.902636
-15.463402 -7.207419 0.894108
-8.702255 -4.054231 -1.866112
-15.415565 -7.178574 1.487749
-11.559202 -5.382780 -2.019569
-15.385550 -7.161329 2.083722
-15.305807 -7.120958 -2.072754
-15.405876 -7.164249 2.690986
-15.550658 -7.228277 -1.500299
-15.415835 -7.165608 3.304430
-15.557327 -7.228071 -0.899027
-15.389186 -7.146690 3.917298
-15.557062 -7.221352 -0.299379
-6.342078 -2.933139 -1.872297
-15.588355 -7.206133 0.299763
-7.491810 -3.461702 -1.905335
-15.582754 -7.196944 0.899551
-8.742387 -4.037699 -1.871836
-15.511643 -7.160817 1.494721
-11.601238 -5.353156 -2.023637
-15.489767 -7.144160 2.094447
-15.366624 -7.084112 -2.077629
-15.491787 -7.138535 2.701623
-15.680755 -7.222293 -1.510409
-15.494249 -7.136392 3.315879
-15.673172 -7.215486 -0.904261
-15.491931 -7.128771 3.937093
-15.680283 -7.212122 -0.301263
-6.354543 -2.910678 -1.872815
-15.695225 -7.189149 0.301333
-7.496761 -3.432285 -1.903536
-15.700403 -7.184892 0.904889
-8.857107 -4.051362 -1.893207
-15.599391 -7.132082 1.500648
-11.624374 -5.312242 -2.024262
-15.626552 -7.141203 2.109559
-15.607935 -7.129403 -2.106877
-15.631616 -7.136923 2.721647
-15.780185 -7.201427 -1.517556
-15.598895 -7.115405 3.332670
-15.781293 -7.195278 -0.908971
-15.779965 -7.191347 -0.302695
-6.376979 -2.894068 -1.876438
-15.816165 -7.174535 0.303148
-7.519939 -3.409613 -1.906235
-15.803035 -7.161924 0.909285
-8.960604 -4.060939 -1.912288
-15.743973 -7.131850 1.512152
-11.695032 -5.295261 -2.033335
-15.728579 -7.118257 2.119796
-15.717159 -7.109784 -2.118089
-15.729666 -7.112135 2.734162
-15.901445 -7.189805 -1.526794
-15.763182 -7.123976 3.362437
-15.895501 -7.180435 -0.914100
-15.902819 -7.177059 -0.304545
-6.394089 -2.874960 -1.878509
-15.935962 -7.161904 0.304963
-7.546017 -3.389731 -1.909835
-15.931792 -7.153352 0.915251
-9.005171 -4.043309 -1.918775
-15.866929 -7.120897 1.521565
-11.699026 -5.247937 -2.030833
-15.833027 -7.099048 2.130520
-15.836080 -7.097093 -2.130764
-15.840931 -7.095948 2.749180
-16.011908 -7.172536 -1.534987
-15.873960 -7.107422 3.380754
-16.011618 -7.165698 -0.919333
-16.009926 -7.158229 -0.306115
-6.402321 -2.851837 -1.877991
-16.048552 -7.145274 0.306639
-7.564924 -3.366541 -1.911634
-16.035137 -7.132601 0.919752
-9.042549 -4.022223 -1.923736
-15.968156 -7.099464 1.528886
-11.753376 -5.223114 -2.037090
-15.970192 -7.093694 2.145632
-15.857128 -7.040160 -2.130276
-15.966714 -7.085483 2.766700
-16.131542 -7.158628 -1.544051
-15.966871 -7.082213 3.395255
-16.138784 -7.155095 -0.925195
-16.131716 -7.145225 -0.307965
-6.415772 -2.831029 -1.879026
-16.166704 -7.130369 0.308419
-7.587327 -3.344830 -1.914333
-16.165943 -7.123289 0.925823
-9.052941 -3.989048 -1.922973
-16.094946 -7.088655 1.538648
-11.787809 -5.189219 -2.039906
-16.085707 -7.077879 2.157819
-15.827089 -6.960793 -2.122964
-16.081768 -7.069452 2.782344
-16.249454 -7.143165 -1.552941
-16.070580 -7.061183 3.412046
-16.266064 -7.143694 -0.931057
-16.260937 -7.134668 -0.309955
-6.439776 -2.814808 -1.883168
-16.292280 -7.117925 0.310339
-7.598958 -3.318323 -1.914333
-16.284653 -7.111204 0.931266
-9.065011 -3.956640 -1.922591
-16.218206 -7.075452 1.548060
-11.833012 -5.159880 -2.044599
-16.164906 -7.045483 2.165131
-15.911958 -6.935236 -2.131251
-16.242760 -7.076043 2.806122
-16.383896 -7.134122 -1.563400
-16.224741 -7.061457 3.439523
-16.373320 -7.122724 -0.935767
-16.374367 -7.119777 -0.311665
-6.450847 -2.794205 -1.883685
-16.409384 -7.104376 0.312119
-7.618863 -3.296977 -1.916583
-16.396128 -7.095240 0.936290
-9.105112 -3.938248 -1.928316
-16.325703 -7.058000 1.556079
-11.873631 -5.130801 -2.048666
-16.337614 -7.056382 2.185117
-16.066080 -6.939104 -2.148800
-16.309658 -7.040930 2.813631
-16.495270 -7.117640 -1.571767
-16.349024 -7.051150 3.460894
-16.494055 -7.110291 -0.941315
-16.502563 -7.110540 -0.313655
-6.467179 -2.775847 -1.885756
-16.543118 -7.097226 0.314213
-7.638709 -3.275533 -1.918833
-16.508911 -7.075729 0.941315
-9.135044 -3.913399 -1.931750
-16.484545 -7.061881 1.568978
-11.906922 -5.098395 -2.051482
-16.444876 -7.038094 2.196330
-16.258116 -6.954808 -2.171224
-16.439484 -7.028999 2.831777
-16.629942 -7.106995 -1.582225
-16.460197 -7.031060 3.479212
-16.623476 -7.097375 -0.947281
-16.615566 -7.090566 -0.315330
-6.482644 -2.754390 -1.887309
-16.664728 -7.077195 0.316028
-7.657838 -3.250560 -1.920632
-16.635859 -7.058077 0.947072
-9.152940 -3.881425 -1.932514
-16.602028 -7.040310 1.577693
-11.947355 -5.063971 -2.055236
-16.554640 -7.013393 2.207541
-16.312748 -6.907553 -2.175124
-16.577927 -7.016434 2.851175
-16.742121 -7.082483 -1.590418
-16.608820 -7.022670 3.505162
-16.757919 -7.082272 -0.953457
-16.742760 -7.072421 -0.317250
-6.483791 -2.726866 -1.884720
-16.775354 -7.051710 0.317634
-7.684073 -3.228511 -1.924231
-16.766582 -7.041137 0.953038
-9.191775 -3.860092 -1.937856
-16.737949 -7.025676 1.588152
-11.965834 -5.020150 -2.055236
-16.726686 -7.014082 2.227041
-16.381891 -6.866137 -2.180974
-16.698271 -6.995319 2.867444
-16.888025 -7.074812 -1.601923
-16.702044 -6.993469 3.519663
-16.891241 -7.069225 -0.959632
-16.886642 -7.060376 -0.319484
-6.514671 -2.713130 -1.890932
-16.910635 -7.039222 0.319728
-7.702493 -3.204661 -1.926031
-16.907238 -7.030881 0.959632
-9.207007 -3.828737 -1.938238
-16.828602 -6.994740 1.594427
-11.996056 -4.983653 -2.057426
-16.809736 -6.980013 2.234840
-16.464430 -6.833261 -2.188774
-16.839361 -6.985425 2.887468
-17.002792 -7.053221 -1.610464
-16.842422 -6.983250 3.544086
-17.011759 -7.049982 -0.965075
-17.005413 -7.040398 -0.321264
-6.529459 -2.692584 -1.892485
-17.044184 -7.025110 0.321787
-7.740660 -3.188889 -1.932779
-17.025866 -7.010608 0.964970
-9.263884 -3.814517 -1.947397
-16.996630 -6.995100 1.608023
-12.026166 -4.947008 -2.059616
-16.933140 -6.962056 2.248002
-16.370670 -6.727457 -2.173174
-16.936733 -6.956623 2.899982
-17.141577 -7.040761 -1.621271
-16.928444 -6.949766 3.557061
-17.134197 -7.030741 -0.970623
-17.139053 -7.025744 -0.323323
-6.544184 -2.671966 -1.894038
-17.172285 -7.007878 0.323742
-7.827529 -3.192763 -1.951675
-17.150105 -6.991849 0.970623
-9.326228 -3.802168 -1.957700
-17.057846 -6.950760 1.611510
-12.045190 -4.905744 -2.059929
-17.063974 -6.946318 2.262139
-16.338896 -6.647828 -2.165862
-17.067047 -6.940620 2.918129
-17.263865 -7.020660 -1.630509
-17.068998 -6.937948 3.581485
-11.835073 -4.808131 -0.669482
-17.259825 -7.004980 -0.325138
-6.558845 -2.651278 -1.895591
-17.307888 -6.992838 0.325836
-7.894643 -3.188041 -1.965622
-17.299129 -6.985792 0.977740
-9.372213 -3.782816 -1.964570
-17.207649 -6.941861 1.623363
-12.001782 -4.839293 -2.049605
-17.235415 -6.946069 2.281638
-16.490891 -6.642672 -2.182924
-17.207237 -6.931222 2.938153
-17.384373 -6.999053 -1.639574
-17.231537 -6.934021 3.610488
-17.403370 -6.999638 -0.983079
-17.397991 -6.993952 -0.327302
-6.559092 -2.624776 -1.893003
-17.436806 -6.977752 0.327826
-7.928693 -3.171252 -1.971471
-17.421700 -6.964658 0.983288
-9.392654 -3.752990 -1.966096
-17.405703 -6.951217 1.639748
-12.028771 -4.803863 -2.051482
-17.361597 -6.930091 2.295287
-16.475956 -6.573237 -2.178049
-17.348757 -6.917946 2.958176
-17.541960 -6.991438 -1.652124
-17.338327 -6.910280 3.628043
-17.537815 -6.986235 -0.989359
-17.537495 -6.979016 -0.329467
-6.578534 -2.607285 -1.896108
-17.563307 -6.957353 0.329746
-7.954210 -3.149295 -1.975070
-17.561049 -6.949363 0.989778
-9.392270 -3.716765 -1.963425
-17.502766 -6.922771 1.646721
-12.071185 -4.772012 -2.055862
-17.459534 -6.898620 2.305037
-16.580036 -6.547772 -2.188774
-17.486719 -6.902311 2.977574
-17.670681 -6.974924 -1.662060
-17.526707 -6.914555 3.662388
-17.681007 -6.971867 -0.996058
-17.677103 -6.963195 -0.331631
-6.605580 -2.591359 -1.901285
-17.710360 -6.944181 0.332049
-7.974225 -3.125067 -1.977320
-17.687481 -6.928088 0.995535
-9.417982 -3.688971 -1.966096
-17.649273 -6.909570 1.658225
-12.098806 -4.734165 -2.057739
-17.624010 -6.892585 2.323561
-16.658255 -6.511537 -2.196086
-17.646864 -6.894419 3.000726
-17.793278 -6.951621 -1.671299
-17.616571 -6.879045 3.676126
-17.818729 -6.954401 -1.002443
-17.816813 -6.946488 -0.333795
-6.616387 -2.568985 -1.901802
-17.872446 -6.935853 0.334632
-8.003255 -3.104258 -1.981819
-17.845636 -6.918284 1.003071
-9.454598 -3.665299 -1.971057
-17.773605 -6.886791 1.667638
-12.080259 -4.678349 -2.051795
-17.799765 -6.889783 2.343548
-16.754940 -6.481998 -2.205835
-17.748203 -6.862703 3.013867
-17.958664 -6.944082 -1.684546
-17.805290 -6.881205 3.710472
-17.960272 -6.937498 -1.009037
-17.982740 -6.938964 -0.336448
-6.610887 -2.540330 -1.897661
-12.124551 -4.656610 0.226707
-8.019500 -3.078397 -1.983168
-17.977833 -6.897443 1.009142
-9.472835 -3.634383 -1.972202
-17.912876 -6.868940 1.678445
-12.085449 -4.631911 -2.049917
-17.897856 -6.856011 2.353297
-16.881281 -6.463221 -2.219485
-17.879055 -6.841654 3.032013
-18.088861 -6.921939 -1.694482
-17.895216 -6.844258 3.724210
-18.141090 -6.934667 -1.017830
-14.973018 -5.717641 -0.279762
-6.628743 -2.520673 -1.900250
-18.142870 -6.895452 0.338786
-8.032019 -3.051077 -1.983618
-18.113831 -6.877185 1.015422
-9.518499 -3.613840 -1.979071
-18.082043 -6.861502 1.692042
-12.075686 -4.579889 -2.045537
-18.073885 -6.851195 2.373284
-16.952002 -6.422540 -2.225822
-18.083870 -6.847757 3.062674
-18.237753 -6.906027 -1.706161
-18.054871 -6.833178 3.752450
-18.264194 -6.908751 -1.023377
-18.255219 -6.898073 -0.340636
-6.639309 -2.498199 -1.900767
-12.220403 -4.595781 0.227894
-8.055388 -3.027823 -1.986768
-18.276085 -6.865887 1.023168
-9.549435 -3.587494 -1.982887
-18.199146 -6.833359 1.700757
-12.106394 -4.543264 -2.048040
-18.164604 -6.813156 2.382058
-17.022646 -6.381444 -2.232159
-18.211250 -6.823407 3.080195
-18.392349 -6.891261 -1.718363
-18.199961 -6.815550 3.777637
-18.387339 -6.882061 -1.028925
-18.402805 -6.880528 -0.342940
-6.671526 -2.483768 -1.907496
-18.454823 -6.866956 0.343708
-8.073215 -3.002403 -1.988567
-18.408520 -6.842409 1.029239
-9.587663 -3.563714 -1.988230
-18.394712 -6.833627 1.716794
-12.133290 -4.505103 -2.049917
-18.329720 -6.802197 2.400583
-16.966648 -6.292994 -2.221922
-18.323866 -6.792749 3.095213
-18.537722 -6.872027 -1.729693
-18.330416 -6.791539 3.799771
-18.555466 -6.871244 -1.036985
-18.550495 -6.862037 -0.345244
-6.678342 -2.459799 -1.906979
-11.762401 -4.330053 0.218783
-8.100106 -2.980258 -1.992617
-18.559761 -6.824987 1.036357
-8.846412 -3.253094 -1.832148
-18.538139 -6.813364 1.727950
-12.176757 -4.472935 -2.054610
-18.513609 -6.797014 2.421544
-16.831968 -6.176290 -2.201448
-18.499542 -6.784518 3.120868
-18.685055 -6.852553 -1.741197
-18.701237 -6.851088 -1.043788
-18.705786 -6.845350 -0.347687
-6.679627 -2.433827 -1.904908
-18.742823 -6.825536 0.348175
-8.137928 -2.961964 -1.999365
-18.724928 -6.815318 1.044312
-8.813436 -3.206087 -1.822989
-18.595514 -6.760866 1.731087
-8.824423 -3.206597 -1.487066
-18.608124 -6.758098 2.430806
-8.859618 -3.215883 -1.157271
-18.603640 -6.752789 3.134634
-8.842179 -3.207809 -0.822924
-8.859280 -3.210512 -0.493842
-8.891329 -3.220373 -0.165065
-6.691717 -2.411805 -1.905944
-8.866278 -3.195553 0.164506
-8.169706 -2.942887 -2.004764
-18.842566 -6.783742 1.049545
-8.813489 -3.171314 -1.820700
-8.823853 -3.173305 -1.485189
-8.836605 -3.174407 -1.152884
-18.757240 -6.734539 3.156535
-8.823318 -3.166158 -0.820136
-8.856717 -3.176398 -0.493109
-6.714234 -2.394793 -1.910085
-8.174421 -2.912388 -2.003414
-8.916585 -3.175053 0.496040
-8.860948 -3.155242 -1.828332
-8.917922 -3.173776 0.828154
-8.831156 -3.141160 -1.484563
-8.923771 -3.172348 1.162877
-8.866338 -3.150189 -1.155321
-8.944489 -3.176197 1.503335
-8.852544 -3.143548 -0.821879
-8.953055 -3.177480 1.846650
-8.862104 -3.143457 -0.492795
-8.983476 -3.184746 2.200471
-6.728018 -2.373271 -1.911638
-8.190052 -2.885779 -2.004764
-8.908773 -3.137277 0.494994
-9.677433 -3.407965 -1.994336
-8.936463 -3.145272 0.828851
-12.255904 -4.311177 -2.057739
-8.927299 -3.138548 1.161902
-17.320061 -6.085769 -2.254096
-8.959248 -3.146264 1.503961
-8.912339 -3.129791 -0.826411
-8.956682 -3.143605 1.845123
-8.918255 -3.128372 -0.495308
-8.976149 -3.146921 2.195972
-8.985141 -3.146553 2.550921
-6.747205 -2.353589 -1.914743
-8.218476 -2.863587 -2.009263
-8.942306 -3.114040 0.496250
-9.692980 -3.375452 -1.995099
-8.985021 -3.127157 0.832337
-12.218637 -4.250201 -2.048979
-8.979451 -3.121705 1.167265
-17.356199 -6.030486 -2.256046
-8.970176 -3.114974 1.503961
-8.989858 -3.120048 1.849702
-12.401136 -4.301552 -0.687904
-8.987078 -3.115571 2.195972
-8.933536 -3.095261 -0.165030
-8.981465 -3.110112 2.546779
-6.749902 -2.328131 -1.913190
-8.978087 -3.094911 0.165763
-8.263430 -2.846942 -2.017811
-15.305853 -5.270227 0.848366
-9.704703 -3.341597 -1.995099
-19.474436 -6.701789 1.801858
-12.192304 -4.193390 -2.042096
-12.260514 -4.214454 1.591857
-17.395920 -5.976318 -2.258483
-19.428617 -6.670850 3.253524
-14.766211 -5.070005 -1.365905
-12.397182 -4.251761 -0.686857
-9.010498 -3.086740 -0.166252
-6.759816 -2.305180 -1.913708
-8.280697 -2.820591 -2.019611
-9.753477 -3.320356 -2.002731
-11.654867 -3.965373 1.077071
-12.274196 -4.173696 -2.053359
-12.162379 -4.133309 1.577233
-17.412914 -5.914281 -2.257996
-19.590206 -6.649978 3.276677
-14.898905 -5.057496 -1.376538
-9.059097 -3.068098 -0.166950
-6.784297 -2.287124 -1.918367
-8.292338 -2.792292 -2.020061
-15.221124 -5.122476 0.841667
-9.792919 -3.295683 -2.008456
-11.695077 -3.933555 1.079511
-12.374821 -4.159781 -2.067751
-19.714977 -6.623337 2.553650
-17.486145 -5.871150 -2.264820
-19.778101 -6.636857 3.304209
-14.795579 -4.964892 -1.365382
-6.784907 -2.260985 -1.916296
-8.314978 -2.767638 -2.023210
-12.505377 -4.162411 0.690730
-9.822992 -3.267676 -2.012272
-11.735205 -3.901510 1.081951
-12.462376 -4.140851 -2.079953
-19.903767 -6.609532 2.575099
-17.487692 -5.803823 -2.262383
-19.901243 -6.604833 3.321104
-6.807437 -2.242124 -1.920437
-15.175626 -4.998302 0.278889
-8.342620 -2.746141 -2.027709
-11.692636 -3.846606 0.645093
-9.823149 -3.229685 -2.009982
-20.039318 -6.584719 1.845436
-12.496681 -4.106285 -2.083395
-20.106628 -6.602949 2.598498
-17.525705 -5.751989 -2.264820
-20.096857 -6.591969 3.349888
-14.848811 -4.867688 -1.367125
-15.772319 -5.167377 -0.869824
-11.256809 -3.683644 -0.206741
-6.814836 -2.219537 -1.920437
-15.004734 -4.884021 0.275434
-8.365128 -2.721223 -2.030858
-11.751578 -3.820590 0.647605
-9.833804 -3.197097 -2.009982
-12.868096 -4.181098 1.183749
-12.587970 -4.087651 -2.096222
-20.239069 -6.568269 2.612635
-17.530569 -5.685882 -2.262870
-20.228733 -6.557106 3.368034
-20.880568 -6.768397 -1.920390
-14.714773 -4.764091 -0.810579
-11.231546 -3.632019 -0.206043
-20.272062 -6.551608 5.708513
-6.822542 -2.195734 -1.920437
-11.176321 -3.594780 0.204926
-8.393127 -2.697973 -2.035357
-11.449187 -3.678136 0.630230
-9.878551 -3.173558 -2.016851
-11.808904 -3.791425 1.085089
-12.596519 -4.041879 -2.095284
-20.405535 -6.543645 2.631159
-17.493597 -5.606478 -2.255558
-20.454672 -6.551530 3.401824
-15.247806 -4.883796 -1.400767
-12.218391 -3.908788 -0.672308
-11.228916 -3.587925 -0.205764
-20.386822 -6.510188 5.734395
-6.925898 -2.202347 -1.947355
-15.343387 -4.876056 0.281019
-8.389492 -2.664529 -2.032208
-11.199252 -3.554763 0.615785
-9.923250 -3.149746 -2.023721
-11.867644 -3.764641 1.089272
-12.559711 -3.981762 -2.086836
-12.116916 -3.839057 1.560659
-17.524416 -5.548975 -2.257020
-20.582884 -6.513464 3.419345
-15.236267 -4.821524 -1.398152
-12.134837 -3.835416 -0.666969
-11.268070 -3.557134 -0.206253
-7.007265 -2.201319 -1.968060
-11.281275 -3.541827 0.206392
-8.421055 -2.642227 -2.037607
-11.181099 -3.506087 0.614110
-9.958538 -3.122725 -2.028682
-11.892120 -3.726767 1.090318
-12.641396 -3.959150 -2.098099
-20.810669 -6.513691 2.677470
-17.600515 -5.505553 -2.264333
-20.805347 -6.504053 3.452509
-11.894720 -3.718462 -1.090318
-15.206161 -4.747840 -0.834863
-15.888799 -4.954896 -0.290513
-20.704741 -6.452774 5.811006
-7.090553 -2.200320 -1.989283
-11.507484 -3.568767 0.210301
-8.422781 -2.610508 -2.035807
-11.216164 -3.474130 0.615366
-9.975003 -3.089689 -2.029826
-11.859380 -3.671090 1.086135
-12.683445 -3.923756 -2.102792
-20.969826 -6.483229 2.695019
-17.741011 -5.481582 -2.279932
-20.929844 -6.462861 3.469404
-12.193182 -3.765094 -1.116465
-12.188038 -3.758846 -0.668435
-11.575469 -3.565506 -0.211418
-7.185002 -2.202162 -2.013612
-11.236895 -3.441896 0.205136
-8.461657 -2.590219 -2.043005
-11.843205 -3.623093 0.649071
-9.974463 -3.051404 -2.027536
-11.795908 -3.606370 1.079162
-12.632833 -3.859836 -2.092155
-21.189779 -6.470282 2.720368
-17.877754 -5.455543 -2.295044
-21.182789 -6.460066 3.507574
-12.250082 -3.735879 -1.120474
-19.621851 -5.976539 -1.074981
-12.115870 -3.685703 -0.221052
-7.264757 -2.198893 -2.033800
-11.981919 -3.624402 0.218504
-8.478107 -2.562922 -2.044805
-11.969864 -3.618476 0.655351
-10.013245 -3.025082 -2.033261
-11.674910 -3.524864 1.066961
-12.729441 -3.840822 -2.105921
-21.371887 -6.444411 2.740842
-15.446728 -4.654821 -1.980865
-21.389450 -6.445641 3.538235
-12.045564 -3.627598 -1.100603
-11.806594 -3.551136 -0.646140
-11.651176 -3.502174 -0.212361
-21.325142 -6.405963 5.966297
-7.383445 -2.206715 -2.064858
-12.041772 -3.598964 0.219377
-8.482825 -2.533678 -2.043905
-11.752763 -3.508119 0.642790
-10.061369 -3.001337 -2.040893
-12.458520 -3.714047 1.137382
-12.730749 -3.795202 -2.104044
-12.771199 -3.804831 1.636218
-15.454466 -4.601305 -1.979890
-21.536781 -6.408119 3.558885
-12.105898 -3.599723 -1.104960
-12.358199 -3.672401 -0.675657
-11.431369 -3.392636 -0.208137
-7.488919 -2.211212 -2.092293
-11.375310 -3.356567 0.207020
-8.495357 -2.505154 -2.044805
-12.251552 -3.610476 0.669377
-10.105165 -2.977945 -2.047762
-11.870644 -3.495972 1.082649
-12.692754 -3.735682 -2.095596
-11.995971 -3.528332 1.535310
-15.502811 -4.556847 -1.984033
-21.695480 -6.372987 3.581411
-15.535066 -4.557493 -0.848471
-14.774567 -4.328786 -0.268732
-21.740145 -6.365505 6.069825
-7.563360 -2.204518 -2.110928
-11.383117 -3.315721 0.206951
-8.500306 -2.474397 -2.043905
-10.126808 -2.945943 -2.050052
-12.204187 -3.547954 1.111933
-12.832811 -3.728277 -2.116559
-12.012027 -3.487543 1.535798
-18.157171 -5.268274 -2.321367
-21.960440 -6.367631 3.621458
-15.122942 -4.385036 -1.377584
-11.727428 -3.396039 -0.639859
-12.300004 -3.557193 -0.223496
-7.572866 -2.178638 -2.111446
-11.377324 -3.270995 0.206636
-8.514511 -2.446322 -2.045255
-12.971390 -3.724386 0.707268
-10.157787 -2.916536 -2.054250
-12.193517 -3.498741 1.109841
-12.841950 -3.682370 -2.115933
-11.997411 -3.437936 1.532385
-18.190716 -5.209238 -2.323317
-12.387506 -3.545043 -1.127272
-11.733450 -3.353435 -0.639545
-11.604718 -3.312262 -0.210651
-7.602725 -2.158523 -2.117657
-11.382902 -3.229621 0.206532
-8.496752 -2.409144 -2.038956
-12.957408 -3.671465 0.705803
-10.177350 -2.883739 -2.056158
-11.688061 -3.309591 1.062777
-12.841420 -3.633755 -2.113743
-22.396927 -6.333475 2.857836
-18.273741 -5.164058 -2.331604
-12.357622 -3.489867 -1.123438
-12.356367 -3.484856 -0.672831
-11.483397 -3.234329 -0.208242
-7.623235 -2.135619 -2.121281
-11.686807 -3.271811 0.211837
-8.371865 -2.342194 -2.007013
-13.093247 -3.660630 0.712502
-10.196807 -2.850839 -2.058066
-12.374995 -3.457488 1.124135
-12.614298 -3.521978 -2.074321
-11.221880 -3.131094 1.430503
-18.322250 -5.108770 -2.335504
-12.354375 -3.442434 -1.122043
-12.495451 -3.477041 -0.679739
-11.407916 -3.170129 -0.206671
-7.630644 -2.108994 -2.121281
-11.983429 -3.309790 0.217003
-8.383746 -2.313993 -2.007913
-12.326175 -3.399822 0.670110
-10.246441 -2.826187 -2.066080
-11.972104 -3.299917 1.086483
-12.441783 -3.427040 -2.043973
-12.254769 -3.373224 1.560659
-12.494606 -3.436899 -1.591126
-12.500795 -3.436254 -1.134245
-15.623797 -4.288849 -0.849099
-12.560612 -3.443264 -0.227335
-7.647278 -2.084888 -2.123869
-15.317289 -4.173101 0.277109
-8.399293 -2.286762 -2.009713
-12.070085 -3.283896 0.655560
-10.269505 -2.794014 -2.068751
-11.552889 -3.141017 1.047438
-12.487983 -3.392908 -2.049605
-12.636804 -3.428609 -1.607700
-12.276225 -3.328474 2.014563
-12.468486 -3.380602 -1.130236
-12.455801 -3.372499 -0.676285
-12.431635 -3.361300 -0.224787
-7.648913 -2.056676 -2.122316
-12.516080 -3.363041 0.226218
-8.410990 -2.258439 -2.010612
-12.590737 -3.378390 0.683194
-10.277299 -2.757640 -2.068370
-11.898629 -3.190455 1.077768
-13.070262 -3.502167 -2.143152
-12.492783 -3.345096 1.587958
-18.397753 -4.922783 -2.338429
-12.600735 -3.369288 2.065874
-12.555276 -3.357133 -1.137034
-12.291900 -3.282109 -0.666760
-12.429767 -3.314278 -0.224543
-7.648576 -2.027983 -2.120246
-12.313181 -3.262481 0.222344
-8.428240 -2.231559 -2.012862
-10.343801 -2.736814 -2.079818
-12.194772 -3.224275 1.103566
-13.091957 -3.459045 -2.144717
-12.416095 -3.278157 1.576746
-18.499279 -4.880815 -2.349154
-12.520734 -3.301110 2.050856
-11.743163 -3.091716 -0.636405
-14.843258 -3.902366 -0.267894
-7.670560 -2.005183 -2.124387
-12.608905 -3.293775 0.227475
-8.460490 -2.208524 -2.018711
-10.404582 -2.714072 -2.090122
-12.261863 -3.196262 1.108621
-13.088658 -3.409341 -2.142214
-12.588833 -3.276800 1.597220
-18.566154 -4.829202 -2.355491
-12.394528 -3.221605 2.028330
-12.231311 -3.179181 -1.105658
-11.999400 -3.114432 -0.649699
-11.569907 -2.998644 -0.208626
-7.671901 -1.976947 -2.122834
-12.872073 -3.314567 0.232012
-8.581384 -2.208117 -2.045705
-11.654387 -2.996674 0.630648
-10.434909 -2.683112 -2.094320
-11.738416 -3.016097 1.060337
-11.527732 -2.959821 -1.885036
-12.538666 -3.217050 1.589420
-18.621355 -4.774224 -2.360366
-12.375080 -3.170479 2.023324
-12.253913 -3.139436 -1.106704
-15.746575 -4.028390 -0.851820
-12.134422 -3.099794 -0.218609
-7.708714 -1.957763 -2.131116
-11.968709 -3.037444 0.215537
-8.711822 -2.209286 -2.074948
-11.668650 -2.956956 0.630858
-10.468952 -2.652940 -2.099281
-11.833856 -2.996626 1.068007
-11.560974 -2.925376 -1.888790
-11.564462 -2.924111 1.464626
-18.661003 -4.715034 -2.363290
-12.573771 -3.174649 2.053985
-12.456043 -3.144925 -1.123960
-11.616088 -2.928542 -0.627822
-12.065661 -3.037402 -0.217178
-7.699835 -1.929780 -2.126975
-12.011169 -3.008083 0.216131
-8.845379 -2.213603 -2.105092
-11.666255 -2.917378 0.630230
-10.492471 -2.623850 -2.102334
-11.978518 -2.993242 1.080208
-11.669767 -2.913929 -1.905059
-12.386380 -3.090570 1.567484
-18.660315 -4.652538 -2.361341
-12.495508 -3.113167 2.039593
-12.240198 -3.047289 -1.103566
-16.381538 -4.075266 -0.884687
-12.601079 -3.130124 -0.226637
-7.721860 -1.905248 -2.131116
-12.671988 -3.126615 0.227824
-9.004418 -2.220032 -2.141084
-12.007983 -2.958333 0.648129
-10.564925 -2.600863 -2.114927
-11.819154 -2.907439 1.064869
-11.803139 -2.901313 -1.925083
-12.439504 -3.057736 1.572846
-18.711142 -4.595901 -2.365728
-12.229476 -2.999321 -1.101649
-11.715291 -2.868883 -0.632114
-15.809098 -3.868461 -0.284090
-7.730341 -1.878738 -2.131634
-12.053761 -2.927250 0.216515
-9.109077 -2.210451 -2.164029
-12.423891 -3.014840 0.670005
-10.585388 -2.566744 -2.117217
-11.937667 -2.892439 1.074630
-13.368320 -3.236605 -2.178507
-12.365731 -2.991587 1.562121
-18.778028 -4.539412 -2.372065
-12.390213 -2.995218 2.018943
-15.794796 -3.809492 -0.851506
-12.311577 -2.967113 -0.221052
-7.729337 -1.849944 -2.129563
-11.534426 -2.760656 0.207020
-9.224389 -2.206069 -2.189673
-12.224541 -2.921318 0.658700
-10.645843 -2.542089 -2.127520
-12.804281 -3.055132 1.151676
-13.405880 -3.198675 -2.182887
-12.352413 -2.945040 1.559196
-18.820013 -4.483562 -2.375477
-12.473617 -2.969333 2.030833
-25.607006 -6.091008 -2.302829
-12.122549 -2.883529 2.422129
-16.401939 -3.898421 -0.883536
-12.808274 -3.039554 -0.229778
-7.739191 -1.825189 -2.130599
-11.547884 -2.721296 0.207090
-9.288939 -2.187255 -2.203171
-11.639271 -2.740685 0.626671
-10.665680 -2.509470 -2.129810
-11.898892 -2.797437 1.069401
-13.422733 -3.153218 -2.183825
-12.403201 -2.911429 1.564315
-18.955374 -4.445940 -2.390589
-12.314156 -2.888257 2.003300
-25.883121 -6.066068 -2.325838
-12.189886 -2.854625 2.433578
-11.989248 -2.805429 -0.645302
-12.512576 -2.925586 -0.224298
-7.753041 -1.799912 -2.132669
-14.911115 -3.461699 0.267196
-9.305634 -2.158642 -2.205420
-12.049576 -2.792942 0.648233
-10.689674 -2.475770 -2.132863
-11.927997 -2.760375 1.071144
-13.404247 -3.102008 -2.179132
-12.546239 -2.901141 1.581133
-12.548677 -2.899401 -1.581377
-12.277967 -2.834593 1.995791
-26.156521 -6.033902 -2.348499
-12.252850 -2.826542 2.444263
-11.963452 -2.757583 -0.643418
-11.285251 -2.597110 -0.202134
-7.760850 -1.774623 -2.133187
-13.024335 -2.975797 0.233199
-9.335910 -2.131350 -2.210819
-10.701653 -2.441181 -2.133626
-12.073064 -2.751798 1.083346
-13.459293 -3.065288 -2.186328
-11.762689 -2.676736 1.481200
-12.601307 -2.865260 -1.586739
-12.368691 -2.810098 2.008932
-26.460045 -6.011576 -2.373948
-12.179470 -2.762638 -0.654514
-15.623939 -3.538204 -0.279622
-7.772652 -1.748793 -2.134739
-12.541041 -2.819346 0.224368
-9.324280 -2.094480 -2.206320
-10.641149 -2.388333 -2.119888
-11.989280 -2.688711 1.074979
-13.471839 -3.018719 -2.186641
-11.671229 -2.613110 1.468526
-12.797205 -2.862859 -1.610138
-26.807529 -5.992193 -2.403232
-13.251045 -2.952249 -0.236969
-7.769278 -1.719563 -2.132151
-12.306741 -2.721581 0.220005
-9.346757 -2.065283 -2.209919
-13.111817 -2.894817 0.703709
-10.634086 -2.347785 -2.116835
-11.811813 -2.605641 1.058245
-13.455287 -2.965726 -2.182261
-11.819861 -2.603090 1.486075
-19.061401 -4.194408 -2.396439
-27.124062 -5.963618 -2.429728
-12.366149 -2.716611 2.461055
-12.853933 -2.821417 -0.689683
-18.578278 -4.071105 -0.331980
-7.773346 -1.692020 -2.131634
-12.359154 -2.687955 0.220773
-9.359621 -2.033885 -2.211269
-11.970290 -2.599004 0.641953
-10.623030 -2.306485 -2.113019
-12.319293 -2.672531 1.102869
-13.600695 -2.948032 -2.204162
-12.507917 -2.708877 1.571383
-16.037590 -3.470382 -2.014744
-27.444613 -5.933734 -2.456572
-12.329501 -2.663480 2.451896
-12.481053 -2.693942 -0.669168
-11.719198 -2.525218 -0.209254
-7.769759 -1.662856 -2.129046
-12.481879 -2.669049 0.222797
-9.376193 -2.003235 -2.213518
-12.659020 -2.702308 0.678379
-10.642536 -2.271851 -2.115309
-13.672727 -2.913709 -2.214174
-15.971941 -3.397857 -2.004995
-15.994222 -3.399675 -1.430574
-12.718966 -2.701182 2.527456
-16.022778 -3.399904 -0.858414
-12.142674 -2.572149 -0.216654
-7.769845 -1.634531 -2.127493
-12.866851 -2.704439 0.229499
-9.390758 -1.972098 -2.215318
-10.684987 -2.241944 -2.122178
-13.752418 -2.880547 -2.225437
-11.485075 -2.403543 1.440740
-13.535436 -2.830164 -1.697884
-16.037193 -3.350347 -1.433363
-16.058010 -3.348842 -0.859671
-16.055275 -3.342428 -0.286254
-7.786854 -1.609748 -2.130599
-12.057620 -2.490430 0.214909
-9.380407 -1.935761 -2.211269
-12.642367 -2.606606 0.676495
-10.842727 -2.235555 -2.151944
-16.245533 -3.346551 1.451143
-13.843651 -2.849249 -2.238577
-13.683289 -2.811266 -1.715189
-28.664549 -5.883990 -2.560113
-20.620667 -4.225317 -1.103137
-16.145210 -3.302389 -0.287651
-7.796212 -1.583325 -2.131634
-12.074079 -2.449916 0.215049
-9.406206 -1.906877 -2.215768
-12.892163 -2.611226 0.689369
-11.058275 -2.239784 -2.193159
-11.894545 -2.407004 1.061731
-13.946451 -2.819698 -2.253595
-16.264874 -3.285483 2.037412
-13.640481 -2.752882 -1.708608
-16.256119 -3.277810 2.626535
-28.997410 -5.846906 -2.588003
-29.101652 -5.857355 -1.555739
-12.274811 -2.466121 -0.218539
-7.801692 -1.556100 -2.131634
-12.215914 -2.434329 0.217422
-9.416626 -1.874794 -2.216668
-12.339001 -2.454380 0.659328
-11.300942 -2.247897 -2.239716
-12.215542 -2.427606 1.089621
-13.948457 -2.769463 -2.252344
-12.580548 -2.495580 1.574796
-29.439802 -5.829239 -2.625654
-20.104961 -3.973598 -1.074039
-29.457661 -5.811408 -0.524096
-7.788118 -1.525144 -2.126457
-12.059487 -2.359423 0.214490
-9.434589 -1.844153 -2.219367
-12.396499 -2.420863 0.661945
-11.532235 -2.252084 -2.283984
-12.145721 -2.369693 1.082649
-13.624552 -2.655749 -2.198530
-12.476171 -2.429642 1.560659
-19.294586 -3.753987 -2.413501
-29.945004 -5.820720 -2.668883
-29.261427 -5.682546 5.794106
-19.424622 -3.768733 -1.036985
-29.913603 -5.792948 -0.531845
-7.793394 -1.497951 -2.126457
-12.067650 -2.317313 0.214490
-9.440969 -1.811209 -2.219367
-12.540219 -2.403521 0.669168
-11.665356 -2.235840 -2.308789
-13.625978 -2.606689 -2.197279
-12.363687 -2.362975 1.545547
-19.350471 -3.694800 -2.418863
-30.334082 -5.781056 -2.701654
-19.837910 -3.777108 -1.058338
-12.406048 -2.357609 -0.220424
-7.798832 -1.469375 -2.126457
-12.111038 -2.281836 0.215118
-9.428082 -1.774640 -2.214868
-13.443596 -2.528047 0.716898
-11.690839 -2.196329 -2.312224
-14.303331 -2.681966 -2.304906
-12.855731 -2.410532 1.605994
-19.386665 -3.631617 -2.421788
-30.784939 -5.755683 -2.740002
-12.205824 -2.275439 -0.216724
-7.807712 -1.442847 -2.127493
-13.314930 -2.458164 0.236340
-9.424942 -1.738303 -2.212619
-11.725463 -2.160490 -2.317566
-12.809048 -2.357835 1.139474
-14.382546 -2.644880 -2.316169
-12.848861 -2.360528 1.604044
-19.411556 -3.562691 -2.423250
-31.224222 -5.725082 -2.777305
-31.870316 -5.832057 -1.697988
-12.941931 -2.363619 -0.229639
-7.797494 -1.412828 -2.123352
-13.354913 -2.417370 0.236899
-9.446293 -1.708169 -2.216218
-11.748389 -2.122339 -2.320619
-14.395579 -2.595363 -2.316795
-12.903910 -2.324107 1.609894
-19.509840 -3.510372 -2.433975
-20.317532 -3.652043 -1.806041
-31.894417 -5.721470 -1.698197
-12.580043 -2.252178 -0.223077
-7.802379 -1.385601 -2.123352
-20.888599 -3.705784 0.370305
-9.456037 -1.675865 -2.217118
-11.771192 -2.084054 -2.323672
-12.833044 -2.269742 1.140171
-14.416222 -2.547159 -2.318672
-12.951041 -2.285950 1.614769
-18.821527 -3.322133 -2.346716
-20.071148 -3.535476 -1.783032
-29.353031 -5.159883 -1.561914
-13.198005 -2.317667 -0.233897
-7.806931 -1.359720 -2.123352
-9.467301 -1.645499 -2.218467
-11.774170 -2.044336 -2.322909
-12.989695 -2.253051 1.153419
-14.420697 -2.498664 -2.318046
-18.832441 -3.259699 -2.346716
-20.275167 -3.502131 -1.800115
-19.351673 -3.335655 -1.029134
-13.189853 -2.271173 -0.233618
-7.826631 -1.336424 -2.127493
-20.057205 -3.421240 0.355156
-9.465021 -1.612785 -2.216668
-11.917638 -2.030697 0.633579
-11.777014 -2.004621 -2.322146
-14.386059 -2.443552 -2.311163
-18.944918 -3.214498 -2.359391
-20.200237 -3.420242 -1.792445
-20.256710 -3.422526 -1.076655
-20.587650 -3.474750 -0.364441
-7.838641 -1.311738 -2.129563
-12.323108 -2.059972 0.218085
-9.456862 -1.579145 -2.213518
-11.783596 -1.965555 -2.322146
-14.366803 -2.391291 -2.306783
-19.065132 -3.169888 -2.373040
-20.286156 -3.365627 -1.799069
-19.357603 -3.204636 -1.028297
-12.577244 -2.079895 -0.222518
-7.847209 -1.283625 -2.130599
-12.344390 -2.017046 0.218330
-9.462586 -1.544473 -2.213518
-11.825599 -1.928042 -2.329015
-14.375470 -2.338622 -2.306783
-19.022299 -3.087754 -2.366215
-20.331787 -3.296678 -1.802032
-20.327429 -3.288685 -1.079167
-20.379040 -3.289736 -0.360322
-7.824936 -1.251950 -2.123352
-13.014833 -2.079981 0.230058
-9.475618 -1.512661 -2.215318
-20.691832 -3.299478 1.098113
-11.836136 -1.887367 -2.329778
-14.422563 -2.294635 -2.313040
-19.032963 -3.021335 -2.366215
-19.845318 -3.146744 -1.757931
-30.285259 -4.791296 -1.606923
-20.414101 -3.222320 -0.360741
-7.844527 -1.227018 -2.127493
-11.919559 -1.862292 0.210581
-9.488544 -1.480778 -2.217118
-11.881448 -1.852089 -2.337410
-14.629580 -2.275237 -2.344953
-19.498489 -3.025499 -2.422763
-19.769550 -3.064020 -1.750262
-19.421257 -2.996157 -0.343010
-7.848763 -1.199628 -2.127493
-12.819497 -1.957080 0.226358
-9.468610 -1.443828 -2.211269
-20.797291 -3.167577 1.102509
-11.883958 -1.810012 -2.336647
-14.988965 -2.277571 -2.401269
-19.622763 -2.974674 -2.436899
-29.606163 -4.482794 -2.619727
-19.744596 -2.982563 -1.046510
-20.396551 -3.073769 -0.360043
-7.860545 -1.173364 -2.129563
-13.012168 -1.940042 0.229639
-9.477447 -1.411342 -2.212169
-11.901855 -1.770251 -2.338937
-15.379806 -2.282066 -2.462592
-19.511280 -2.888132 -2.421788
-29.763542 -4.400409 -2.632278
-19.829973 -2.924697 -1.050487
-19.714716 -2.900672 -0.347826
-7.864593 -1.145920 -2.129563
-13.026775 -1.895758 0.229778
-9.495815 -1.380212 -2.215318
-12.228854 -1.775282 0.647605
-11.869103 -1.723057 -2.331304
-15.665285 -2.268568 -2.507019
-19.941687 -2.880749 -2.473948
-29.486870 -4.254379 -2.606480
-20.144501 -2.899280 -1.066607
-19.605959 -2.814782 -0.345732
-7.857069 -1.116827 -2.126457
-13.049152 -1.852522 0.230058
-9.506362 -1.347880 -2.216668
-12.175651 -1.724180 0.644465
-11.867272 -1.680511 -2.329778
-15.774819 -2.228238 -2.523288
-20.215023 -2.848233 -2.506609
-28.855120 -4.055325 -2.549305
-20.554028 -2.885024 -1.087751
-19.960251 -2.794576 -0.351806
-7.849628 -1.086435 -2.123352
-20.364738 -2.818600 0.358856
-9.495566 -1.312554 -2.213068
-11.881129 -1.638076 -2.331304
-15.806364 -2.173635 -2.527043
-20.449039 -2.808443 -2.534395
-21.739174 -2.977897 -1.919692
-20.544676 -2.806966 -1.086704
-19.522102 -2.663784 -0.343917
-7.872517 -1.061609 -2.128528
-20.152971 -2.714044 0.354947
-9.508039 -1.278778 -2.214868
-11.882884 -1.596073 -2.330541
-15.845181 -2.122643 -2.532048
-20.687437 -2.763968 -2.562669
-21.998272 -2.935196 -1.941656
-20.621664 -2.744192 -1.090263
-21.370825 -2.840090 -0.376309
-7.868514 -1.033117 -2.126457
-20.134104 -2.643559 0.354458
-9.496770 -1.245214 -2.211269
-11.865023 -1.551527 -2.325962
-15.848215 -2.069575 -2.531423
-20.909082 -2.723037 -2.588993
-22.348221 -2.902532 -1.971637
-20.919827 -2.713299 -1.105545
-20.468348 -2.647482 -0.360253
-7.875729 -1.007508 -2.127493
-20.996147 -2.682217 0.369467
-9.501059 -1.212059 -2.211269
-21.240948 -2.705960 1.122188
-11.881788 -1.513664 -2.328252
-15.902374 -2.020220 -2.538932
-21.190231 -2.684463 -2.622628
-22.365629 -2.829406 -1.972334
-20.830093 -2.627759 -1.100311
-20.128271 -2.532085 -0.354109
-7.871530 -0.979055 -2.125422
-20.929974 -2.599549 0.368141
-9.520703 -1.180805 -2.214868
-11.859722 -1.468798 -2.322909
-15.909328 -1.964697 -2.538932
-21.329506 -2.626495 -2.638715
-32.484329 -3.994334 -2.863415
-20.989801 -2.573509 -1.108266
-21.081808 -2.577316 -0.370724
-7.878736 -0.952037 -2.126457
-31.691282 -3.823844 0.557186
-9.542179 -1.149662 -2.218917
-11.872573 -1.428331 -2.324435
-15.908245 -1.908206 -2.537680
-21.441038 -2.564283 -2.651390
-32.442680 -3.874295 -2.858534
-21.054188 -2.506836 -1.111197
-20.089439 -2.388407 -0.353132
-7.878173 -0.924079 -2.125422
-31.529015 -3.698230 0.554114
-9.532391 -1.116426 -2.215768
-11.885287 -1.387790 -2.325962
-15.949802 -1.859563 -2.543312
-21.500690 -2.499126 -2.657727
-32.618294 -3.779839 -2.872828
-29.196878 -3.378198 -1.540352
-21.214081 -2.447052 -0.372749
-7.892710 -0.899261 -2.128528
-9.526548 -1.082047 -2.213518
-20.732475 -2.351172 1.093508
-11.885923 -1.347926 -2.325199
-15.928718 -1.800769 -2.538932
-21.572409 -2.431173 -2.665527
-31.629965 -3.547872 -1.668052
-20.089727 -2.246325 -0.352853
-7.880440 -0.870008 -2.124387
-9.539952 -1.049850 -2.215768
-20.712761 -2.275733 1.092042
-11.878846 -1.305142 -2.322909
-15.915269 -1.743006 -2.535803
-21.501829 -2.347244 -2.655777
-31.549944 -3.438565 -2.776608
-20.061661 -2.172310 -0.352224
-7.902638 -0.844550 -2.129563
-9.539683 -1.016130 -2.214868
-11.887234 -1.264086 -2.323672
-15.901611 -1.685358 -2.532674
-22.035006 -2.327638 -2.720612
-27.598951 -2.910508 -2.427985
-7.895930 -0.815966 -2.126975
-9.552866 -0.983824 -2.217118
-11.895479 -1.222986 -2.324435
-15.899537 -1.629039 -2.531423
-29.777380 -3.035185 -2.618681
-29.316710 -2.977883 -1.544330
-20.247435 -2.049520 -0.355226
