# This PCD file was generated using the MATLAB® pcwrite function
# from Computer Vision Toolbox®.
# .PCD v.7 - Point Cloud Data file format
VERSION .7
FIELDS x y z
SIZE 4 4 4
TYPE F F F
COUNT 1 1 1
WIDTH 1585
HEIGHT 1
VIEWPOINT 0 0 0 1 0 0 0
POINTS 1585
DATA ascii
-7.232175 -8.226422 1.734858
-7.319456 -8.325703 -0.969869
-7.173664 -8.156992 2.111493
-7.324430 -8.325493 -0.581138
-7.172376 -8.149793 2.506405
-7.330988 -8.327085 -0.193652
-7.173048 -8.144819 2.908091
-0.669969 -0.758863 -0.271242
-7.344058 -8.315560 0.193652
-0.861890 -0.975562 -0.300535
-7.351235 -8.317833 0.581767
-5.768640 -6.527145 -1.693239
-6.897978 -7.799490 -1.649132
-19.366077 -21.889364 3.588565
-7.380635 -8.339359 -1.367374
-7.292275 -8.236622 1.742367
-7.357720 -8.310542 -0.971089
-7.233333 -8.167173 2.120651
-7.350796 -8.296887 -0.580929
-7.215001 -8.140748 2.511353
-7.374604 -8.317904 -0.194036
-7.218098 -8.138522 2.914820
-0.670047 -0.753632 -0.270207
-7.387660 -8.306311 0.194036
-0.870472 -0.978371 -0.302334
-7.388192 -8.301073 0.582395
-5.793999 -6.509902 -1.694002
-6.933046 -7.784213 -1.651010
-9.298448 -10.432685 -1.715921
-7.339387 -8.231758 1.746747
-17.596251 -19.735718 -2.313288
-7.285318 -8.168250 2.127520
-19.485100 -21.838886 -1.533862
-7.249862 -8.122783 2.513603
-7.438218 -8.330895 -0.194943
-7.267055 -8.136328 2.923102
-0.657210 -0.734017 -0.263995
-7.453963 -8.322181 0.195013
-0.879083 -0.981132 -0.304134
-7.434453 -8.294567 0.583755
-5.824550 -6.498409 -1.696292
-7.447031 -8.305688 0.975970
-6.968088 -7.768790 -1.652887
-7.454463 -8.308135 1.370543
-9.369286 -10.438570 -1.722258
-7.394469 -8.235487 1.753005
-17.694311 -19.706793 -2.317122
-7.321659 -8.151532 2.129810
-19.587917 -21.800447 -1.535956
-7.330277 -8.155401 2.531599
-7.291536 -8.106602 2.921549
-0.675031 -0.749171 -0.270207
-0.887381 -0.984154 -0.305933
-19.636421 -21.770218 1.536479
-5.852826 -6.488825 -1.698582
-6.995106 -7.749794 -1.653512
-7.496491 -8.302356 1.373468
-9.327518 -10.326591 -1.708608
-7.425604 -8.218079 1.754256
-17.769495 -19.665890 -2.318866
-7.357763 -8.140141 2.132863
-19.707207 -21.795103 -1.539933
-7.366321 -8.143893 2.535198
-7.345488 -8.115167 2.932938
-0.669853 -0.738226 -0.267101
-0.886881 -0.976723 -0.304584
-19.779440 -21.775463 1.541713
-5.884681 -6.478528 -1.701253
-26.431688 -29.088829 3.438643
-7.027431 -7.731174 -1.654764
-19.785128 -21.758823 3.610989
-10.015346 -11.010581 -1.827553
-7.456903 -8.195030 1.754882
-17.923851 -19.698055 -2.330022
-7.388776 -8.117312 2.133626
-19.772408 -21.714361 -1.539096
-7.407827 -8.132537 2.539697
-7.405004 -8.123741 2.945361
-0.677638 -0.741589 -0.269172
-19.888147 -21.757418 0.514532
-0.900806 -0.985126 -0.308183
-19.895765 -21.750502 1.544853
-5.908583 -6.459397 -1.701635
-7.070381 -7.724082 -1.658518
-19.890453 -21.721836 3.616351
-10.053717 -10.975557 -1.827553
-7.506817 -8.192253 1.759888
-17.963617 -19.596981 -2.325838
-7.451557 -8.129099 2.143548
-19.880482 -21.680540 -1.541608
-7.448025 -8.119554 2.543746
-7.446380 -8.112075 2.950537
-0.688202 -0.747628 -0.272278
-20.015440 -21.743769 0.515858
-0.901599 -0.979108 -0.307283
-19.998631 -21.710300 1.546946
-5.936212 -6.442028 -1.702780
-7.112033 -7.712640 -1.661647
-19.979609 -21.666874 3.618789
-10.196956 -11.054204 -1.846564
-7.516613 -8.145674 1.755508
-18.072454 -19.578079 -2.331068
-7.505277 -8.127695 2.150418
-19.995049 -21.645676 -1.544330
-7.492281 -8.107946 2.548696
-7.486454 -8.098800 2.955196
-0.680301 -0.733887 -0.268137
-20.094999 -21.670265 0.515858
-0.915784 -0.987227 -0.310882
-20.101460 -21.669643 1.549040
-5.955991 -6.418388 -1.702016
-7.149666 -7.699347 -1.664150
-20.094021 -21.631308 3.625126
-9.413111 -10.129717 -1.697884
-7.526174 -8.099130 1.751128
-18.203089 -19.581997 -2.339086
-7.560340 -8.130201 2.158050
-20.138496 -21.648869 -1.549563
-7.540453 -8.103141 2.555444
-7.530473 -8.089585 2.961408
-0.682858 -0.731508 -0.268137
-20.215876 -21.656130 0.517115
-0.924372 -0.989882 -0.312682
-20.149715 -21.570148 1.546946
-5.995784 -6.416208 -1.706977
-7.172461 -7.672709 -1.663524
-20.198181 -21.599350 3.630975
-7.581394 -8.101657 1.757385
-18.274055 -19.521246 -2.339434
-7.597993 -8.116551 2.161103
-20.278437 -21.654861 -1.554797
-7.605916 -8.119336 2.568491
-7.573197 -8.078755 2.967102
-0.695864 -0.740502 -0.272278
-20.310522 -21.605827 0.517603
-0.918477 -0.976712 -0.309533
-20.308693 -21.596340 1.553645
-6.015682 -6.394860 -1.706596
-7.208680 -7.657693 -1.665714
-20.341496 -21.600975 3.643162
-9.843912 -10.449761 -1.762718
-7.640727 -8.110980 1.764894
-18.404278 -19.530140 -2.347801
-7.653211 -8.118553 2.168735
-20.326496 -21.554880 -1.552703
-7.651597 -8.111163 2.574340
-7.634419 -8.090128 2.980560
-0.695789 -0.735262 -0.271242
-20.409548 -21.567408 0.518302
-0.908314 -0.959508 -0.305034
-20.469105 -21.615225 1.560135
-6.056871 -6.393776 -1.711938
-7.248979 -7.649519 -1.669156
-20.434866 -21.556452 3.647062
-9.826606 -10.362325 -1.753456
-7.696183 -8.112922 1.771151
-18.518963 -19.514917 -2.353728
-7.688200 -8.101673 2.171025
-20.463869 -21.556887 -1.557728
-7.697240 -8.105528 2.580638
-7.681243 -8.083035 2.987807
-0.700888 -0.735748 -0.272278
-20.506781 -21.519194 0.518860
-0.929138 -0.974669 -0.310882
-20.558214 -21.558094 1.561182
-6.068556 -6.363709 -1.709267
-7.283820 -7.632743 -1.671033
-20.537405 -21.513708 3.651937
-9.862717 -10.327960 -1.753456
-7.743559 -8.106004 1.775531
-8.950047 -9.365690 -1.133373
-7.743561 -8.103175 2.178657
-20.580395 -21.528635 -1.560868
-7.738954 -8.092696 2.585138
-7.740132 -8.088275 2.999713
-0.703580 -0.733174 -0.272278
-20.650995 -21.519627 0.520605
-0.935234 -0.974231 -0.311782
-20.683144 -21.538063 1.564950
-6.099998 -6.349921 -1.711557
-7.328174 -7.623084 -1.674788
-20.700422 -21.533478 3.667536
-10.771070 -11.200626 -1.907987
-7.777286 -8.084620 1.776783
-7.789548 -8.091711 2.183237
-20.696571 -21.491901 -1.563694
-7.779379 -8.075504 2.588737
-7.772340 -8.065380 3.001266
-0.695395 -0.719600 -0.268137
-20.751976 -21.466789 0.521164
-0.952345 -0.984805 -0.316281
-20.797071 -21.505939 1.567881
-6.126224 -6.332821 -1.712702
-7.346493 -7.588943 -1.672910
-20.790255 -21.468868 3.669486
-10.709843 -11.055560 -1.889950
-7.824700 -8.077285 1.781163
-18.805492 -19.405773 -2.364187
-7.834144 -8.081387 2.187816
-20.824301 -21.474009 -1.567671
-7.826515 -8.067884 2.595035
-7.815246 -8.053451 3.006960
-0.703292 -0.722706 -0.270207
-20.870466 -21.446581 0.522351
-0.947449 -0.973264 -0.313582
-20.872015 -21.433212 1.567881
-6.168841 -6.332492 -1.718426
-26.043034 -26.724596 3.264680
-7.382648 -7.575857 -1.675413
-20.866879 -21.405493 3.670461
-10.671607 -10.943239 -1.876788
-7.877676 -8.075377 1.786795
-18.914867 -19.382784 -2.369416
-7.885581 -8.080654 2.194685
-20.906559 -21.416267 -1.568509
-7.891349 -8.080925 2.607633
-7.873014 -8.056518 3.018348
-0.724611 -0.739690 -0.277454
-21.015175 -21.445015 0.524096
-5.239856 -5.345165 -1.728074
-21.016628 -21.431517 1.573114
-6.193931 -6.316205 -1.719571
-7.417349 -7.558499 -1.677290
-21.030472 -21.423185 3.686061
-10.684702 -10.880430 -1.872401
-7.936271 -8.078831 1.793678
-19.052237 -19.387693 -2.378132
-7.921997 -8.061481 2.196975
-21.076393 -21.440018 -1.575626
-7.942739 -8.076948 2.615281
-7.932252 -8.060658 3.030253
-0.719176 -0.728779 -0.274348
-5.255745 -5.324068 -1.727174
-6.212899 -6.289272 -1.718426
-7.453335 -7.539691 -1.679168
-21.133030 -21.377882 3.690935
-10.864990 -10.987039 -1.897262
-7.972760 -8.059503 1.795555
-19.153427 -19.355064 -2.382315
-7.979112 -8.060298 2.204607
-21.154840 -21.362619 -1.575626
-7.987374 -8.063013 2.620230
-7.982098 -8.054875 3.038536
-0.716269 -0.720783 -0.272278
-12.063629 -12.135431 0.298680
-5.290339 -5.319969 -1.732123
-6.238968 -6.271722 -1.719571
-7.493546 -7.527629 -1.682297
-21.233654 -21.322788 3.694835
-11.227410 -11.270606 -1.953322
-8.025937 -8.056816 1.801187
-19.257437 -19.324781 -2.386847
-8.029378 -8.054641 2.210713
-21.367487 -21.427246 -1.585884
-8.027857 -8.047499 2.624279
-8.015626 -8.032431 3.040606
-0.716047 -0.715548 -0.271242
-5.306573 -5.301019 -1.731673
-6.274718 -6.263776 -1.723387
-7.518466 -7.502737 -1.682297
-21.391380 -21.339178 3.709947
-11.354685 -11.323022 -1.968921
-8.081991 -8.056643 1.807444
-19.381229 -19.313698 -2.393820
-8.078293 -8.050145 2.216819
-21.438429 -21.356264 -1.585884
-8.072450 -8.038709 2.630128
-12.971656 -12.912929 -0.319484
-8.057310 -8.018029 3.045783
-0.723900 -0.718613 -0.273313
-12.566101 -12.469968 0.309012
-5.325045 -5.282463 -1.731673
-6.292665 -6.240170 -1.722624
-12.999291 -12.886344 1.601400
-7.551626 -7.483400 -1.683861
-21.485481 -21.283937 3.713359
-11.427993 -11.316840 -1.974771
-8.138143 -8.056176 1.813701
-19.501808 -19.305387 -2.400792
-8.137047 -8.052276 2.225215
-21.552599 -21.320633 -1.588815
-8.130947 -8.040628 2.640026
-21.754154 -21.504992 -0.533939
-8.116852 -8.021088 3.057688
-0.731907 -0.721507 -0.275383
-5.339286 -5.259741 -1.730324
-21.598074 -21.268873 1.588606
-6.325602 -6.229186 -1.725677
-7.597413 -7.476393 -1.688241
-21.585119 -21.233866 3.717746
-11.467426 -11.276880 -1.974771
-8.188752 -8.049878 1.818707
-19.560547 -19.228819 -2.399746
-8.190308 -8.048594 2.232084
-21.692430 -21.309654 -1.593630
-8.183992 -8.036771 2.648124
-21.900434 -21.498972 -0.535684
-8.182031 -8.029240 3.071665
-0.734421 -0.718947 -0.275383
-13.353164 -13.067261 0.326116
-5.365972 -5.249248 -1.733023
-12.727427 -12.446222 0.932941
-6.347307 -6.207067 -1.725677
-7.631943 -7.458110 -1.690118
-21.710228 -21.208326 3.726521
-11.526602 -11.256203 -1.978183
-8.228111 -8.032282 1.821210
-19.687433 -19.218872 -2.407067
-8.232404 -8.033667 2.235900
-21.803848 -21.270067 -1.596352
-8.231527 -8.027204 2.654422
-12.544864 -12.229203 -0.305801
-8.226610 -8.016809 3.077876
-0.739697 -0.719073 -0.276419
-12.652969 -12.295888 0.307965
-5.391252 -5.237273 -1.735272
-13.068823 -12.691139 0.954713
-6.377384 -6.193080 -1.727966
-7.659348 -7.432799 -1.690431
-21.866764 -21.212587 3.740658
-11.594325 -11.243539 -1.983058
-8.275956 -8.022761 1.825590
-19.777290 -19.172222 -2.409856
-8.285775 -8.029474 2.242769
-21.906662 -21.221617 -1.598445
-8.281897 -8.020113 2.661621
-8.267039 -8.000135 3.082535
-0.742202 -0.716486 -0.276419
-12.943316 -12.490484 0.313969
-5.415110 -5.223835 -1.737072
-13.199956 -12.733703 0.961202
-6.406029 -6.177595 -1.729874
-7.696623 -7.416985 -1.692934
-11.659242 -11.227779 -1.987445
-8.339511 -8.030898 1.833725
-19.855576 -19.114120 -2.411251
-8.330726 -8.016840 2.247349
-22.023785 -21.186560 -1.601585
-8.325292 -8.006012 2.666570
-12.907440 -12.412432 -0.312573
-8.311626 -7.990083 3.089264
-0.744699 -0.713891 -0.276419
-5.429589 -5.203153 -1.736172
-13.117407 -12.565966 0.951991
-6.436061 -6.163343 -1.732164
-7.728312 -7.398251 -1.694498
-11.719361 -11.211009 -1.991345
-8.387480 -8.020852 1.838105
-19.979780 -19.099771 -2.418223
-8.374295 -8.005449 2.251928
-22.114138 -21.132727 -1.603050
-8.370114 -7.995860 2.672418
-13.422145 -12.817525 -0.323952
-8.384184 -8.003705 3.105829
-0.752658 -0.716747 -0.278489
-13.088864 -12.460003 0.315435
-5.443483 -5.180138 -1.734823
-13.037471 -12.406742 0.943199
-6.459310 -6.144673 -1.732927
-7.769838 -7.386199 -1.697940
-22.190521 -21.087484 3.758695
-11.769938 -11.180969 -1.993295
-8.434083 -8.012041 1.842485
-20.123915 -19.110241 -2.427985
-8.442057 -8.014015 2.262613
-13.069271 -12.402272 -0.944245
-8.434731 -8.001466 2.684116
-12.663753 -12.013256 -0.304684
-8.430305 -7.994468 3.113076
-0.749541 -0.708806 -0.276419
-5.464880 -5.166074 -1.736172
-12.404236 -11.721904 0.894422
-6.479291 -6.120742 -1.732546
-7.798598 -7.364462 -1.698879
-22.404678 -21.150049 3.783068
-11.804065 -11.139153 -1.992808
-8.490736 -8.009664 1.848743
-20.283270 -19.127361 -2.439141
-8.491439 -8.007526 2.268719
-8.493838 -8.004190 2.694464
-13.121901 -12.361134 -0.314667
-8.483475 -7.988832 3.122393
-0.754827 -0.708830 -0.277454
-5.497987 -5.159346 -1.740671
-12.651048 -11.867666 0.909076
-6.504914 -6.102115 -1.733691
-7.848595 -7.357447 -1.703884
-22.554474 -21.135658 3.795255
-11.859298 -11.109388 -1.995245
-8.537337 -7.994692 1.852497
-8.546530 -8.000501 2.275588
-13.280949 -12.428095 -0.953247
-8.547314 -7.995635 2.702112
-8.518341 -7.962963 3.124464
-0.760123 -0.708826 -0.278489
-5.515965 -5.140121 -1.740671
-12.972989 -12.084814 0.929173
-6.543414 -6.095429 -1.738270
-26.996525 -25.139465 3.227377
-7.868448 -7.324619 -1.702633
-13.350746 -12.423660 2.239228
-11.927073 -11.094963 -2.000120
-8.597017 -7.994436 1.859380
-13.436275 -12.494501 -1.605235
-8.597411 -7.992005 2.281694
-22.679171 -21.074789 -1.622519
-8.586593 -7.976363 2.705711
-13.057624 -12.125403 -0.311037
-8.582898 -7.967352 3.137922
-0.773932 -0.716669 -0.282630
-12.944580 -11.982621 0.307895
-5.539594 -5.126130 -1.742471
-13.100132 -12.118119 0.935244
-6.571857 -6.079217 -1.740178
-13.231207 -12.235090 1.576647
-7.902671 -7.305153 -1.704510
-22.710224 -20.985765 3.796718
-8.877329 -8.200374 -1.483881
-8.650994 -7.988501 1.865012
-13.491516 -12.458336 -1.606629
-8.636798 -7.972600 2.284747
-13.161896 -12.145449 -0.938593
-8.643030 -7.972767 2.714709
-8.634805 -7.959602 3.146722
-0.773584 -0.711348 -0.281595
-12.471061 -11.463710 0.295679
-5.560324 -5.109399 -1.743371
-6.603158 -6.065539 -1.742849
-7.938310 -7.286874 -1.706700
-13.387424 -12.284523 2.230941
-8.891270 -8.155916 -1.481444
-8.707945 -7.984955 1.871269
-8.879861 -8.142597 -1.054062
-8.693519 -7.968937 2.292379
-8.889687 -8.145898 -0.631904
-8.696674 -7.966242 2.722808
-8.932874 -8.179737 -0.211418
-8.692462 -7.956805 3.157593
-0.770356 -0.703432 -0.279525
-8.927988 -8.149515 0.211000
-5.585322 -5.096527 -1.745620
-12.850926 -11.722178 0.911588
-6.622838 -6.041128 -1.742468
-13.419362 -12.236391 1.588849
-7.965156 -7.260452 -1.707013
-13.579889 -12.374088 2.255802
-8.905011 -8.111463 -1.479007
-8.756211 -7.973132 1.875649
-8.933271 -8.134357 -1.057025
-8.753224 -7.967614 2.300775
-8.934317 -8.129602 -0.633056
-8.756142 -7.964686 2.732705
-8.939178 -8.128325 -0.210895
-8.747344 -7.951103 3.167428
-0.775670 -0.703334 -0.280560
-8.965269 -8.126361 0.211209
-5.611743 -5.084851 -1.748320
-8.980866 -8.134786 0.635045
-6.649708 -6.023244 -1.743994
-8.995829 -8.145485 1.061731
-7.999238 -7.240559 -1.708890
-8.956884 -8.104530 1.483150
-9.037795 -8.174876 -1.496312
-8.801573 -7.958416 1.879404
-8.908409 -8.055018 -1.050750
-8.824677 -7.976505 2.312224
-8.937446 -8.075605 -0.631276
-8.802691 -7.951052 2.738554
-8.942267 -8.074289 -0.210301
-8.782214 -7.926994 3.170016
-0.786734 -0.708378 -0.283666
-8.959397 -8.064247 0.210406
-5.633806 -5.069140 -1.749669
-9.000296 -8.095375 0.634417
-6.680909 -6.009187 -1.746666
-9.021244 -8.111369 1.061383
-8.024467 -7.212589 -1.708890
-9.036799 -8.119654 1.491681
-9.070706 -8.147258 -1.497043
-8.864576 -7.959315 1.886913
-8.951299 -8.037182 -1.052493
-8.861231 -7.953522 2.314513
-8.965581 -8.044358 -0.631276
-8.850703 -7.938493 2.744853
-8.965929 -8.039023 -0.210197
-8.851549 -7.933682 3.185027
-0.774800 -0.692751 -0.278489
-8.983019 -8.028926 0.210301
-5.648558 -5.046847 -1.748769
-9.012114 -8.049273 0.633265
-6.707702 -5.991061 -1.748192
-9.021266 -8.054618 1.058071
-8.061381 -7.195060 -1.711393
-9.044350 -8.069557 1.488269
-9.113907 -8.128757 -1.499481
-8.927691 -7.959877 1.894422
-9.012015 -8.035060 -1.056328
-8.906528 -7.938217 2.319093
-9.010013 -8.027626 -0.632428
-8.922014 -7.946434 2.758350
-9.010365 -8.022305 -0.210581
-8.902281 -7.923284 3.193310
-0.791660 -0.702869 -0.283666
-9.024452 -8.009467 0.210616
-5.673429 -5.033566 -1.751019
-9.035673 -8.013790 0.632951
-6.744730 -5.981939 -1.752390
-9.041873 -8.016470 1.057199
-8.096796 -7.176047 -1.713583
-9.054633 -8.022140 1.485344
-9.182348 -8.132432 -1.506062
-8.990918 -7.960091 1.901931
-9.069843 -8.029966 -1.059814
-8.954765 -7.925295 2.324435
-9.061911 -8.017303 -0.634102
-8.968676 -7.932025 2.764199
-9.062285 -8.011992 -0.211139
-8.960280 -7.919028 3.204180
-0.802803 -0.707766 -0.286772
-9.083859 -8.005682 0.211349
-5.698277 -5.020172 -1.753268
-9.074081 -7.991443 0.633684
-6.761148 -5.954469 -1.751245
-9.102700 -8.013823 1.061034
-8.130693 -7.155571 -1.715461
-9.095995 -8.002285 1.487537
-9.240493 -8.126548 -1.510936
-9.027551 -7.936483 1.903808
-9.126248 -8.023252 -1.063126
-9.035465 -7.940645 2.338174
-9.107847 -8.001440 -0.635359
-9.025594 -7.926389 2.773197
-9.108229 -7.996144 -0.211558
-9.005293 -7.902994 3.210392
-0.796548 -0.697325 -0.283666
-9.152381 -8.009481 0.212291
-5.718698 -5.002819 -1.754168
-9.144021 -7.996531 0.636615
-6.781894 -5.930830 -1.751245
-9.144118 -7.993801 1.062603
-8.171982 -7.141446 -1.718902
-9.153771 -7.996605 1.492412
-9.297213 -8.119052 -1.515567
-9.084960 -7.930906 1.910065
-9.170708 -8.005761 -1.065043
-9.077920 -7.921965 2.341990
-9.180874 -8.008987 -0.638499
-9.072303 -7.911483 2.779045
-9.163218 -7.987955 -0.212186
-9.066322 -7.900702 3.222297
-0.798977 -0.694540 -0.283666
-9.199903 -7.994538 0.212745
-5.742012 -4.987936 -1.755968
-9.191483 -7.981587 0.637975
-6.812932 -5.916131 -1.753916
-9.193029 -7.980120 1.065043
-8.372914 -7.265645 -1.755821
-9.208621 -7.988017 1.496799
-9.331493 -8.091753 -1.516542
-9.136474 -7.919846 1.915071
-9.227204 -7.998494 -1.068355
-9.147061 -7.926229 2.352675
-9.238965 -8.003047 -0.640592
-9.135219 -7.910384 2.789843
-9.230355 -7.989947 -0.213094
-9.128904 -7.899347 3.234720
-0.804321 -0.694272 -0.284701
-9.258033 -7.988503 0.213443
-5.756437 -4.965317 -1.755068
-9.246512 -7.972933 0.639859
-6.843948 -5.901289 -1.756588
-9.264594 -7.985706 1.070098
-8.576306 -7.389818 -1.793052
-9.260512 -7.976554 1.500699
-9.382249 -8.078558 -1.520198
-9.188017 -7.908523 1.920077
-9.286778 -7.993531 -1.072016
-9.201459 -7.917301 2.359544
-9.289560 -7.990282 -0.642162
-9.205626 -7.915293 2.802890
-9.288518 -7.983750 -0.213792
-9.181334 -7.888834 3.243520
-0.815540 -0.699003 -0.287807
-9.313198 -7.979554 0.214071
-5.788534 -4.957871 -1.759567
-9.304630 -7.966588 0.641953
-6.871963 -5.883748 -1.758496
-9.313607 -7.971453 1.072539
-8.627563 -7.381669 -1.798371
-9.321488 -7.972567 1.506062
-9.436041 -8.067688 -1.524342
-9.245598 -7.902073 1.926334
-9.352488 -7.993430 -1.076373
-9.243966 -7.897887 2.363360
-9.341695 -7.978561 -0.643837
-9.250982 -7.898297 2.808289
-9.345231 -7.975941 -0.214455
-9.235271 -7.879307 3.252838
-0.823860 -0.701160 -0.289877
-9.372978 -7.974210 0.214804
-5.808774 -4.940160 -1.760467
-9.362948 -7.962861 0.644151
-6.896946 -5.863538 -1.759641
-9.379329 -7.971152 1.076896
-8.669839 -7.365576 -1.801812
-9.373472 -7.960538 1.509961
-9.508029 -8.071960 -1.531410
-9.313917 -7.907166 1.935095
-9.406157 -7.982651 -1.079337
-9.334359 -7.918912 2.379388
-9.404523 -7.975615 -0.646244
-9.294847 -7.879819 2.813238
-9.391457 -7.961720 -0.214909
-9.299667 -7.881111 3.266297
-0.821876 -0.694539 -0.288324
-9.436028 -7.974062 0.215642
-5.834056 -4.928415 -1.763166
-9.430362 -7.963633 0.646872
-6.918872 -5.840694 -1.760022
-9.425367 -7.953781 1.078988
-8.695725 -7.338059 -1.802125
-9.440784 -7.963970 1.516542
-9.568130 -8.068539 -1.536773
-9.359586 -7.889884 1.938849
-9.458343 -7.970310 -1.082126
-9.381583 -7.905628 2.384731
-9.456887 -7.966259 -0.648024
-9.358193 -7.880333 2.824486
-9.452849 -7.957218 -0.215677
-9.352249 -7.869746 3.275096
-0.833053 -0.699262 -0.291430
-9.485250 -7.959070 0.216131
-5.863169 -4.918040 -1.766766
-9.484119 -7.952482 0.648652
-6.947229 -5.825286 -1.762312
-9.474596 -7.941681 1.081603
-8.722802 -7.308929 -1.802438
-9.498961 -7.956461 1.521417
-9.628199 -8.061853 -1.541891
-9.423425 -7.887595 1.946358
-9.504582 -7.955526 -1.084392
-9.427194 -7.887948 2.389310
-9.524468 -7.966518 -0.650745
-9.414049 -7.871369 2.833034
-9.514323 -7.952386 -0.216445
-9.404863 -7.858112 3.283896
-0.826585 -0.688929 -0.288324
-9.542165 -7.950232 0.216794
-5.877304 -4.895050 -1.765866
-9.536380 -7.939775 0.650327
-6.970538 -5.803513 -1.763075
-9.542076 -7.941698 1.086135
-8.723964 -7.258224 -1.797432
-9.543467 -7.937218 1.524098
-9.676126 -8.044693 -1.545060
-9.472170 -7.872326 1.950738
-9.572135 -7.955408 -1.088924
-9.463729 -7.862523 2.391600
-9.581410 -7.957467 -0.652734
-9.487950 -7.877046 2.846980
-9.578954 -7.949778 -0.217282
-9.461971 -7.849905 3.294249
-0.837914 -0.693429 -0.291430
-9.600673 -7.942370 0.217492
-5.897360 -4.876987 -1.766766
-9.585588 -7.924254 0.651792
-6.996807 -5.784149 -1.764602
-9.605062 -7.937535 1.090144
-8.755340 -7.232757 -1.798684
-9.601727 -7.929136 1.528973
-9.724047 -8.027298 -1.548228
-9.548347 -7.879450 1.960750
-9.636727 -7.952384 -1.093107
-9.533522 -7.864419 2.402285
-9.638405 -7.948118 -0.654723
-9.537943 -7.862474 2.853729
-9.640596 -7.944270 -0.218050
-9.542996 -7.861044 3.312884
-0.840330 -0.690500 -0.291430
-9.660788 -7.935463 0.218225
-5.926397 -4.866264 -1.770365
-9.656414 -7.926228 0.654723
-7.018471 -5.760937 -1.764983
-9.668137 -7.933026 1.094153
-8.775952 -7.198393 -1.797745
-9.669256 -7.928299 1.535310
-9.767364 -8.005888 -1.550666
-9.609408 -7.873615 1.967633
-9.695251 -7.943951 -1.096593
-9.609517 -7.870902 2.414497
-9.690818 -7.934668 -0.656398
-9.592474 -7.851349 2.861827
-9.686840 -7.925765 -0.218469
-9.600285 -7.852149 3.323236
-0.854710 -0.697333 -0.295571
-9.724073 -7.930759 0.219028
-5.946367 -4.848012 -1.771265
-9.718084 -7.920232 0.657026
-7.040060 -5.737644 -1.765365
-9.715852 -7.915586 1.096419
-8.779581 -7.150253 -1.793365
-9.730740 -7.922071 1.540672
-9.847598 -8.014348 -1.558953
-9.655221 -7.854983 1.971387
-9.676534 -7.869519 2.424419
-9.755650 -7.931029 -0.658910
-9.645531 -7.838710 2.869476
-9.748593 -7.919642 -0.219237
-9.635135 -7.824678 3.325825
-0.854136 -0.691913 -0.294536
-9.778114 -7.918163 0.219621
-5.978400 -4.839487 -1.775764
-9.782937 -7.916411 0.659538
-7.070731 -5.721678 -1.768036
-9.775953 -7.907938 1.100080
-8.761477 -7.084785 -1.784605
-9.793842 -7.916755 1.546278
-9.915658 -8.012362 -1.565290
-9.719460 -7.851024 1.978896
-9.843465 -7.951191 -1.107052
-9.719221 -7.848025 2.428236
-9.822129 -7.928289 -0.661527
-9.722880 -7.845380 2.884322
-9.819760 -7.920718 -0.220214
-9.707505 -7.827376 3.341354
-0.853536 -0.686506 -0.293501
-9.839981 -7.911549 0.220389
-5.990700 -4.814927 -1.774414
-9.838536 -7.904731 0.661422
-7.105964 -5.709257 -1.771852
-9.853205 -7.913691 1.105658
-8.772292 -7.043028 -1.781789
-9.843093 -7.899915 1.549691
-9.949758 -7.982672 -1.566265
-9.774547 -7.839293 1.984528
-9.849402 -7.899329 -1.104612
-9.774129 -7.836156 2.435105
-9.877796 -7.916440 -0.663411
-9.782146 -7.836977 2.893770
-9.887931 -7.918893 -0.221122
-9.761912 -7.815177 3.350672
-0.864984 -0.690755 -0.296607
-9.894105 -7.898361 0.220982
-6.012042 -4.797630 -1.775764
-9.895733 -7.894007 0.663411
-7.133523 -5.690541 -1.773761
-9.918155 -7.909061 1.109841
-8.804548 -7.018519 -1.783353
-9.901656 -7.890253 1.554565
-10.056748 -8.010970 -1.578696
-9.848209 -7.842040 1.993914
-9.911206 -7.892204 -1.108447
-9.829069 -7.824000 2.441974
-9.938189 -7.908027 -0.665609
-9.835371 -7.823405 2.901419
-9.937424 -7.901755 -0.221611
-9.828455 -7.812305 3.364130
-0.870297 -0.690284 -0.297642
-9.950015 -7.889112 0.221646
-6.032498 -4.781301 -1.777113
-9.946903 -7.880992 0.665085
-7.150815 -5.665635 -1.773379
-9.977127 -7.902105 1.113502
-8.816930 -6.980703 -1.781163
-9.957342 -7.880781 1.559196
-10.136189 -8.019454 -1.586983
-9.905149 -7.833847 2.000171
-9.988707 -7.897102 -1.114025
-9.904243 -7.830325 2.454185
-9.998832 -7.902272 -0.667912
-9.879610 -7.805244 2.906818
-9.990251 -7.889826 -0.222204
-9.875534 -7.796431 3.371377
-0.872821 -0.687090 -0.297642
-10.032484 -7.897626 0.222867
-6.053746 -4.763828 -1.778463
-10.019876 -7.882034 0.668121
-7.179249 -5.645456 -1.775287
-10.023252 -7.879027 1.115419
-8.839352 -6.945898 -1.780537
-10.022251 -7.875412 1.565046
-10.184415 -7.999964 -1.590151
-9.972826 -7.830945 2.008306
-9.963767 -7.818210 2.461818
-10.073302 -7.901319 -0.670947
-9.963356 -7.812271 2.923014
-10.055498 -7.884519 -0.223042
-9.951344 -7.800044 3.387941
-0.875215 -0.684039 -0.297642
-10.089729 -7.882960 0.223496
-6.080381 -4.748806 -1.781162
-10.078609 -7.868609 0.670110
-7.212839 -5.631234 -1.778722
-10.091532 -7.875863 1.119951
-8.851083 -6.905278 -1.778034
-10.085485 -7.865482 1.570408
-10.229324 -7.974788 -1.592589
-10.026392 -7.813768 2.013312
-10.126886 -7.892086 -1.123263
-10.031264 -7.814753 2.471740
-10.138641 -7.895560 -0.673459
-10.041309 -7.816947 2.937861
-10.126939 -7.880770 -0.223984
-10.013411 -7.789617 3.399329
-0.888281 -0.689269 -0.301265
-10.147206 -7.870979 0.224159
-6.096920 -4.727553 -1.781162
-10.143900 -7.862745 0.672622
-7.243313 -5.614441 -1.781393
-10.163060 -7.874757 1.124832
-8.868886 -6.869505 -1.776783
-10.137994 -7.849673 1.574308
-10.330880 -7.996138 -1.604044
-10.094227 -7.810152 2.021446
-10.181162 -7.877416 -1.126227
-10.074013 -7.791701 2.475556
-10.186681 -7.876002 -0.674820
-10.085497 -7.794958 2.942810
-10.189199 -7.872269 -0.224752
-10.065003 -7.773510 3.407612
-0.887621 -0.683807 -0.300230
-10.211058 -7.863575 0.224962
-6.119563 -4.710996 -1.782962
-10.206108 -7.854086 0.674925
-7.269092 -5.593913 -1.782919
-10.225227 -7.865962 1.128667
-8.913170 -6.854156 -1.780850
-10.209400 -7.848112 1.581133
-10.402800 -7.993897 -1.610869
-10.152759 -7.798935 2.027704
-10.255998 -7.878239 -1.131456
-10.138519 -7.785184 2.484715
-10.250547 -7.868369 -0.677227
-10.137381 -7.778686 2.950008
-10.257870 -7.868297 -0.225660
-10.131936 -7.768891 3.421070
-0.890002 -0.680704 -0.300230
-10.286102 -7.864321 0.226009
-6.132873 -4.687239 -1.782062
-10.268374 -7.845090 0.677227
-7.290132 -5.569698 -1.783301
-10.284291 -7.854407 1.132153
-8.933900 -6.820604 -1.780224
-10.273026 -7.840128 1.586739
-10.449581 -7.971982 -1.613794
-10.217618 -7.792196 2.035213
-10.321459 -7.871387 -1.135639
-10.215594 -7.787837 2.496927
-10.324021 -7.867644 -0.680263
-10.223379 -7.788127 2.967104
-10.313908 -7.854251 -0.226288
-10.208181 -7.770921 3.437635
-0.901604 -0.684603 -0.303336
-10.350128 -7.856173 0.226811
-6.164721 -4.677583 -1.786561
-10.341845 -7.844201 0.680263
-7.314222 -5.547775 -1.784446
-10.330699 -7.832904 1.134245
-8.973396 -6.801312 -1.783353
-10.328811 -7.825799 1.591126
-10.469433 -7.929465 -1.612575
-10.276252 -7.780333 2.041470
-10.382228 -7.860569 -1.139300
-10.295941 -7.792413 2.509902
-10.386463 -7.858069 -0.682566
-10.287804 -7.780608 2.977902
-10.382737 -7.849554 -0.227195
-10.262988 -7.756207 3.446952
-0.900903 -0.679126 -0.302301
-10.398248 -7.835643 0.227265
-6.184124 -4.658381 -1.787461
-10.402672 -7.833281 0.682461
-7.344523 -5.530475 -1.787117
-10.408915 -7.835140 1.139823
-8.976562 -6.754506 -1.779286
-10.406833 -7.827880 1.598926
-10.544645 -7.928664 -1.619887
-10.357037 -7.784768 2.052108
-10.447828 -7.853011 -1.143483
-10.332499 -7.763499 2.512191
-10.456945 -7.854154 -0.685392
-10.342951 -7.765710 2.986000
-10.451657 -7.844473 -0.228103
-10.305450 -7.731931 3.452128
-0.912548 -0.682922 -0.305406
-10.460764 -7.825652 0.228033
-6.200347 -4.636765 -1.787461
-10.479540 -7.833994 0.685706
-7.384224 -5.520087 -1.792078
-10.484081 -7.834538 1.145052
-8.981094 -6.708944 -1.775531
-10.459540 -7.810511 1.602826
-10.615208 -7.923868 -1.626468
-10.418980 -7.774555 2.058991
-10.515099 -7.846279 -1.147841
-10.397302 -7.755560 2.521350
-10.513120 -7.839095 -0.687276
-10.385622 -7.741203 2.990499
-10.506233 -7.828256 -0.228696
-10.403646 -7.748993 3.475940
-0.921130 -0.684341 -0.307477
-10.537783 -7.826049 0.229115
-6.216496 -4.615094 -1.787461
-10.530880 -7.815220 0.687276
-7.405025 -5.495448 -1.792460
-10.543367 -7.821634 1.148538
-9.026673 -6.694027 -1.779912
-10.555313 -7.824786 1.613307
-10.682676 -7.916313 -1.632562
-10.471449 -7.756954 2.063997
-10.584047 -7.840364 -1.152373
-10.477955 -7.758942 2.534325
-10.574130 -7.827303 -0.689474
-10.475240 -7.751272 3.008495
-10.578511 -7.824831 -0.229674
-10.458593 -7.733303 3.485257
-0.926622 -0.683415 -0.308512
-10.605274 -7.818886 0.229988
-6.246686 -4.603771 -1.791510
-10.593471 -7.804475 0.689579
-7.424162 -5.469565 -1.792460
-10.612316 -7.815505 1.153070
-9.072255 -6.678872 -1.784292
-10.617737 -7.813778 1.618669
-10.755016 -7.911912 -1.639387
-10.536655 -7.748441 2.071505
-10.648268 -7.830518 -1.156382
-10.539775 -7.747901 2.542721
-10.648065 -7.824640 -0.692509
-10.536784 -7.740039 3.018393
-10.644444 -7.816263 -0.230511
-10.526014 -7.726469 3.498716
-0.919650 -0.673329 -0.305406
-10.669619 -7.808980 0.230791
-6.272154 -4.588842 -1.794210
-10.656115 -7.793389 0.691881
-7.459054 -5.455208 -1.796276
-10.666878 -7.798400 1.156034
-9.121032 -6.665813 -1.789298
-10.680209 -7.802432 1.624031
-10.838677 -7.915297 -1.647917
-10.601931 -7.739567 2.079014
-10.707721 -7.816795 -1.159869
-10.614332 -7.745786 2.554169
-10.730171 -7.827446 -0.696068
-10.592081 -7.723879 3.026491
-10.703983 -7.802615 -0.231209
-10.581024 -7.710160 3.508034
-0.921995 -0.670114 -0.305406
-10.735640 -7.799897 0.231628
-6.300748 -4.576083 -1.797809
-10.733613 -7.795567 0.695231
-7.489174 -5.437210 -1.798947
-10.729508 -7.786863 1.159869
-9.155436 -6.642056 -1.791488
-10.704168 -7.762769 1.623544
-10.893793 -7.900288 -1.652305
-10.662723 -7.729874 2.085897
-10.776886 -7.809771 -1.164401
-10.669926 -7.729416 2.561038
-10.788164 -7.812199 -0.698057
-10.658673 -7.718429 3.038189
-10.776771 -7.801085 -0.232222
-10.647225 -7.704475 3.521492
-0.939876 -0.678359 -0.310583
-10.789015 -7.784144 0.232222
-6.312727 -4.552884 -1.796909
-10.799903 -7.789138 0.697848
-7.508755 -5.413494 -1.799329
-10.806996 -7.788517 1.165447
-9.209467 -6.634751 -1.797745
-10.710520 -7.713313 1.620619
-10.966643 -7.897763 -1.659373
-10.729980 -7.724479 2.094032
-10.844771 -7.804248 -1.168933
-10.740123 -7.726091 2.571724
-10.844822 -7.798536 -0.700046
-10.738004 -7.721723 3.053486
-10.841552 -7.793318 -0.233059
-10.700955 -7.689416 3.530809
-0.938980 -0.672988 -0.309548
-10.863533 -7.783264 0.233269
-6.326206 -4.530790 -1.796459
-10.856257 -7.772319 0.699732
-7.536243 -5.395422 -1.801619
-10.866789 -7.776986 1.169107
-8.940626 -6.396142 -1.741116
-10.797397 -7.721632 1.629881
-10.998992 -7.862895 -1.660104
-10.798663 -7.716842 2.102167
-10.918962 -7.799930 -1.173988
-10.810413 -7.722388 2.582409
-10.922635 -7.799671 -0.703395
-10.802958 -7.711366 3.064283
-10.920776 -7.792593 -0.234176
-10.796932 -7.701377 3.553586
-0.954035 -0.678499 -0.313689
-10.946043 -7.784701 0.234456
-6.361042 -4.522229 -1.801858
-10.927279 -7.765615 0.702558
-7.557568 -5.368900 -1.802000
-10.947201 -7.774023 1.174685
-8.946291 -6.350752 -1.737674
-10.879321 -7.722962 1.638168
-11.044178 -7.837092 -1.662786
-10.877092 -7.715672 2.112178
-10.980256 -7.785968 -1.177648
-10.873884 -7.707689 2.590805
-10.995148 -7.790764 -0.706221
-10.850233 -7.685236 3.069682
-10.977287 -7.775229 -0.234805
-10.848976 -7.681503 3.561868
-0.954819 -0.674050 -0.313171
-11.002276 -7.764129 0.235049
-6.385536 -4.504501 -1.804107
-11.003003 -7.758891 0.705593
-7.576263 -5.342487 -1.802000
-11.016611 -7.765607 1.179217
-8.924808 -6.288762 -1.729227
-10.927030 -7.696754 1.641093
-11.147491 -7.849133 -1.673998
-10.947300 -7.705313 2.120313
-11.049728 -7.777408 -1.182181
-10.942469 -7.699060 2.600727
-11.058217 -7.777615 -0.708524
-10.937572 -7.689905 3.086778
-11.049883 -7.765990 -0.235747
-10.921318 -7.672782 3.576362
-0.950838 -0.666279 -0.311100
-11.071895 -7.755508 0.235957
-6.410800 -4.488890 -1.806807
-11.069291 -7.747923 0.708106
-7.601300 -5.320511 -1.803527
-11.079567 -7.752231 1.183052
-8.920804 -6.239456 -1.724221
-11.009144 -7.697238 1.649380
-11.223637 -7.844285 -1.681310
-11.019469 -7.698732 2.129073
-11.114373 -7.765036 -1.186190
-11.011126 -7.690044 2.610649
-11.126241 -7.767547 -0.711141
-11.009091 -7.682908 3.099376
-11.119565 -7.757119 -0.236655
-10.998742 -7.669974 3.592926
-0.954744 -0.664059 -0.311618
-11.141588 -7.746490 0.236864
-6.426430 -4.466485 -1.806807
-11.148755 -7.745706 0.711455
-7.639173 -5.307389 -1.808106
-11.149106 -7.743061 1.187584
-9.468275 -6.573274 -1.825590
-11.081607 -7.690454 1.656205
-11.270521 -7.818640 -1.684234
-11.072248 -7.678231 2.134079
-11.193802 -7.762525 -1.191768
-11.079854 -7.680638 2.620571
-11.192685 -7.755966 -0.713653
-11.074289 -7.671063 3.110173
-11.194254 -7.751267 -0.237667
-11.069923 -7.662323 3.607420
-0.963415 -0.665112 -0.313689
-11.219582 -7.742761 0.237946
-6.445189 -4.446239 -1.807707
-11.197101 -7.721479 0.712816
-7.665734 -5.286262 -1.810014
-11.220357 -7.734627 1.192291
-9.468388 -6.524492 -1.821210
-11.134542 -7.669740 1.660104
-11.363144 -7.824281 -1.693984
-11.160815 -7.682094 2.145968
-11.268425 -7.756163 -1.196823
-11.138944 -7.664176 2.628203
-11.265768 -7.748539 -0.716584
-11.145963 -7.663274 3.122771
-11.269032 -7.744993 -0.238679
-11.128448 -7.645513 3.617773
-0.980074 -0.671573 -0.318347
-11.282834 -7.728414 0.238714
-6.473533 -4.432522 -1.811306
-11.284968 -7.724086 0.716689
-7.684140 -5.259470 -1.810014
-11.301552 -7.732540 1.198043
-9.538390 -6.523742 -1.830284
-11.220241 -7.671159 1.668879
-11.467416 -7.837213 -1.705440
-11.226709 -7.669832 2.153477
-11.341495 -7.748251 -1.201703
-11.220752 -7.662890 2.641178
-11.327386 -7.732815 -0.718782
-11.227374 -7.661668 3.138067
-11.327387 -7.727020 -0.239342
-11.196567 -7.634918 3.631231
-0.976022 -0.663802 -0.316277
-11.357701 -7.721586 0.239726
-6.495414 -4.414278 -1.813105
-11.353164 -7.712704 0.719305
-7.705701 -5.234822 -1.810778
-11.356493 -7.712073 1.201006
-9.559471 -6.489295 -1.829971
-11.292944 -7.663156 1.675704
-11.516058 -7.811625 -1.708608
-11.292653 -7.657204 2.160986
-11.399803 -7.729859 -1.205015
-11.299437 -7.658925 2.653390
-11.417140 -7.735803 -0.722760
-11.273412 -7.635543 3.143466
-11.400655 -7.718824 -0.240320
-11.277545 -7.632602 3.648831
-0.984738 -0.664715 -0.318347
-11.434314 -7.715448 0.240773
-6.520477 -4.398116 -1.815805
-11.426383 -7.704294 0.722236
-7.736948 -5.216674 -1.813830
-11.437867 -7.709129 1.206758
-9.521450 -6.415047 -1.818394
-11.359138 -7.650306 1.681553
-11.563018 -7.784680 -1.711533
-11.361922 -7.646413 2.169121
-11.481263 -7.726728 -1.210768
-11.365194 -7.645738 2.662549
-11.495453 -7.730450 -0.726004
-11.364687 -7.639632 3.161462
-11.485620 -7.718020 -0.241541
-11.336192 -7.614734 3.659184
-0.987052 -0.661273 -0.318347
-11.502716 -7.703303 0.241646
-6.545505 -4.381835 -1.818504
-11.506324 -7.699906 0.725586
-7.774691 -5.202738 -1.818410
-11.511076 -7.700174 1.211639
-9.586477 -6.410322 -1.826529
-11.431984 -7.641496 1.688378
-11.652842 -7.786179 -1.720795
-11.447678 -7.646206 2.180384
-11.561180 -7.722018 -1.216346
-11.437533 -7.636541 2.673234
-11.562238 -7.716886 -0.728517
-11.446400 -7.636689 3.176759
-11.549092 -7.702287 -0.242309
-11.420571 -7.613694 3.677819
-0.999007 -0.664242 -0.321453
-11.581161 -7.697420 0.242728
-6.560760 -4.358960 -1.818504
-11.580037 -7.693760 0.728621
-7.807524 -5.185341 -1.821844
-11.591000 -7.695212 1.217217
-9.562710 -6.346236 -1.817769
-11.511524 -7.636657 1.696178
-11.744468 -7.788244 -1.730301
-11.515774 -7.636587 2.188519
-11.622939 -7.704733 -1.220006
-11.513217 -7.629103 2.684683
-11.634061 -7.706261 -0.731343
-11.502235 -7.616054 3.184857
-11.626257 -7.698173 -0.243391
-11.497307 -7.609900 3.694383
-1.006157 -0.663942 -0.323006
-11.658363 -7.693115 0.243810
-6.584940 -4.343617 -1.821204
-11.641839 -7.676379 0.730819
-7.814102 -5.150495 -1.819173
-11.661047 -7.683206 1.221749
-9.608445 -6.330792 -1.822462
-11.583202 -7.629017 1.703002
-11.788468 -7.761261 -1.732982
-11.585263 -7.624578 2.196653
-11.703029 -7.699152 -1.225584
-11.584377 -7.621094 2.695368
-11.717958 -7.706048 -0.735006
-11.556738 -7.597136 3.192955
-11.696510 -7.686092 -0.244299
-11.552861 -7.588814 3.703701
-1.011585 -0.662719 -0.324041
-11.742025 -7.689621 0.244997
-6.616366 -4.331278 -1.825703
-11.718701 -7.668504 0.733960
-7.844280 -5.133153 -1.822226
-11.729814 -7.672852 1.226281
-9.713151 -6.351267 -1.838105
-11.649640 -7.614603 1.708852
-11.906889 -7.779784 -1.746388
-11.641577 -7.603535 2.202285
-11.781873 -7.695167 -1.231162
-11.656938 -7.610665 2.706053
-11.786600 -7.692387 -0.737623
-11.671323 -7.614248 3.217250
-11.773517 -7.677989 -0.245346
-11.634305 -7.584310 3.721300
-1.020371 -0.663396 -0.326112
-11.793947 -7.664933 0.245520
-6.637980 -4.312404 -1.827502
-11.793973 -7.659096 0.736995
-7.872029 -5.112156 -1.824516
-11.803317 -7.662235 1.231162
-9.731948 -6.315172 -1.837479
-11.746098 -7.619264 1.719089
-11.997267 -7.779214 -1.755650
-11.731037 -7.603679 2.214174
-11.855477 -7.684337 -1.236043
-11.713091 -7.589144 2.712922
-11.860319 -7.681597 -0.740554
-11.727274 -7.592524 3.225348
-11.850610 -7.669439 -0.246393
-11.702881 -7.570934 3.734759
-1.029173 -0.664020 -0.328183
-11.877767 -7.660570 0.246707
-6.644804 -4.283926 -1.825253
-11.874702 -7.655656 0.740449
-7.903028 -5.093154 -1.827569
-11.891962 -7.660913 1.237612
-9.752272 -6.280093 -1.837167
-11.799328 -7.595407 1.722989
-12.051055 -7.754477 -1.759550
-11.809344 -7.598944 2.224185
-11.935849 -7.677397 -1.241621
-11.812170 -7.594929 2.729714
-11.920663 -7.661747 -0.742647
-11.793055 -7.576822 3.236146
-11.929814 -7.664687 -0.247510
-11.779939 -7.565491 3.751323
-1.031485 -0.660423 -0.328183
-11.956995 -7.655643 0.247824
-6.670463 -4.269222 -1.828402
-11.936685 -7.636762 0.742647
-7.950529 -5.084577 -1.834438
-11.963958 -7.648327 1.242318
-9.877898 -6.314750 -1.856877
-11.881324 -7.592580 1.731276
-12.051611 -7.698442 -1.755894
-11.895737 -7.595944 2.235449
-12.023036 -7.674277 -1.247896
-11.893557 -7.591630 2.742689
-12.004933 -7.659777 -0.746311
-11.896980 -7.587972 3.257741
-12.013825 -7.659548 -0.248697
-11.868181 -7.563782 3.770994
-1.045082 -0.664253 -0.331806
-12.034280 -7.646030 0.248871
-6.688616 -4.247999 -1.829302
-12.012167 -7.626096 0.745683
-8.015413 -5.088700 -1.845505
-12.049812 -7.647046 1.248593
-9.923234 -6.295045 -1.861258
-11.951340 -7.578703 1.737613
-12.145474 -7.698838 -1.765643
-11.948875 -7.571290 2.240455
-12.096877 -7.662116 -1.252777
-11.953154 -7.571082 2.750321
-12.080536 -7.648807 -0.749346
-11.949741 -7.563072 3.264940
-12.074286 -7.638951 -0.249395
-11.936964 -7.549152 3.784452
-1.044242 -0.658358 -0.330771
-12.113338 -7.637033 0.249953
-6.711646 -4.229823 -1.831551
-12.092789 -7.618186 0.749032
-8.190173 -5.157626 -1.881377
-12.111484 -7.624058 1.252079
-9.932862 -6.250218 -1.858755
-12.041567 -7.577113 1.746875
-12.294941 -7.733548 -1.783436
-12.035433 -7.567390 2.251718
-12.158973 -7.642107 -1.256437
-12.050644 -7.571083 2.766349
-12.165995 -7.640597 -0.752905
-12.007089 -7.537878 3.273038
-12.158460 -7.632906 -0.250582
-11.999242 -7.530029 3.795840
-1.044895 -0.653684 -0.330253
-12.193805 -7.625456 0.251035
-6.746933 -4.217590 -1.836950
-12.179912 -7.610855 0.752696
-8.238093 -5.147733 -1.888246
-12.205616 -7.623955 1.259052
-9.936190 -6.203997 -1.855313
-12.106306 -7.556051 1.752238
-12.324885 -7.689487 -1.783680
-12.126782 -7.562946 2.263607
-12.246438 -7.637570 -1.262712
-12.123647 -7.558056 2.777034
-12.250223 -7.633997 -0.756464
-12.125957 -7.553616 3.298232
-12.247464 -7.626344 -0.251838
-12.095644 -7.528879 3.817581
-1.068508 -0.663278 -0.336982
-12.273023 -7.615529 0.252117
-6.753334 -4.188877 -1.834701
-12.270909 -7.608287 0.756673
-8.279373 -5.133429 -1.893589
-12.288039 -7.615939 1.264804
-9.954426 -6.167197 -1.854687
-12.179864 -7.543010 1.759062
-12.398911 -7.675673 -1.790504
-12.200141 -7.549678 2.272367
-12.327238 -7.628328 -1.268290
-12.196706 -7.544609 2.787719
-12.326062 -7.621648 -0.759499
-12.205295 -7.544029 3.312629
-12.328448 -7.617180 -0.252955
-12.161299 -7.510970 3.830004
-1.074107 -0.661570 -0.338018
-12.345507 -7.600953 0.253060
-6.764596 -4.163235 -1.833801
-12.340295 -7.594770 0.759395
-8.322323 -5.119928 -1.899313
-12.367161 -7.605353 1.270208
-10.031426 -6.166550 -1.865012
-12.273770 -7.542019 1.768812
-12.506821 -7.682218 -1.802204
-12.265506 -7.533992 2.279876
-12.409821 -7.619654 -1.274043
-12.269816 -7.530743 2.798405
-12.405366 -7.610953 -0.762744
-12.258131 -7.517682 3.319828
-12.406485 -7.608664 -0.254037
-12.265195 -7.519068 3.854851
-1.079706 -0.659832 -0.339053
-12.435483 -7.599595 0.254386
-6.788342 -4.146875 -1.836500
-12.417869 -7.582874 0.762535
-8.338469 -5.089826 -1.898931
-12.448058 -7.595346 1.275786
-10.141191 -6.187781 -1.881594
-12.349556 -7.532286 1.776124
-12.505107 -7.624170 -1.798304
-12.342335 -7.521972 2.289262
-12.494194 -7.611532 -1.279969
-12.375200 -7.539041 2.816723
-12.498770 -7.611325 -0.766931
-12.359565 -7.523601 3.340523
-12.485926 -7.597534 -0.255119
-12.314475 -7.490260 3.862098
-1.078585 -0.654244 -0.338018
-12.523495 -7.593462 0.255643
-6.816109 -4.131234 -1.840100
-12.493798 -7.569497 0.765570
-8.375450 -5.074353 -1.903511
-12.510671 -7.576731 1.279621
-10.108655 -6.119607 -1.871582
-12.419929 -7.515856 1.782461
-12.670924 -7.664720 -1.818291
-12.446274 -7.525861 2.303654
-12.572221 -7.602016 -1.285373
-12.458567 -7.530328 2.829698
-12.567998 -7.593473 -0.769548
-12.419114 -7.500561 3.349521
-12.565437 -7.585946 -0.256201
-12.390164 -7.477175 3.877627
-1.094104 -0.658444 -0.342159
-12.591049 -7.574440 0.256481
-6.835497 -4.110431 -1.841449
-12.593753 -7.570085 0.770071
-8.386381 -5.041040 -1.901984
-12.608770 -7.576112 1.286942
-10.365336 -6.225664 -1.915071
-12.514167 -7.513325 1.792211
-12.694198 -7.618400 -1.817803
-12.519896 -7.510825 2.312414
-12.648225 -7.587811 -1.290428
-12.511718 -7.502945 2.835804
-12.656098 -7.586524 -0.773316
-12.525459 -7.505243 3.371117
-12.651887 -7.577998 -0.257423
-12.489119 -7.477545 3.900403
-1.101372 -0.657592 -0.343712
-12.674077 -7.564265 0.257632
-6.846457 -4.084548 -1.840549
-12.678426 -7.560856 0.773630
-8.407300 -5.013744 -1.902747
-12.686479 -7.562662 1.292171
-10.463367 -6.234947 -1.929150
-12.581249 -7.493978 1.798060
-12.778704 -7.608574 -1.826090
-12.590173 -7.493344 2.320549
-12.737982 -7.581317 -1.296878
-12.591824 -7.491347 2.848015
-12.737435 -7.574968 -0.776666
-12.615234 -7.499315 3.388213
-12.731552 -7.565455 -0.258505
-12.574939 -7.469421 3.919038
-1.120282 -0.663589 -0.348888
-12.757185 -7.553599 0.258784
-6.869058 -4.065588 -1.842799
-12.756308 -7.547067 0.776770
-8.424749 -4.984369 -1.902747
-12.764249 -7.548758 1.297400
-10.488470 -6.200392 -1.929776
-12.662017 -7.482335 1.805860
-12.960720 -7.655795 -1.848271
-12.687696 -7.491530 2.333690
-12.819270 -7.569220 -1.302455
-12.678763 -7.483273 2.861753
-12.825726 -7.566998 -0.780434
-12.664836 -7.469093 3.394511
-12.830235 -7.563619 -0.259971
-12.677495 -7.470600 3.942850
-1.130919 -0.664568 -0.351476
-12.838651 -7.541432 0.259901
-6.894971 -4.048492 -1.845948
-12.834249 -7.532822 0.779911
-8.426858 -4.945987 -1.899313
-12.866134 -7.548517 1.305070
-10.445299 -6.125769 -1.917887
-12.739433 -7.468207 1.813172
-13.006206 -7.621547 -1.850952
-12.778539 -7.485136 2.345579
-12.752243 -7.466748 2.872439
-12.921011 -7.562533 -0.784621
-12.764839 -7.468137 3.414307
-12.916972 -7.554122 -0.261193
-12.750194 -7.453597 3.957343
-1.128225 -0.657698 -0.349923
-12.939191 -7.539862 0.261402
-6.922532 -4.032246 -1.849548
-12.915697 -7.520135 0.783260
-8.422016 -4.903699 -1.894352
-12.950953 -7.537632 1.310997
-10.461495 -6.086293 -1.916948
-12.837499 -7.465607 1.823409
-13.156298 -7.647926 -1.868501
-12.825083 -7.452397 2.349333
-12.842740 -7.459660 2.886940
-12.851504 -7.458753 3.430504
-15.658875 -9.084439 -0.315993
-12.802873 -7.424550 3.965626
-1.135531 -0.656657 -0.351476
-6.948377 -4.014882 -1.852697
-13.007589 -7.512967 0.787238
-8.427181 -4.867400 -1.891680
-13.008243 -7.510314 1.314134
-10.479256 -6.047763 -1.916322
-12.946017 -7.468360 1.835109
-13.241381 -7.635675 -1.876788
-12.922899 -7.449016 2.362474
-20.577492 -11.861277 -2.077967
-12.936747 -7.453987 2.902205
-12.924750 -7.441071 3.443101
-12.912438 -7.427983 3.991508
-1.139492 -0.653650 -0.351994
-32.156990 -18.438847 0.647031
-6.960657 -3.989636 -1.852247
-32.190086 -18.442900 1.944281
-8.483300 -4.860398 -1.900458
-32.294621 -18.495306 3.255964
-10.567160 -6.049425 -1.928524
-13.009912 -7.444818 1.840471
-13.267954 -7.589406 -1.876788
-13.031136 -7.450926 2.377491
-20.646444 -11.805199 -2.080756
-13.013820 -7.438012 2.913653
-13.011565 -7.430700 3.459297
-12.981914 -7.407758 4.004966
-1.143446 -0.650624 -0.352512
-6.984706 -3.971093 -1.854946
-8.479733 -4.819117 -1.895878
-32.532227 -18.480877 3.273395
-10.600238 -6.019326 -1.930714
-13.087610 -7.428756 1.847783
-13.297817 -7.545005 -1.877275
-13.103878 -7.434967 2.386252
-13.114851 -7.435142 2.930445
-13.098467 -7.419814 3.475494
-15.681993 -8.883289 -0.314597
-13.102227 -7.418923 4.034472
-1.147392 -0.647578 -0.353029
-7.004626 -3.951739 -1.856746
-8.484532 -4.782739 -1.893207
-10.647676 -5.999659 -1.935720
-13.191735 -7.430127 1.858995
-13.353901 -7.518396 -1.881663
-13.171065 -7.412435 2.393760
-13.201035 -7.426263 2.944183
-13.187554 -7.412621 3.492590
-15.908162 -8.938201 -0.318506
-13.181945 -7.403415 4.051036
-5.993755 -3.356663 -1.840721
-7.037083 -3.937731 -1.861695
-40.905083 -22.889202 2.456545
-8.478070 -4.742117 -1.888246
-10.666830 -5.961489 -1.935407
-13.286911 -7.422760 1.868745
-13.452856 -7.512389 -1.891900
-13.268011 -7.409167 2.406901
-13.281738 -7.410748 2.956395
-13.274623 -7.400704 3.508786
-6.007123 -3.336660 -1.841239
-7.055215 -3.917212 -1.863045
-8.489421 -4.709639 -1.887101
-10.724545 -5.947161 -1.942291
-13.363540 -7.407529 1.876057
-13.554094 -7.510068 -1.902624
-13.366370 -7.403005 2.420041
-13.381815 -7.408504 2.973186
-13.363892 -7.392487 3.525883
-42.417946 -23.454615 -0.846058
-6.017043 -3.314739 -1.840721
-7.069525 -3.891326 -1.863045
-8.497208 -4.675244 -1.885193
-33.133099 -18.222601 3.308258
-10.791277 -5.932556 -1.950425
-13.418433 -7.373798 1.879957
-13.713762 -7.532970 -1.921149
-13.448823 -7.384388 2.430053
-13.467394 -7.391526 2.986161
-13.466077 -7.384688 3.545679
-6.038748 -3.299274 -1.843827
-7.083065 -3.866625 -1.863045
-8.499689 -4.638031 -1.882140
-10.832732 -5.906199 -1.954180
-13.548676 -7.383907 1.894581
-13.767863 -7.500251 -1.925048
-13.547380 -7.377074 2.443194
-13.544846 -7.372625 2.997610
-21.261488 -11.568086 -1.268519
-13.536283 -7.361845 3.557376
-6.065516 -3.286456 -1.848486
-7.113656 -3.851154 -1.867544
-8.526187 -4.613940 -1.884430
-10.863708 -5.873986 -1.956057
-13.654697 -7.379989 1.905793
-13.860328 -7.488001 -1.934310
-13.642574 -7.367285 2.455709
-13.639603 -7.362606 3.012874
-21.333380 -11.510870 -1.270403
-13.630507 -7.351549 3.575372
-42.137188 -22.717012 -0.835586
-6.071845 -3.262520 -1.846933
-7.142508 -3.834598 -1.871593
-8.571650 -4.599931 -1.890917
-14.026570 -7.524134 1.392574
-10.889369 -5.838829 -1.956995
-13.718868 -7.352911 1.911155
-13.956372 -7.477072 -1.944060
-13.727416 -7.351326 2.466346
-13.730993 -7.350158 3.027376
-21.468527 -11.487215 -1.276055
-13.728256 -7.342529 3.594268
-6.083196 -3.241305 -1.846933
-7.161010 -3.812387 -1.872942
-8.599786 -4.576438 -1.893589
-14.094964 -7.497585 1.396758
-10.914917 -5.803565 -1.957934
-13.807555 -7.338517 1.919930
-14.058219 -7.471741 -1.954785
-13.814517 -7.339129 2.477609
-13.836334 -7.344524 3.044930
-21.621407 -11.472116 -1.282754
-13.807614 -7.326191 3.608665
-13.951633 -7.396367 4.231174
-6.099036 -3.223823 -1.848486
-7.170167 -3.786799 -1.872043
-8.627068 -4.554311 -1.896260
-14.165564 -7.474978 1.401290
-10.930608 -5.765494 -1.957308
-13.923125 -7.340831 1.932604
-14.089943 -7.428784 -1.955759
-13.943632 -7.348537 2.496382
-13.943996 -7.342508 3.063248
-13.914606 -7.323934 3.630260
-6.116537 -3.207168 -1.850556
-7.193041 -3.768429 -1.874742
-8.632476 -4.518708 -1.893970
-14.190274 -7.427962 1.401290
-10.984672 -5.747533 -1.963566
-14.028309 -7.336939 1.943816
-14.193192 -7.420025 -1.966484
-14.011219 -7.321774 2.503890
-14.025229 -7.322869 3.075459
-13.991917 -7.302364 3.643757
-6.131678 -3.186511 -1.851591
-7.217183 -3.747428 -1.877442
-8.622840 -4.473474 -1.888246
-14.228016 -7.381403 1.402336
-11.003909 -5.706324 -1.963253
-14.107975 -7.312882 1.951128
-14.378923 -7.450141 -1.988420
-14.104612 -7.304895 2.515779
-14.468006 -7.489897 -1.425345
-14.128697 -7.311111 3.092251
-14.505986 -7.503140 -0.855902
-14.112056 -7.299382 3.668052
-14.542759 -7.518939 -0.285766
-6.139881 -3.162247 -1.850556
-14.577193 -7.504531 0.286185
-7.227403 -3.719166 -1.876542
