# This PCD file was generated using the MATLAB® pcwrite function
# from Computer Vision Toolbox®.
# .PCD v.7 - Point Cloud Data file format
VERSION .7
FIELDS x y z
SIZE 4 4 4
TYPE F F F
COUNT 1 1 1
WIDTH 1727
HEIGHT 1
VIEWPOINT 0 0 0 1 0 0 0
POINTS 1727
DATA ascii
1.070293 7.664068 -0.677026
1.070662 7.666713 1.504720
1.073143 7.674700 -0.406127
1.079728 7.711948 1.797809
1.074636 7.665864 -0.135117
1.080554 7.698307 2.082976
0.790655 5.583371 -1.510986
1.092294 7.703764 0.135815
0.911284 6.419096 -1.496824
3.302869 23.236225 1.230000
1.068674 7.518296 -1.476099
2.080492 14.618292 1.291822
1.091286 7.658213 -1.225195
2.020196 14.159198 1.756137
1.122082 7.854671 -0.974224
1.110399 7.763236 1.242090
1.098240 7.678228 -0.678595
1.100203 7.682364 1.508536
1.098795 7.662999 -0.405708
1.106359 7.706203 1.797359
1.103667 7.677901 -0.135396
1.107146 7.692575 2.082458
0.810414 5.582489 -1.511503
1.119752 7.703862 0.135884
0.933407 6.413948 -1.496374
3.313123 22.738363 1.204250
1.092932 7.500920 -1.473427
2.089512 14.323098 1.266373
1.118584 7.658266 -1.225821
2.029110 13.875107 1.721770
1.149491 7.850707 -0.974224
1.137493 7.759313 1.242090
1.125037 7.674347 -0.678595
1.126730 7.676534 1.508154
1.127278 7.670973 -0.406336
1.133537 7.704223 1.797809
1.127840 7.656196 -0.135082
1.136527 7.705865 2.087117
0.827908 5.566250 -1.507880
1.147228 7.703863 0.135954
0.956363 6.414505 -1.497274
3.321691 22.252571 1.179129
1.119393 7.499002 -1.473809
2.097093 14.031964 1.241272
1.148231 7.673851 -1.228949
2.040171 13.618617 1.690815
1.179246 7.862351 -0.976174
1.166333 7.767015 1.243967
1.150933 7.664462 -0.678072
1.154390 7.678379 1.509299
1.156131 7.680817 -0.407069
1.161587 7.707926 1.799608
1.156940 7.668032 -0.135361
1.161689 7.690389 2.084011
0.846461 5.557597 -1.506327
1.171394 7.682020 0.135640
0.978456 6.409201 -1.496824
3.335982 21.826229 1.157148
1.145268 7.493107 -1.473427
2.109291 13.784286 1.220006
1.172620 7.654175 -1.226446
2.048877 13.358294 1.659373
1.207284 7.862111 -0.976661
1.194036 7.766802 1.244593
1.179192 7.670245 -0.678943
1.179096 7.660719 1.506628
1.180804 7.662917 -0.406336
1.190266 7.715381 1.802308
1.184312 7.667899 -0.135431
1.190300 7.697742 2.087117
0.866152 5.556518 -1.506845
1.199746 7.687763 0.135815
0.999320 6.396120 -1.494575
3.377577 21.593449 1.145425
1.171112 7.487125 -1.473045
2.153692 13.753218 1.217914
1.199945 7.653938 -1.227072
2.051168 13.068666 1.624275
1.235952 7.865694 -0.977636
1.224826 7.786003 1.248347
1.206271 7.668050 -0.679118
1.210715 7.687587 1.512734
1.208788 7.666640 -0.406755
1.215674 7.701554 1.800058
1.212005 7.669644 -0.135535
1.219271 7.706897 2.090740
0.885848 5.555367 -1.507362
1.228782 7.697351 0.136059
1.019486 6.379122 -1.491425
3.942653 24.642345 1.307876
1.195380 7.471359 -1.470756
2.207362 13.781027 1.221052
1.229781 7.669208 -1.230201
2.058706 12.824266 1.594782
1.262773 7.857412 -0.977149
1.252937 7.787531 1.249286
1.234294 7.671660 -0.679815
1.235359 7.669746 1.510062
1.236498 7.668289 -0.407069
1.241616 7.691493 1.798709
1.241962 7.685107 -0.135884
1.246785 7.706409 2.091776
0.903990 5.544615 -1.505292
1.256608 7.698935 0.136164
1.043003 6.383218 -1.493225
3.399286 20.780914 1.103556
1.220504 7.461328 -1.469611
3.261308 19.915651 1.765601
1.255903 7.660971 -1.229575
1.305541 7.955043 0.989823
1.288904 7.845120 -0.976174
1.279790 7.781161 1.248973
1.274968 7.751842 -0.687310
1.264678 7.680884 1.513115
1.264555 7.671809 -0.407488
1.268773 7.689034 1.799158
1.266501 7.666914 -0.135640
1.274936 7.709633 2.093846
0.922070 5.533803 -1.503221
1.285122 7.704364 0.136338
1.065277 6.379539 -1.493225
1.325429 7.928950 0.421304
1.245893 7.453150 -1.468848
1.330812 7.952619 0.705439
1.284920 7.670177 -1.231765
1.335927 7.966099 0.991773
1.318912 7.856235 -0.978123
1.307601 7.780542 1.249599
1.289804 7.674645 -0.680861
1.292131 7.680295 1.513879
1.294646 7.687043 -0.408534
1.298199 7.699931 1.802758
1.294918 7.672306 -0.135815
1.301521 7.703231 2.093328
0.941056 5.528646 -1.502703
1.317380 7.731372 0.136897
1.084919 6.360413 -1.489626
1.271900 7.448756 -1.468848
1.360241 7.957744 0.706310
1.310022 7.655910 -1.230201
2.081614 12.152415 1.513861
1.343642 7.835931 -0.976174
1.335396 7.787845 1.251476
1.315573 7.664206 -0.680338
1.318599 7.673803 1.513497
1.321470 7.682477 -0.408534
1.326721 7.704956 1.805007
1.322388 7.679794 -0.136024
1.327717 7.702680 2.094364
0.960679 5.527232 -1.503221
1.339243 7.705290 0.136513
1.104337 6.347181 -1.487376
1.382796 7.939421 0.422351
1.296543 7.436534 -1.467321
3.276832 18.775393 1.667464
1.334726 7.647632 -1.229575
2.086375 11.942076 1.488512
1.370301 7.835343 -0.976661
1.363256 7.787028 1.252102
1.345071 7.675266 -0.681732
1.346752 7.684858 1.516550
1.346247 7.674119 -0.408325
1.354962 7.715868 1.808606
1.350921 7.684978 -0.136199
1.356265 7.707512 2.096952
0.978329 5.520211 -1.502186
1.365435 7.696630 0.136443
1.126144 6.341368 -1.486926
4.364684 24.552849 1.306934
1.322573 7.439926 -1.468848
3.284270 18.456457 1.640097
1.365568 7.666263 -1.233329
2.092851 11.737340 1.463895
1.399739 7.842237 -0.978123
1.393906 7.801667 1.255230
1.371920 7.678609 -0.682429
1.375987 7.693638 1.519221
1.372676 7.667406 -0.408220
1.379827 7.699583 1.805907
1.379855 7.692026 -0.136408
1.383845 7.706533 2.097987
0.996219 5.509158 -1.500115
1.393716 7.699687 0.136583
1.147576 6.333564 -1.486027
4.438607 24.472609 1.303480
1.344332 7.412082 -1.464268
3.293159 18.139065 1.612904
1.393731 7.669224 -1.234581
2.100060 11.544424 1.440740
1.426395 7.833397 -0.977636
1.420062 7.790925 1.254292
1.399781 7.679655 -0.682952
1.403541 7.692651 1.519985
1.402305 7.678286 -0.409058
1.409143 7.708139 1.809057
1.404899 7.677326 -0.136233
1.412480 7.711157 2.100575
1.013688 5.496149 -1.497527
1.423128 7.708540 0.136827
1.169325 6.327603 -1.485577
4.504734 24.352880 1.297932
1.368764 7.399624 -1.462742
3.302042 17.833599 1.586757
1.422296 7.674023 -1.236145
2.107024 11.357459 1.418316
1.458078 7.851792 -0.980561
1.449417 7.797573 1.256169
1.440782 7.751116 -0.689751
1.428950 7.679984 1.518458
1.431657 7.687089 -0.409791
1.436757 7.707004 1.809956
1.433892 7.684170 -0.136443
1.438678 7.702382 2.099540
1.032511 5.490678 -1.497009
1.447809 7.691734 0.136617
1.191765 6.325398 -1.486027
4.592311 24.350744 1.298665
1.394223 7.392871 -1.462360
3.311058 17.540037 1.561657
1.448339 7.665130 -1.235520
2.111245 11.162786 1.394917
1.487694 7.858356 -0.982023
1.479200 7.806052 1.258359
1.453732 7.671653 -0.683127
1.456110 7.676879 1.518840
1.461090 7.695779 -0.410523
1.465832 7.713428 1.812656
1.463316 7.692870 -0.136687
1.467003 7.704904 2.101611
1.052763 5.492732 -1.498562
1.476528 7.696454 0.136792
1.211267 6.307803 -1.482877
4.676809 24.354996 1.299711
1.420393 7.389887 -1.462742
3.315037 17.230984 1.535161
1.473968 7.654207 -1.234581
2.113381 10.964325 1.371030
1.516615 7.860913 -0.982998
1.505450 7.803044 1.258672
1.481260 7.670444 -0.683475
1.484019 7.677532 1.519985
1.486422 7.682790 -0.410105
1.494232 7.715917 1.814455
1.489201 7.689938 -0.136722
1.494014 7.707582 2.103681
1.071189 5.485232 -1.497527
1.503578 7.699365 0.136932
1.229559 6.290364 -1.479728
4.741094 24.232676 1.294059
1.444669 7.377177 -1.461215
3.327648 16.976866 1.513547
1.503140 7.668663 -1.237710
2.115335 10.781940 1.349094
1.538086 7.832466 -0.980073
1.534586 7.807432 1.260236
1.509181 7.671091 -0.683998
1.512504 7.687979 1.523037
1.513051 7.683697 -0.410419
1.518679 7.705184 1.813105
1.518359 7.696464 -0.136932
1.523153 7.713693 2.106787
1.091254 5.491124 -1.500115
1.530837 7.696031 0.136966
1.252269 6.289856 -1.480628
4.740293 23.809391 1.272287
1.467589 7.364645 -1.459689
3.332488 16.707819 1.490538
1.530289 7.665306 -1.238023
2.124556 10.632389 1.331301
1.567755 7.838728 -0.981536
1.559695 7.798426 1.259610
1.537739 7.681673 -0.685393
1.541640 7.694203 1.525327
1.539472 7.676410 -0.410314
1.546718 7.705568 1.814455
1.544659 7.695308 -0.137001
1.547965 7.704811 2.105752
1.105435 5.462666 -1.493386
1.558727 7.702672 0.137176
1.273895 6.289488 -1.481528
4.746397 23.412952 1.251981
1.492508 7.355629 -1.458926
3.337650 16.434448 1.467180
1.558843 7.675677 -1.240525
2.126590 10.461879 1.310827
1.599280 7.860720 -0.984948
1.590059 7.808420 1.262113
1.565337 7.680163 -0.685741
1.569893 7.702515 1.527999
1.568511 7.688876 -0.411256
1.574214 7.709942 1.816705
1.572711 7.695747 -0.137106
1.575623 7.703146 2.106787
1.123716 5.454989 -1.492351
1.586139 7.692991 0.137106
1.295365 6.277143 -1.479728
4.761877 23.055061 1.233768
1.516585 7.342684 -1.457399
3.341751 16.165150 1.444171
1.586967 7.669911 -1.240525
2.134727 10.308226 1.292546
1.628888 7.858692 -0.985436
1.621077 7.814144 1.263991
1.592139 7.674652 -0.685741
1.597314 7.692864 1.527235
1.598309 7.690897 -0.411675
1.603650 7.709845 1.818055
1.601312 7.691889 -0.137141
1.604636 7.701102 2.107822
1.142752 5.451034 -1.492351
1.613806 7.691322 0.137176
1.315665 6.264954 -1.477928
4.773314 22.709932 1.216183
1.542208 7.337345 -1.457399
3.348943 15.919418 1.423253
1.616171 7.675924 -1.242403
2.141636 10.162798 1.275241
1.659586 7.868497 -0.987386
1.650790 7.820035 1.265868
1.620152 7.674897 -0.686264
1.623347 7.683399 1.526472
1.624317 7.681363 -0.411465
1.632165 7.711827 1.819854
1.632713 7.707771 -0.137525
1.633109 7.703013 2.109893
1.162177 5.448900 -1.492868
1.642313 7.693464 0.137316
1.336713 6.256512 -1.477029
4.810211 22.514284 1.206553
1.567402 7.329996 -1.457018
3.347365 15.640719 1.399373
1.645440 7.681825 -1.244280
2.175020 10.145555 1.274022
1.683709 7.847129 -0.985436
1.679198 7.826107 1.267745
1.647771 7.673090 -0.686613
1.654697 7.698799 1.530670
1.652799 7.683457 -0.411884
1.657846 7.700367 1.818504
1.657424 7.698405 -0.137455
1.662716 7.716439 2.115069
1.182008 5.448586 -1.493904
1.668242 7.689929 0.137350
1.357452 6.252045 -1.477029
5.295057 24.367100 1.306829
1.590892 7.314889 -1.455109
3.364654 15.457620 1.384033
1.672583 7.684046 -1.245531
2.210763 10.147985 1.275241
1.710569 7.845381 -0.985923
1.706508 7.820197 1.267745
1.680070 7.692596 -0.688879
1.681893 7.700943 1.532196
1.679977 7.685738 -0.412303
1.683371 7.694828 1.818504
1.685140 7.696480 -0.137525
1.690053 7.712477 2.115587
1.196326 5.427658 -1.489245
1.698954 7.701634 0.137665
1.376745 6.235851 -1.474329
5.378852 24.363056 1.307562
1.612174 7.296154 -1.452438
3.364703 15.214874 1.363290
1.700248 7.682019 -1.246157
2.251751 10.165401 1.278410
1.741384 7.854866 -0.987873
1.734144 7.822209 1.268997
1.699958 7.661697 -0.686613
1.708762 7.695025 1.532196
1.707664 7.683726 -0.412512
1.715723 7.713633 1.824353
1.711524 7.694752 -0.137595
1.715198 7.704944 2.115069
1.214844 5.421564 -1.488727
1.722296 7.686201 0.137490
1.397415 6.231252 -1.474329
5.466931 24.357771 1.308294
1.638064 7.292397 -1.452820
3.372334 15.000875 1.345162
1.727444 7.684048 -1.247409
3.303338 14.681959 1.847783
1.770037 7.860668 -0.989335
1.764472 7.829598 1.271187
1.731954 7.679039 -0.688705
1.735136 7.693146 1.532960
1.736212 7.691659 -0.413245
1.743006 7.715506 1.826153
1.740135 7.696533 -0.137734
1.742938 7.702678 2.116105
1.232818 5.417505 -1.488727
1.748670 7.678193 0.137455
1.416561 6.214936 -1.471630
5.556371 24.358011 1.309341
1.660057 7.277354 -1.450912
3.380380 14.807023 1.328776
1.757778 7.693377 -1.249912
3.310322 14.476823 1.823409
1.800120 7.866052 -0.990798
1.793999 7.833019 1.272751
1.781427 7.778127 -0.698117
1.761982 7.687042 1.532960
1.761708 7.679712 -0.412931
1.772110 7.718871 1.828402
1.769680 7.702106 -0.137944
1.771544 7.704078 2.118175
1.250847 5.409405 -1.487692
1.779971 7.691524 0.137804
1.436929 6.204257 -1.470280
5.646306 24.359875 1.310493
1.686331 7.275342 -1.451675
3.379824 14.569993 1.308556
1.785518 7.691042 -1.250537
3.317248 14.277623 1.799767
1.826670 7.855854 -0.990310
1.824466 7.840176 1.274941
1.788700 7.686477 -0.690448
1.791916 7.694231 1.535631
1.790320 7.681295 -0.413349
1.796389 7.701251 1.825703
1.798367 7.703671 -0.138083
1.801065 7.709134 2.121281
1.270165 5.406886 -1.488210
1.807719 7.689158 0.137874
1.459022 6.201100 -1.470730
5.736804 24.363344 1.311749
1.709468 7.259855 -1.449767
3.392265 14.395210 1.293914
1.815072 7.696299 -1.252414
3.322382 14.076619 1.775880
1.854995 7.853292 -0.990798
1.850003 7.826070 1.273690
1.814601 7.676309 -0.690099
1.821025 7.697481 1.537539
1.821266 7.692491 -0.414291
1.825954 7.706311 1.828402
1.824788 7.695401 -0.138049
1.831535 7.717838 2.125422
1.284097 5.381749 -1.482516
1.838266 7.698360 0.138153
1.482020 6.201656 -1.472080
5.827382 24.366480 1.313005
1.731145 7.238569 -1.446714
3.412816 14.259270 1.282758
1.847450 7.712968 -1.256169
3.332163 13.900853 1.755162
1.883318 7.850633 -0.991285
1.880079 7.831089 1.275567
1.844178 7.681552 -0.691145
1.850633 7.702532 1.539829
1.850903 7.697740 -0.414919
1.855581 7.711257 1.831102
1.853982 7.698705 -0.138223
1.858458 7.711399 2.125422
1.301967 5.373479 -1.481480
1.863715 7.686067 0.138049
1.502279 6.190764 -1.470730
5.919949 24.377043 1.314679
1.756403 7.232482 -1.446714
3.476689 14.305350 1.287988
1.874361 7.706473 -1.256169
3.337008 13.709760 1.732495
1.913531 7.855582 -0.992748
1.911144 7.839832 1.278070
1.874282 7.688618 -0.692365
1.876580 7.692209 1.539065
1.878237 7.693171 -0.415024
1.885723 7.717985 1.834251
1.880842 7.692187 -0.138223
1.884449 7.701110 2.124387
1.322102 5.374529 -1.483033
1.892444 7.687281 0.138188
1.518751 6.164669 -1.465781
6.009792 24.375620 1.315726
1.780231 7.220588 -1.445569
4.733156 19.183239 1.728647
1.903142 7.707554 -1.257420
3.341513 13.522657 1.710315
1.941892 7.852709 -0.993235
1.942294 7.848454 1.280573
1.903022 7.689764 -0.693062
1.903893 7.687518 1.539447
1.905078 7.686568 -0.415024
1.914996 7.720813 1.836500
1.910574 7.697219 -0.138432
1.916906 7.716985 2.130599
1.341321 5.371756 -1.483551
1.923146 7.696148 0.138467
1.540734 6.161220 -1.466231
6.040680 24.155987 1.304945
1.805900 7.216235 -1.445951
3.453531 13.789824 1.243712
1.933879 7.716193 -1.259923
3.343781 13.331845 1.687647
1.966394 7.834331 -0.991773
1.972159 7.857298 1.283076
1.932281 7.692736 -0.693934
1.934065 7.694153 1.542118
1.932387 7.681808 -0.415129
1.940986 7.710302 1.835601
1.939992 7.706355 -0.138712
1.948151 7.733065 2.136810
1.360063 5.367041 -1.483551
1.951603 7.701360 0.138677
1.559240 6.148521 -1.464431
6.047334 23.828884 1.288407
1.828177 7.198470 -1.443661
3.456983 13.601963 1.227850
1.963347 7.725054 -1.262426
3.346868 13.159081 1.667173
1.998237 7.850852 -0.994698
1.998113 7.844622 1.282137
1.961581 7.695599 -0.694806
1.960537 7.691502 1.542882
1.963279 7.696646 -0.416280
1.968955 7.713263 1.837850
1.966384 7.697598 -0.138677
1.977045 7.733704 2.138880
1.373528 5.345662 -1.478892
1.979468 7.698374 0.138747
1.580694 6.143041 -1.464431
6.057766 23.525240 1.273125
1.848123 7.177158 -1.440608
3.458813 13.422571 1.212685
1.991783 7.723891 -1.263365
3.350623 12.983937 1.646455
2.025628 7.843829 -0.994698
2.027459 7.845250 1.283388
1.988434 7.688704 -0.694806
1.990325 7.696016 1.545171
1.988631 7.683946 -0.415966
1.997332 7.712003 1.839200
1.994247 7.694559 -0.138747
2.002576 7.721146 2.137328
1.395548 5.349938 -1.481480
2.005826 7.689482 0.138712
1.602127 6.137486 -1.464431
6.105517 23.372549 1.266007
1.874415 7.170336 -1.440608
3.475718 13.286441 1.201529
2.025580 7.737561 -1.266806
3.358218 12.828135 1.628175
2.058028 7.855913 -0.997135
2.057335 7.847680 1.284953
2.013742 7.675935 -0.694283
2.021010 7.698165 1.547079
2.020338 7.690126 -0.416699
2.029051 7.717824 1.842349
2.025668 7.704957 -0.139061
2.031480 7.721582 2.139398
1.414216 5.345034 -1.481480
2.037576 7.695611 0.138956
1.620120 6.114618 -1.460382
6.459210 24.378193 1.321692
1.897925 7.158056 -1.439463
3.497546 13.181793 1.193162
2.050551 7.722805 -1.265555
3.367493 12.673769 1.610138
2.088846 7.855991 -0.998110
2.087760 7.851906 1.286830
2.045137 7.686187 -0.695851
2.047366 7.689165 1.546698
2.046650 7.681098 -0.416594
2.059495 7.723875 1.845498
2.054614 7.705567 -0.139200
2.061909 7.727509 2.143022
1.431862 5.336334 -1.480445
2.067751 7.706193 0.139270
1.638366 6.101685 -1.458583
6.548408 24.370930 1.322530
1.922389 7.149492 -1.439082
4.761133 17.694656 1.603143
2.080254 7.731223 -1.268058
3.368216 12.509185 1.590639
2.112823 7.841354 -0.997135
2.118243 7.856012 1.288707
2.075070 7.690542 -0.696897
2.074901 7.689914 1.548224
2.075236 7.685838 -0.417222
2.084079 7.713241 1.844599
2.085677 7.713791 -0.139480
2.089878 7.723995 2.144057
1.450056 5.333420 -1.480963
2.097790 7.710506 0.139480
1.658630 6.092168 -1.457683
6.640258 24.372976 1.323890
1.941956 7.127924 -1.436029
4.765287 17.478857 1.585014
2.109826 7.733444 -1.269622
3.373164 12.355642 1.572602
2.148554 7.864570 -1.001035
2.145134 7.846664 1.288394
2.098459 7.675932 -0.696200
2.105352 7.695882 1.550896
2.105218 7.690105 -0.417850
2.115112 7.720953 1.848198
2.109941 7.696823 -0.139305
2.120407 7.729693 2.147681
1.465586 5.317152 -1.477857
2.127877 7.714704 0.139689
1.679887 6.086341 -1.457683
6.732746 24.376600 1.325356
1.966305 7.119210 -1.435647
4.769997 17.258558 1.566537
2.139443 7.735551 -1.271187
3.380271 12.213696 1.556028
2.180226 7.872328 -1.002985
2.175147 7.848648 1.289959
2.127899 7.678161 -0.697072
2.134828 7.697945 1.552804
2.135248 7.694258 -0.418478
2.143613 7.719157 1.849548
2.138939 7.697116 -0.139445
2.147895 7.724105 2.148198
1.482057 5.304561 -1.475786
2.153718 7.703376 0.139619
1.702173 6.084193 -1.458583
6.823174 24.372185 1.326403
1.990613 7.110413 -1.435265
4.780769 17.065296 1.550501
2.164301 7.720427 -1.269935
3.385350 12.068030 1.538966
2.208767 7.868491 -1.003472
2.206272 7.854319 1.292149
2.157922 7.682194 -0.698117
2.160622 7.686667 1.552041
2.164258 7.694448 -0.418897
2.171603 7.715379 1.850447
2.167961 7.697303 -0.139584
2.177459 7.725859 2.150786
1.502145 5.304931 -1.477339
2.181688 7.699659 0.139689
1.720739 6.068841 -1.456333
6.917481 24.380878 1.328182
2.015423 7.103420 -1.435265
4.782633 16.845339 1.532024
2.193392 7.720428 -1.271187
3.384574 11.905294 1.519711
2.239481 7.872189 -1.004935
2.236915 7.857971 1.294026
2.186902 7.682281 -0.698815
2.187443 7.679078 1.552041
2.191653 7.688766 -0.419002
2.202258 7.720871 1.853597
2.201953 7.714686 -0.140038
2.209721 7.736785 2.155963
1.519586 5.295942 -1.476304
2.214068 7.711218 0.140038
1.738147 6.049686 -1.453184
7.006966 24.371939 1.329019
2.038038 7.088793 -1.433739
4.787418 16.640900 1.514941
2.223608 7.724114 -1.273064
3.389847 11.767510 1.503624
2.268595 7.870047 -1.005666
2.265427 7.853909 1.294652
2.217020 7.686087 -0.699861
2.220769 7.694029 1.556620
2.220140 7.686826 -0.419316
2.229197 7.713136 1.853597
2.229982 7.710794 -0.140108
2.239935 7.740160 2.159068
1.537523 5.288751 -1.475786
2.242650 7.709202 0.140143
1.761976 6.052938 -1.455433
7.097007 24.364595 1.329961
2.057275 7.062788 -1.429923
4.797533 16.459585 1.499950
2.253321 7.725787 -1.274628
3.394745 11.631744 1.487781
2.299393 7.873511 -1.007128
2.291723 7.842161 1.294026
2.248309 7.693599 -0.701255
2.252571 7.703191 1.560054
2.252008 7.696281 -0.420258
2.258300 7.712788 1.855396
2.256883 7.702963 -0.140108
2.269659 7.741563 2.161657
1.551983 5.266402 -1.471128
2.274848 7.714357 0.140387
1.780290 6.033355 -1.452284
7.193324 24.377983 1.332055
2.085373 7.062732 -1.431449
4.797984 16.239355 1.481473
2.284425 7.726947 -1.276192
3.400191 11.493589 1.471694
2.327671 7.863128 -1.006885
2.321325 7.841691 1.295278
2.274227 7.677666 -0.700558
2.284135 7.706177 1.562344
2.284743 7.703294 -0.421095
2.288215 7.710064 1.856746
2.283756 7.695039 -0.140108
2.296670 7.733592 2.161657
1.569251 5.257250 -1.470092
2.297555 7.697190 0.140213
1.801962 6.033020 -1.453634
7.289237 24.389086 1.334044
2.107203 7.046004 -1.429541
4.802094 16.046900 1.465437
2.309471 7.717436 -1.275880
3.403548 11.366250 1.456826
2.360572 7.878184 -1.009809
2.354358 7.852462 1.298406
2.303874 7.679223 -0.701429
2.306854 7.689158 1.560436
2.313149 7.705240 -0.421619
2.318257 7.717364 1.860345
2.316357 7.706171 -0.140457
2.328658 7.742179 2.166316
1.588354 5.257565 -1.471645
2.327305 7.698694 0.140387
1.819060 6.013637 -1.450484
7.381276 24.386429 1.335300
2.129987 7.037099 -1.429159
4.806766 15.870713 1.450794
2.339259 7.718780 -1.277444
3.406337 11.232720 1.441227
2.388056 7.869896 -1.009809
2.386343 7.859317 1.300909
2.334538 7.688699 -0.702998
2.339390 7.699842 1.564252
2.338868 7.693296 -0.421409
2.348583 7.720411 1.863045
2.344409 7.701863 -0.140527
2.359045 7.745091 2.169421
1.608391 5.257531 -1.473198
2.357089 7.700085 0.140562
1.838900 6.003523 -1.449585
7.466362 24.360514 1.335300
2.154540 7.029621 -1.429159
4.813061 15.693833 1.436152
2.370826 7.725675 -1.279947
3.408236 11.099313 1.425628
2.413179 7.853924 -1.008835
2.412024 7.845274 1.299971
2.364878 7.691929 -0.704044
2.372028 7.710394 1.568068
2.367470 7.690813 -0.421723
2.376667 7.715890 1.863944
2.375404 7.707009 -0.140771
2.391188 7.753425 2.174080
1.623305 5.240812 -1.470092
2.386915 7.701359 0.140736
1.859264 5.995207 -1.449135
7.553003 24.354702 1.336346
2.174408 7.007057 -1.426107
4.815825 15.509491 1.420813
2.404222 7.738104 -1.283388
3.412776 10.977404 1.411491
2.446478 7.864406 -1.011272
2.439785 7.842891 1.300909
2.396449 7.698847 -0.705439
2.401262 7.709566 1.569595
2.398463 7.695849 -0.422456
2.405905 7.714989 1.865744
2.399162 7.693364 -0.140666
2.414587 7.738075 2.172009
1.639856 5.229583 -1.468539
2.416033 7.704849 0.140946
1.878553 5.987150 -1.448685
7.561400 24.084276 1.322948
2.196502 6.991931 -1.424580
4.822134 15.340533 1.406868
2.431056 7.733857 -1.284014
3.415803 10.859983 1.397841
2.474930 7.863824 -1.012247
2.467145 7.834328 1.300909
2.422109 7.686634 -0.705090
2.429763 7.710923 1.571503
2.426975 7.697377 -0.422979
2.434993 7.718120 1.868443
2.429010 7.694478 -0.140841
2.442167 7.731441 2.172527
1.652515 5.209385 -1.464398
2.444118 7.700182 0.141015
1.898852 5.978697 -1.448235
7.754313 24.400352 1.341789
2.219675 6.984610 -1.424580
4.824674 15.172562 1.392923
2.458638 7.727205 -1.284327
3.422378 10.749632 1.385167
2.505975 7.866487 -1.013709
2.500479 7.844489 1.304038
2.451218 7.689949 -0.706136
2.456069 7.700523 1.571121
2.458682 7.704082 -0.423817
2.466663 7.724424 1.872043
2.458899 7.695475 -0.141015
2.471488 7.730232 2.174598
1.676003 5.220140 -1.469057
2.472207 7.695411 0.141085
1.916730 5.962757 -1.445985
7.860227 24.437784 1.345348
2.243440 6.974950 -1.424198
4.830000 15.007693 1.379327
2.488626 7.727977 -1.285891
3.426394 10.633703 1.371761
2.535857 7.865248 -1.014684
2.533306 7.852631 1.306854
2.479884 7.687034 -0.706659
2.484139 7.695640 1.571885
2.482492 7.685948 -0.423293
2.498408 7.730600 1.875642
2.493743 7.711580 -0.141469
2.504405 7.739936 2.179774
1.694813 5.216095 -1.469575
2.500907 7.692440 0.141190
1.934514 5.946764 -1.443736
7.976399 24.505157 1.350582
2.267775 6.967076 -1.424198
4.836703 14.850553 1.366428
2.517417 7.724880 -1.286830
3.428416 10.514101 1.357868
2.562067 7.852573 -1.014197
2.563761 7.853131 1.308418
2.511642 7.693484 -0.708053
2.515866 7.701851 1.574938
2.514892 7.694321 -0.424235
2.524766 7.719982 1.875192
2.519405 7.699027 -0.141399
2.535016 7.742162 2.182880
1.713610 5.211983 -1.470092
2.535244 7.706457 0.141609
1.955262 5.939975 -1.443736
8.098110 24.587194 1.356653
2.287163 6.944202 -1.421145
4.846103 14.704905 1.354575
2.550555 7.734805 -1.289959
3.433373 10.405930 1.345438
2.595683 7.862432 -1.016634
2.590541 7.842258 1.308105
2.542859 7.697912 -0.709273
2.545201 7.700478 1.576464
2.545496 7.696874 -0.424863
2.554150 7.718521 1.876992
2.550037 7.701575 -0.141609
2.565670 7.744270 2.185986
1.729355 5.198637 -1.468022
2.565920 7.708944 0.141818
1.977214 5.936812 -1.444636
8.243979 24.753489 1.367329
2.309528 6.930587 -1.420001
4.902449 14.703018 1.355969
2.580663 7.735225 -1.291523
3.456473 10.354339 1.340319
2.625631 7.860855 -1.017609
2.622167 7.850486 1.310921
2.571607 7.694658 -0.709796
2.575796 7.702720 1.578754
2.576786 7.701199 -0.425596
2.583550 7.716951 1.878791
2.580636 7.708249 -0.141888
2.594403 7.744879 2.188574
1.745028 5.185245 -1.465951
2.591469 7.700393 0.141818
1.995027 5.924682 -1.443286
8.400489 24.932756 1.378843
2.333708 6.922483 -1.420001
6.061787 17.970728 1.659271
2.608196 7.732238 -1.292462
3.494603 10.354105 1.341781
2.649141 7.844582 -1.016634
2.652715 7.850643 1.312485
2.602282 7.696959 -0.710842
2.602585 7.697855 1.579517
2.604868 7.700180 -0.426015
2.612877 7.719415 1.881491
2.609454 7.704875 -0.141993
2.620804 7.733946 2.188056
1.769059 5.199547 -1.471645
2.623486 7.706445 0.142097
2.008154 5.895546 -1.437887
8.539021 25.054518 1.387217
2.357920 6.918422 -1.420764
6.059608 17.769495 1.642537
2.638996 7.734304 -1.294339
3.529444 10.338085 1.341294
2.684207 7.857830 -1.019559
2.685211 7.856289 1.314988
2.631012 7.697714 -0.711714
2.630712 7.692438 1.580280
2.633023 7.694820 -0.426224
2.642330 7.717623 1.883290
2.640224 7.707069 -0.142202
2.656553 7.750335 2.195303
1.787197 5.193341 -1.471645
2.655581 7.712366 0.142377
2.027451 5.884816 -1.436987
8.660266 25.122747 1.392660
2.376935 6.895301 -1.417711
6.063136 17.578718 1.626849
2.667269 7.728780 -1.294965
4.784245 13.855167 1.799767
2.712918 7.852165 -1.020047
2.716493 7.858069 1.316865
2.663075 7.703547 -0.713108
2.667172 7.711040 1.586004
2.660522 7.687470 -0.426329
2.673082 7.719401 1.885990
2.672346 7.712922 -0.142481
2.684225 7.742839 2.195821
1.811663 5.205316 -1.476822
2.687746 7.718158 0.142656
2.049905 5.883223 -1.438337
8.789983 25.213064 1.399359
2.395172 6.870278 -1.414276
6.071959 17.406950 1.612904
2.700739 7.738073 -1.298093
3.492885 10.002094 1.300833
2.740309 7.842648 -1.020047
2.741298 7.841082 1.315614
2.693236 7.703609 -0.713980
2.692775 7.697977 1.585241
2.694600 7.698871 -0.427480
2.703230 7.719219 1.888239
2.696610 7.695998 -0.142342
2.718269 7.753476 2.201515
1.827897 5.193494 -1.475269
2.716001 7.712501 0.142726
2.068488 5.870518 -1.436987
8.868636 25.155859 1.397894
2.417179 6.856321 -1.413131
6.070387 17.209028 1.596519
2.731680 7.739774 -1.299971
3.496708 9.901866 1.289378
2.778251 7.862980 -1.023946
2.773262 7.844501 1.317804
2.720776 7.696038 -0.714154
2.729448 7.716294 1.590966
2.726120 7.702599 -0.428213
2.734063 7.720757 1.890939
2.728795 7.701618 -0.142621
2.745961 7.745761 2.202033
1.849254 5.196181 -1.477857
2.745588 7.710509 0.142865
2.087658 5.859591 -1.436087
8.878606 24.906517 1.385752
2.441099 6.847841 -1.413131
6.075532 17.033855 1.582225
2.758679 7.730192 -1.299971
3.495207 9.788647 1.276216
2.808355 7.860712 -1.024921
2.807940 7.855235 1.321246
2.748963 7.690247 -0.714503
2.753062 7.697475 1.589057
2.758376 7.708079 -0.429050
2.763623 7.718506 1.892738
2.760385 7.705225 -0.142865
2.775592 7.743403 2.204103
1.869345 5.195148 -1.479410
2.775871 7.710285 0.143040
2.102817 5.837600 -1.432488
8.865272 24.597284 1.370260
2.462327 6.831890 -1.411605
6.086287 16.877600 1.569675
2.788329 7.727948 -1.301222
3.498350 9.690496 1.265004
2.842515 7.869533 -1.027359
2.836688 7.849100 1.321871
2.781887 7.697467 -0.716072
2.785926 7.704435 1.592492
2.785260 7.698405 -0.429050
2.797184 7.727135 1.897237
2.791352 7.706821 -0.143075
2.805890 7.742749 2.206691
1.890769 5.197668 -1.481998
2.805506 7.708065 0.143180
2.124511 5.833887 -1.433388
8.897567 24.432638 1.362724
2.484142 6.817720 -1.410460
6.091940 16.710243 1.556079
2.822059 7.736724 -1.304351
3.500166 9.590581 1.253548
2.869970 7.859562 -1.027359
2.866765 7.850784 1.323749
2.814211 7.702681 -0.717466
2.818192 7.709414 1.595545
2.814862 7.696138 -0.429469
2.824812 7.719153 1.897687
2.825830 7.721934 -0.143529
2.836866 7.747915 2.210832
1.912236 5.200102 -1.484586
2.838645 7.719363 0.143564
2.143174 5.824981 -1.432938
9.246376 25.117409 1.402709
2.498427 6.783215 -1.405118
6.092357 16.531841 1.541436
2.853158 7.742153 -1.306854
3.507912 9.513735 1.245017
2.900142 7.861175 -1.028821
2.892098 7.835170 1.322810
2.841767 7.694681 -0.717640
2.850543 7.718444 1.599361
2.849370 7.711115 -0.430830
2.853771 7.718882 1.899937
2.851374 7.708274 -0.143459
2.870601 7.756082 2.216009
1.930141 5.195543 -1.485104
2.871839 7.726280 0.143878
2.164854 5.821116 -1.433838
9.254601 24.871584 1.390776
2.522275 6.778574 -1.405881
6.097093 16.377113 1.528886
2.885685 7.746956 -1.309357
3.525851 9.460508 1.239655
2.935882 7.873325 -1.031746
2.924956 7.839832 1.325313
2.870752 7.694548 -0.718512
2.881589 7.719481 1.601651
2.881155 7.714221 -0.431562
2.886153 7.723479 1.903536
2.880366 7.703893 -0.143564
2.896299 7.742397 2.214973
1.948943 5.190583 -1.485621
2.898089 7.714335 0.143843
2.183105 5.808051 -1.432488
9.264022 24.633493 1.379262
2.542465 6.760540 -1.403973
6.102304 16.217735 1.515987
2.915495 7.744230 -1.310608
3.553253 9.433282 1.237705
2.967550 7.874174 -1.033208
2.956488 7.840664 1.327190
2.900407 7.691937 -0.719209
2.909209 7.711214 1.602033
2.913710 7.719065 -0.432400
2.918606 7.727941 1.907135
2.911480 7.705015 -0.143773
2.927408 7.743082 2.218079
1.971849 5.196391 -1.489245
2.929971 7.717257 0.144087
2.197133 5.784001 -1.428439
9.263391 24.373230 1.366492
2.566747 6.753458 -1.404354
6.103644 16.051077 1.502391
2.939695 7.726623 -1.309357
4.818509 12.658185 1.663029
2.995020 7.863766 -1.033208
2.990165 7.846912 1.330006
2.935038 7.702248 -0.721127
2.941706 7.715686 1.605085
2.937792 7.701382 -0.431981
2.951816 7.734093 1.911184
2.944780 7.711619 -0.144087
2.955800 7.736424 2.219115
1.992741 5.196692 -1.491315
2.961903 7.720052 0.144331
2.216613 5.774477 -1.427989
9.268208 24.131929 1.354769
2.591712 6.748124 -1.405118
6.109606 15.899487 1.490189
2.971612 7.729219 -1.311547
4.824183 12.541239 1.649867
3.025302 7.860675 -1.034183
3.019669 7.841955 1.330945
2.966204 7.703110 -0.722172
2.970740 7.710866 1.606230
2.966810 7.696672 -0.432295
2.981598 7.731015 1.912984
2.978881 7.719947 -0.144436
2.988352 7.740478 2.223256
2.015754 5.202314 -1.494939
2.989558 7.711530 0.144366
2.236050 5.764887 -1.427539
9.268562 23.883444 1.342627
2.605306 6.713413 -1.399775
6.114593 15.748052 1.477987
3.003579 7.731689 -1.313737
4.826217 12.417008 1.635731
3.055602 7.857466 -1.035158
3.044873 7.825845 1.330006
2.995963 7.700137 -0.722870
3.006895 7.724234 1.611191
3.002359 7.708601 -0.433551
3.012814 7.731454 1.915683
3.004357 7.705776 -0.144366
3.023078 7.749796 2.228950
2.032494 5.191648 -1.493904
3.022291 7.715944 0.144646
2.256161 5.757046 -1.427539
9.273141 23.650124 1.331322
2.632310 6.713416 -1.401683
6.111313 15.578230 1.464042
3.040656 7.746901 -1.318117
4.832522 12.305854 1.623300
3.085914 7.854144 -1.036133
3.081569 7.839067 1.334073
3.030114 7.708174 -0.724613
3.038868 7.726480 1.613863
3.032172 7.705509 -0.433970
3.044065 7.731771 1.918383
3.035632 7.706406 -0.144576
3.051526 7.742791 2.229985
2.055576 5.197097 -1.497527
3.049940 7.707206 0.144680
2.274810 5.745512 -1.426640
9.277999 23.433538 1.320855
2.652834 6.696886 -1.400156
6.118676 15.438258 1.452886
3.066953 7.734403 -1.317804
4.836648 12.191116 1.610382
3.120637 7.861774 -1.038571
3.107550 7.828805 1.334073
3.060681 7.706808 -0.725484
3.064368 7.712177 1.613099
3.064956 7.709725 -0.434807
3.076079 7.733772 1.921532
3.069303 7.716736 -0.144960
3.081469 7.743400 2.233091
2.072990 5.188096 -1.497009
3.080678 7.710049 0.144925
2.290232 5.728890 -1.424390
9.282597 23.208151 1.309969
2.675467 6.685761 -1.399775
6.120687 15.287334 1.440684
3.096988 7.735194 -1.319681
4.832761 12.064445 1.595757
3.146688 7.851383 -1.038571
3.140738 7.832578 1.336576
3.092014 7.707172 -0.726530
3.096507 7.718370 1.616534
3.093480 7.706933 -0.435226
3.103159 7.727146 1.922432
3.096964 7.707831 -0.144995
3.112806 7.743350 2.236197
2.095243 5.193733 -1.500633
3.111313 7.708519 0.145099
2.307296 5.713633 -1.422590
9.279761 22.968201 1.298246
2.694683 6.669571 -1.398248
6.122064 15.145040 1.429180
3.131375 7.742649 -1.322810
4.841341 11.964694 1.584789
3.178547 7.851390 -1.040033
3.173991 7.836215 1.339079
3.124285 7.713496 -0.728099
3.133018 7.731168 1.621495
3.124117 7.705342 -0.435749
3.133774 7.725296 1.924681
3.128365 7.708090 -0.145204
3.145633 7.746756 2.240338
2.119188 5.200701 -1.504774
3.144243 7.712425 0.145379
2.328700 5.709152 -1.423490
9.272325 22.721169 1.286104
2.714976 6.652855 -1.396722
6.134227 15.023969 1.419767
3.160626 7.737156 -1.323749
3.664179 8.965387 1.189201
3.205933 7.840249 -1.040033
3.198335 7.817773 1.337828
3.159492 7.722828 -0.730016
3.157749 7.714736 1.620350
3.159319 7.714721 -0.436901
3.165895 7.726933 1.927831
3.159801 7.708226 -0.145413
3.178518 7.750029 2.244479
2.136595 5.191485 -1.504256
3.177238 7.716195 0.145658
2.349355 5.702791 -1.423940
9.282198 22.531475 1.277102
2.735940 6.637891 -1.395577
6.159293 14.936154 1.413492
3.193640 7.740686 -1.326252
4.846733 11.741609 1.559684
3.242376 7.851026 -1.042958
3.231785 7.825382 1.340956
3.186429 7.711753 -0.730016
3.193662 7.725439 1.624930
3.189285 7.711028 -0.437319
3.198807 7.730240 1.931430
3.188402 7.705096 -0.145553
3.201242 7.732306 2.242408
2.153223 5.180427 -1.503221
3.205109 7.711156 0.145763
2.366008 5.689571 -1.422590
9.287146 22.321909 1.267054
2.756832 6.622862 -1.394432
6.222106 14.940316 1.415932
3.222327 7.737347 -1.327503
4.849761 11.639348 1.548228
3.271446 7.847560 -1.043933
3.260596 7.817702 1.341582
3.215632 7.706099 -0.730539
3.222289 7.722051 1.626456
3.220223 7.713312 -0.438052
3.230431 7.733976 1.935029
3.219907 7.704989 -0.145763
3.234177 7.735342 2.246549
2.175618 5.185730 -1.506845
3.237423 7.712829 0.146007
2.385855 5.681278 -1.422590
9.290743 22.112583 1.257005
2.778781 6.613683 -1.394432
7.511583 17.869356 1.695876
3.254679 7.738798 -1.329693
4.853409 11.534522 1.536529
3.306520 7.854389 -1.046370
3.294001 7.820835 1.344085
3.249674 7.715591 -0.732457
3.253038 7.719801 1.628364
3.249454 7.707546 -0.438366
3.263469 7.737016 1.938628
3.256892 7.717653 -0.146216
3.270175 7.745363 2.252761
2.195968 5.183439 -1.508397
3.272132 7.719893 0.146356
2.401866 5.663944 -1.420341
9.289850 21.896162 1.246538
2.800312 6.600330 -1.393669
7.511639 17.696304 1.681931
3.287076 7.740118 -1.331883
4.852492 11.420681 1.523611
3.340131 7.857414 -1.048320
3.325922 7.820195 1.345962
3.280488 7.713367 -0.733328
3.288416 7.728273 1.632562
3.280252 7.705344 -0.438889
3.290458 7.725576 1.938628
3.287726 7.715438 -0.146391
3.304011 7.749893 2.257420
2.215569 5.179295 -1.509433
3.306135 7.724971 0.146670
2.423158 5.659108 -1.421241
9.288517 21.692648 1.236699
2.817152 6.576077 -1.390616
7.523128 17.552778 1.670776
3.323418 7.750381 -1.335638
4.857112 11.321579 1.512642
3.365972 7.842060 -1.047833
3.351835 7.809124 1.345962
3.312108 7.712854 -0.734374
3.321575 7.731177 1.635615
3.315803 7.714031 -0.440041
3.322023 7.724785 1.941328
3.312506 7.702655 -0.146356
3.334272 7.749543 2.260525
2.235932 5.176850 -1.510986
3.337286 7.726815 0.146914
2.438045 5.642097 -1.418991
9.292856 21.495094 1.227278
2.835411 6.555393 -1.388326
7.525795 17.391102 1.657876
3.354591 7.752009 -1.337828
4.855986 11.216145 1.500699
3.403003 7.856357 -1.051245
3.382214 7.804627 1.347214
3.339805 7.703073 -0.734549
3.355005 7.738130 1.639431
3.346133 7.713987 -0.440669
3.356153 7.733392 1.946277
3.348932 7.713056 -0.146775
3.367459 7.752032 2.264667
2.256176 5.176490 -1.513056
3.368236 7.724283 0.147089
2.457726 5.633552 -1.418991
9.295920 21.297783 1.217858
2.859492 6.551352 -1.389471
7.522832 17.227280 1.644629
3.379260 7.734821 -1.336889
4.863304 11.126369 1.490950
3.441543 7.869892 -1.054657
3.417356 7.810870 1.350342
3.368524 7.699257 -0.735246
3.384356 7.731769 1.640576
3.379451 7.716897 -0.441506
3.389386 7.735908 1.949876
3.381453 7.714140 -0.147019
3.396828 7.745538 2.266220
2.277342 5.175656 -1.515127
3.399205 7.721631 0.147263
2.471877 5.612455 -1.415842
9.296111 21.097059 1.208228
2.880758 6.537737 -1.388708
7.529881 17.080589 1.633124
3.414209 7.741053 -1.340018
4.860438 11.014888 1.478275
3.473805 7.868726 -1.056120
3.448589 7.807929 1.351907
3.405843 7.711147 -0.737512
3.414497 7.727092 1.642102
3.407984 7.708705 -0.441716
3.421885 7.736506 1.953025
3.416451 7.720576 -0.147368
3.428539 7.744231 2.269325
2.304020 5.187097 -1.520821
3.433449 7.726163 0.147578
2.493038 5.607353 -1.416742
3.559396 8.002058 0.458986
2.905954 6.533024 -1.389853
7.537611 16.937704 1.621968
3.447639 7.743524 -1.342521
4.864123 10.919883 1.467795
3.504482 7.863807 -1.057095
3.481456 7.808472 1.354097
3.435174 7.704669 -0.738035
3.452648 7.740227 1.647445
3.442196 7.713177 -0.442658
3.448077 7.722734 1.952575
3.449906 7.723208 -0.147647
3.460278 7.742799 2.272431
2.325275 5.186073 -1.522891
3.466125 7.726903 0.147822
2.509403 5.591506 -1.414942
3.588944 7.993228 0.459196
2.919897 6.503139 -1.385655
7.537903 16.780436 1.609418
3.480315 7.744055 -1.344711
4.870465 10.832226 1.458289
3.535166 7.858767 -1.058070
3.507068 7.792670 1.353471
3.473494 7.718068 -0.740475
3.487704 7.746030 1.651261
3.474023 7.712040 -0.443286
3.482218 7.726642 1.956624
3.478486 7.714766 -0.147717
3.498408 7.755326 2.279678
2.342569 5.176165 -1.522374
3.497198 7.723866 0.147996
2.530515 5.586262 -1.415842
3.618730 7.988560 0.459614
2.940150 6.487541 -1.384510
7.535544 16.619743 1.596519
3.522016 7.764239 -1.350342
4.870514 10.732006 1.447077
3.569413 7.865077 -1.060507
3.537788 7.791790 1.355348
3.494648 7.693197 -0.739255
3.521221 7.748106 1.654314
3.508357 7.716233 -0.444228
3.515886 7.732792 1.961123
3.506536 7.708648 -0.147822
3.522504 7.740167 2.278643
2.367743 5.185941 -1.527550
3.522794 7.712226 0.147996
2.547405 5.574295 -1.414942
3.653501 7.994681 0.460661
2.961646 6.477757 -1.384510
3.869485 8.459490 0.813860
3.540344 7.736352 -1.347527
3.872303 8.457845 1.142160
3.602084 7.867637 -1.062457
3.566078 7.785401 1.356287
3.535079 7.714170 -0.742393
3.549353 7.741739 1.655459
3.539756 7.717263 -0.444960
3.548011 7.735259 1.964723
3.539585 7.713336 -0.148136
3.549766 7.731954 2.279678
2.392200 5.193854 -1.532209
3.555043 7.715031 0.148276
2.560982 5.555198 -1.412243
3.798492 8.235792 0.475315
2.983109 6.467900 -1.384510
3.886662 8.423095 0.811594
3.562670 7.717393 -1.346275
3.717216 8.048479 1.088537
3.634520 7.865828 -1.063919
3.599865 7.787250 1.358790
3.570350 7.719865 -0.744136
3.579125 7.738837 1.657367
3.567842 7.710920 -0.445274
3.581542 7.736974 1.968322
3.579095 7.728151 -0.148660
3.586474 7.740551 2.285890
2.413665 5.190305 -1.533762
3.590386 7.720706 0.148625
2.577066 5.539159 -1.410443
3.768223 8.095731 0.467988
3.003482 6.449803 -1.382984
3.729036 8.004247 0.772548
3.590095 7.702495 -1.345962
3.726837 7.995872 1.083175
3.660278 7.849494 -1.063432
3.632867 7.787171 1.360980
3.603172 7.719993 -0.745356
3.616600 7.745236 1.661565
3.599468 7.705028 -0.445693
3.613174 7.730858 1.970121
3.615361 7.735538 -0.149044
3.623293 7.748984 2.292101
2.437512 5.194091 -1.537385
3.625457 7.721977 0.148904
2.597355 5.529675 -1.410443
3.755395 7.991484 0.462755
3.019296 6.425066 -1.379931
3.823922 8.133622 0.786319
3.612758 7.680978 -1.344398
3.879517 8.244400 1.118761
3.699168 7.857579 -1.066357
3.663914 7.779161 1.361919
3.636893 7.721789 -0.746750
3.654491 7.755652 1.666526
3.637408 7.715905 -0.447054
3.648453 7.735824 1.974620
3.640275 7.715003 -0.148904
3.661565 7.756617 2.298313
2.458110 5.190788 -1.538938
3.663522 7.732766 0.149358
2.614968 5.517054 -1.409543
3.903075 8.230976 0.477409
3.039184 6.409164 -1.378786
3.890722 8.201228 0.794163
3.636155 7.661184 -1.343146
3.876770 8.164458 1.109742
3.741908 7.876892 -1.070744
3.689346 7.762759 1.361293
3.680924 7.745039 -0.750237
3.683230 7.746395 1.667289
3.672043 7.719392 -0.447996
3.680452 7.733601 1.977320
3.676641 7.722109 -0.149288
3.688620 7.743787 2.298313
2.477881 5.185662 -1.539973
3.692215 7.723540 0.149428
2.635053 5.509650 -1.409993
3.910234 8.172260 0.474792
3.061539 6.398516 -1.378786
3.896097 8.139076 0.789457
3.653491 7.628846 -1.339705
3.883804 8.106119 1.103649
3.776243 7.878103 -1.072694
3.727526 7.772988 1.365360
3.692431 7.699805 -0.747099
3.719590 7.752960 1.671487
3.702421 7.713730 -0.448415
3.717550 7.741786 1.982719
3.705307 7.712831 -0.149358
3.720648 7.741312 2.301419
2.502676 5.190904 -1.544114
3.724367 7.721411 0.149637
2.648339 5.488133 -1.406844
3.910076 8.099210 0.471338
3.087265 6.394864 -1.380312
3.899357 8.073397 0.784402
3.677523 7.610710 -1.338766
3.696077 7.645712 1.042714
3.812365 7.882744 -1.075131
3.753778 7.758150 1.365047
3.734908 7.719151 -0.750237
3.752613 7.752301 1.674158
3.735420 7.713341 -0.449147
3.749651 7.739284 1.985418
3.739184 7.714247 -0.149637
3.752707 7.738706 2.304525
2.528324 5.199949 -1.549291
3.759572 7.728799 0.150021
2.663115 5.472311 -1.405044
3.907536 8.029416 0.467988
3.104159 6.375765 -1.378404
3.888590 7.983401 0.776906
3.701009 7.594923 -1.338141
3.868425 7.934965 1.083906
3.848055 7.889686 -1.077813
3.788522 7.767624 1.368802
3.762231 7.710304 -0.750585
3.790359 7.764513 1.679501
3.769741 7.718858 -0.450194
3.778719 7.733810 1.987218
3.777448 7.731208 -0.150195
3.789725 7.752913 2.312289
2.543909 5.185889 -1.547738
3.789587 7.725265 0.150195
2.682963 5.466949 -1.405944
3.910012 7.963736 0.464953
3.122070 6.356079 -1.376496
3.772323 7.676523 0.748319
3.727044 7.584382 -1.338454
3.885082 7.902499 1.081225
3.881208 7.891131 -1.079762
3.812123 7.747264 1.367550
3.798804 7.716787 -0.752503
3.827361 7.774798 1.684462
3.804144 7.724232 -0.451241
3.811230 7.735224 1.990817
3.805295 7.719769 -0.150230
3.831292 7.769091 2.321089
2.567087 5.189545 -1.551361
3.828946 7.737082 0.150684
2.698572 5.450564 -1.404144
3.865097 7.803278 0.456370
3.138772 6.336895 -1.374588
3.894187 7.858560 0.767319
3.750865 7.566014 -1.337515
3.890595 7.844429 1.075131
3.914022 7.888205 -1.081225
3.848806 7.753372 1.370992
3.824371 7.704148 -0.752503
3.861462 7.775459 1.687515
3.840857 7.730582 -0.452392
3.843414 7.732342 1.993516
3.839340 7.720765 -0.150510
3.855805 7.750482 2.319536
2.589498 5.189196 -1.553950
3.855035 7.721881 0.150649
2.720196 5.446341 -1.405494
3.839638 7.684329 0.450194
3.160871 6.325901 -1.374588
3.902888 7.807493 0.763659
3.777254 7.552874 -1.337515
3.901075 7.797070 1.070500
3.949532 7.890469 -1.083418
3.884694 7.757552 1.374120
3.862840 7.713911 -0.754769
3.889457 7.763688 1.687896
3.874980 7.731411 -0.453229
3.884359 7.746749 2.000715
3.877922 7.730553 -0.150963
3.886303 7.743880 2.321607
2.613678 5.192204 -1.557573
3.857679 7.660155 0.149707
2.723407 5.405487 -1.397396
3.923974 7.785023 0.456893
3.181168 6.311321 -1.373825
3.918450 7.770697 0.761393
3.792028 7.516716 -1.333447
3.908594 7.744417 1.065138
3.984207 7.890811 -1.085368
3.918873 7.758051 1.376623
3.893335 7.707494 -0.755466
3.923620 7.764081 1.690949
3.907349 7.728534 -0.453857
3.921050 7.752273 2.005664
3.918427 7.743732 -0.151487
3.922035 7.747505 2.326783
2.634409 5.188217 -1.559126
3.920623 7.717956 0.151103
2.746675 5.404633 -1.399645
3.932115 7.733892 0.454695
3.204067 6.301929 -1.374206
3.943746 7.753419 0.761044
3.821829 7.510476 -1.334699
3.934700 7.728958 1.064894
4.008121 7.869782 -1.084394
3.954900 7.761924 1.379752
4.042328 7.933511 -0.778998
3.959611 7.767828 1.694765
3.942467 7.730862 -0.454800
3.949860 7.742010 2.006563
3.951800 7.742474 -0.151731
3.956960 7.749253 2.331442
2.656908 5.187586 -1.561714
3.958485 7.725579 0.151522
2.767298 5.398482 -1.400545
3.965938 7.736806 0.455637
3.216193 6.271490 -1.370009
3.974427 7.746696 0.761741
3.846213 7.493577 -1.334073
3.975259 7.741663 1.068550
4.044640 7.873398 -1.086831
3.986032 7.759310 1.381629
4.039027 7.859106 -0.773071
3.996579 7.773165 1.698963
3.971258 7.720603 -0.455009
3.982205 7.738574 2.009263
3.975618 7.725773 -0.151661
3.992365 7.754981 2.337136
2.668795 5.166265 -1.558091
3.994180 7.731952 0.151906
2.785186 5.389276 -1.400545
3.998426 7.733560 0.456265
3.233557 6.251505 -1.368101
4.005105 7.739853 0.762438
3.871043 7.480780 -1.334073
4.004558 7.735490 1.069525
4.079859 7.877570 -1.089268
4.016726 7.752364 1.382881
4.068272 7.848495 -0.773420
4.038595 7.791244 1.705832
3.999600 7.712710 -0.455323
4.015027 7.739163 2.012862
4.009012 7.724272 -0.151906
4.021193 7.744426 2.338171
2.685908 5.157388 -1.558091
4.021140 7.717965 0.151906
2.798578 5.369151 -1.397846
4.036480 7.740806 0.457521
3.256992 6.245971 -1.369245
4.038120 7.740663 0.763833
3.891651 7.456714 -1.332196
4.045320 7.747859 1.073182
4.114679 7.877358 -1.091218
4.053828 7.757554 1.386322
4.118722 7.878387 -0.777778
4.059402 7.764920 1.703161
4.037600 7.719941 -0.456579
4.052861 7.745821 2.018261
4.041517 7.720860 -0.152115
4.055366 7.744035 2.342312
2.702997 5.144088 -1.557055
4.058290 7.723354 0.152290
2.810952 5.347277 -1.394697
4.069982 7.739043 0.458254
3.277119 6.228780 -1.368101
4.073886 7.739916 0.765227
3.918032 7.440652 -1.331883
4.069563 7.728422 1.072450
4.149555 7.876997 -1.093168
4.089173 7.759083 1.389138
4.139691 7.851626 -0.776558
4.100656 7.774301 1.708504
4.069602 7.712155 -0.456998
4.088500 7.744702 2.021860
4.074043 7.717316 -0.152325
4.095908 7.755455 2.350077
2.729981 5.151692 -1.562232
4.097808 7.729629 0.152709
2.830536 5.336936 -1.394697
4.104460 7.738904 0.459091
3.297920 6.215569 -1.367719
4.113024 7.748525 0.767493
3.939351 7.418207 -1.330319
4.109036 7.734492 1.075375
4.182123 7.868749 -1.094143
4.123644 7.758719 1.391641
4.194201 7.888143 -0.781613
4.140675 7.784206 1.713846
4.100245 7.704957 -0.457416
4.120090 7.738982 2.024110
4.112235 7.724228 -0.152743
4.132038 7.758161 2.355253
2.743397 5.133612 -1.559644
4.132845 7.733633 0.153058
2.848217 5.327522 -1.394697
4.139925 7.740380 0.460033
3.309409 6.184977 -1.363521
4.145690 7.744658 0.768539
3.961130 7.399878 -1.329380
4.147784 7.745321 1.078787
4.219445 7.875833 -1.097068
4.153503 7.749500 1.392580
4.227357 7.883991 -0.782659
4.177601 7.791194 1.718426
4.137105 7.712438 -0.458672
4.152179 7.737298 2.027259
4.138225 7.708066 -0.152709
4.169147 7.762412 2.360948
2.753991 5.112581 -1.556020
4.169303 7.736761 0.153407
2.867720 5.319263 -1.395146
4.171658 7.734673 0.460556
3.324308 6.163601 -1.361231
4.175136 7.737880 0.769237
3.987874 7.387746 -1.329693
4.185169 7.750010 1.081469
4.256349 7.878520 -1.099505
4.188980 7.750596 1.395396
4.223163 7.813841 -0.777081
4.220644 7.805924 1.724913
4.175406 7.719028 -0.459928
4.211622 7.782744 2.043005
4.176528 7.714677 -0.153127
4.213700 7.780086 2.370783
2.770897 5.101240 -1.555503
4.202012 7.732704 0.153616
2.893718 5.322917 -1.398746
4.211038 7.742871 0.461917
3.348618 6.157133 -1.362376
4.210689 7.739012 0.770805
4.007029 7.361634 -1.327503
4.226439 7.761504 1.085125
4.300915 7.894993 -1.103893
4.245315 7.789694 1.405095
4.203696 7.713328 -0.768539
4.245988 7.787694 1.724150
4.213800 7.725449 -0.461184
4.234098 7.759441 2.040756
4.218765 7.728134 -0.153686
4.234349 7.753462 2.367159
2.790544 5.094924 -1.556538
4.235703 7.730266 0.153860
2.904785 5.299113 -1.395146
4.247643 7.745639 0.462964
3.367257 6.140244 -1.361231
4.253009 7.752216 0.773594
4.031749 7.345871 -1.327190
4.254459 7.748444 1.085368
4.330358 7.883413 -1.104380
4.258213 7.748859 1.400401
4.239233 7.714321 -0.770108
4.280711 7.786590 1.727203
4.247477 7.722943 -0.461917
4.267735 7.756564 2.043905
4.261143 7.741391 -0.154244
4.269773 7.753865 2.371818
2.806445 5.081769 -1.555503
4.289736 7.764443 0.154838
2.923266 5.288939 -1.395146
4.276589 7.734259 0.463173
3.385822 6.123297 -1.360087
4.288722 7.753015 0.775163
4.052586 7.323110 -1.325626
4.290136 7.749176 1.087562
4.365542 7.882142 -1.106330
4.295764 7.752954 1.403843
4.286412 7.736075 -0.773769
4.316434 7.787054 1.730638
4.296685 7.748244 -0.464325
4.304237 7.758662 2.048404
4.306579 7.759689 -0.154908
4.308067 7.759180 2.378030
2.826985 5.077006 -1.557055
4.318761 7.752915 0.154908
2.940761 5.277002 -1.394697
4.311934 7.737482 0.464220
3.400482 6.099438 -1.357415
4.328377 7.760616 0.777429
4.074273 7.302021 -1.324374
4.327801 7.753221 1.090243
4.404645 7.887652 -1.109255
4.328191 7.750742 1.406033
4.369747 7.821950 -0.783879
4.351250 7.785649 1.733691
4.330530 7.745400 -0.465057
4.337003 7.753792 2.051104
4.332289 7.745364 -0.154908
4.345093 7.765083 2.384241
2.839017 5.056999 -1.553950
4.353260 7.754243 0.155222
2.957291 5.265521 -1.394247
4.356525 7.753726 0.466104
3.417906 6.080684 -1.355889
4.356419 7.747196 0.777604
4.093626 7.279860 -1.322810
4.366138 7.761319 1.093412
4.436622 7.883382 -1.110717
4.357160 7.739028 1.406659
