# This PCD file was generated using the MATLAB® pcwrite function
# from Computer Vision Toolbox®.
# .PCD v.7 - Point Cloud Data file format
VERSION .7
FIELDS x y z
SIZE 4 4 4
TYPE F F F
COUNT 1 1 1
WIDTH 1668
HEIGHT 1
VIEWPOINT 0 0 0 1 0 0 0
POINTS 1668
DATA ascii
-5.708054 7.588609 -0.830769
-5.725927 7.615138 1.851992
-5.722949 7.613942 -0.499180
-5.739484 7.638724 2.205870
-18.417570 24.520973 -0.535300
-5.754379 7.664110 2.568003
-3.969742 5.300677 -1.774463
-12.947776 17.295048 0.377112
-4.682133 6.256455 -1.804107
-8.699062 11.628279 0.761070
-5.682604 7.596095 -1.843978
-7.405064 9.902149 1.081777
-5.661800 7.573796 -1.497704
-5.696637 7.623170 1.168483
-5.692933 7.620981 -1.167996
-5.695655 7.627409 1.507716
-5.671991 7.595718 -0.829374
-5.700483 7.636653 1.852374
-5.679616 7.611462 -0.497715
-5.705796 7.649339 2.203171
-18.281652 24.517790 -0.533834
-5.720663 7.674858 2.564897
-3.948910 5.311399 -1.773428
-12.944575 17.417179 0.378787
-4.653291 6.263376 -1.801408
-8.704864 11.721106 0.765152
-5.646691 7.603274 -1.840925
-7.401330 9.969532 1.086309
-5.623558 7.577650 -1.494575
-5.653435 7.620688 1.165071
-5.694674 7.679077 -1.173846
-5.657234 7.631373 1.504587
-5.633579 7.599464 -0.827631
-5.648077 7.621802 1.843978
-5.636366 7.608774 -0.496250
-5.650069 7.630055 2.191923
-18.160275 24.533234 -0.532787
-5.663962 7.654402 2.551438
-3.916581 5.306499 -1.767217
-12.947803 17.549154 0.380672
-4.636027 6.285854 -1.803208
-8.702699 11.799734 0.768397
-5.599147 7.594494 -1.834056
-7.404308 10.046633 1.091887
-5.587700 7.584508 -1.492072
-5.618561 7.629186 1.163365
-5.678423 7.713297 -1.176039
-5.611985 7.623050 1.499268
-5.590482 7.596617 -0.825191
-5.616786 7.635144 1.842452
-5.597939 7.612314 -0.495203
-5.610702 7.632461 2.186974
-18.109606 24.635216 -0.533695
-5.622534 7.651347 2.544191
-3.893465 5.313905 -1.765146
-12.960455 17.688776 0.382766
-4.607095 6.290189 -1.800058
-8.708650 11.894504 0.772583
-5.564485 7.602904 -1.831385
-7.397429 10.111007 1.096071
-5.553185 7.590244 -1.489569
-5.569792 7.615732 1.158490
-5.650473 7.728878 -1.175552
-5.567860 7.618669 1.494575
-5.545128 7.590344 -0.822402
-5.579853 7.637877 1.838636
-5.565598 7.621156 -0.494575
-5.571574 7.632137 2.181576
-18.074194 24.767736 -0.535196
-5.577573 7.645957 2.535909
-3.867867 5.315852 -1.761522
-12.951567 17.806679 0.384337
-4.586257 6.307808 -1.800508
-8.705829 11.978143 0.776038
-5.521930 7.597492 -1.825661
-7.396648 10.180617 1.100951
-5.509246 7.585606 -1.484876
-5.536178 7.625487 1.157028
-5.563993 7.666621 -1.163121
-5.528474 7.620469 1.491134
-5.509243 7.596749 -0.821007
-5.530108 7.625520 1.831003
-5.523720 7.619517 -0.493214
-5.534609 7.637336 2.177526
-19.052826 26.301121 -0.566889
-5.534985 7.643476 2.528662
-3.849487 5.331560 -1.762040
-12.952537 17.939331 0.386222
-4.559648 6.317459 -1.798709
-8.711879 12.074864 0.780329
-5.484857 7.604942 -1.822608
-7.401232 10.265839 1.107226
-5.465236 7.583314 -1.480496
-5.489794 7.617390 1.152884
-5.527916 7.673110 -1.161171
-5.494911 7.630104 1.489256
-5.476869 7.607852 -0.820136
-5.489505 7.628211 1.826805
-5.472431 7.607284 -0.491121
-5.499751 7.648077 2.174827
-19.023949 26.455132 -0.568774
-5.496996 7.647062 2.523486
-3.827478 5.340253 -1.760487
-12.956580 18.084215 0.388316
-4.529655 6.324621 -1.796009
-8.704561 12.153916 0.783469
-5.444565 7.604885 -1.818028
-6.042328 8.442945 0.908337
-5.430687 7.591097 -1.478306
-5.451447 7.622927 1.150690
-5.498602 7.691702 -1.160927
-5.459055 7.636381 1.486753
-5.436381 7.607469 -0.818044
-5.454857 7.636143 1.824134
-5.434234 7.610087 -0.490074
-5.448115 7.632334 2.164929
-5.463935 7.654497 -0.164157
-5.469149 7.664630 2.522968
-3.806575 5.350432 -1.759452
-12.956825 18.211807 0.390131
-4.510914 6.342785 -1.796909
-5.604604 7.883531 0.506926
-5.402062 7.601441 -1.812685
-6.004740 8.452617 0.907117
-5.384890 7.580079 -1.472674
-5.415792 7.626398 1.148497
-5.432846 7.653241 -1.152397
-5.418645 7.636060 1.482999
-5.395957 7.606899 -0.815952
-5.417008 7.636576 1.819936
-5.402039 7.618289 -0.489446
-5.411503 7.634461 2.160430
-5.397872 7.618049 -0.162971
-5.422260 7.655299 2.513651
-3.779892 5.350405 -1.755311
-12.962382 18.354933 0.392225
-4.486500 6.355307 -1.796009
-5.559779 7.878567 0.505356
-5.366639 7.604875 -1.809251
-5.975531 8.470852 0.906943
-5.344739 7.579456 -1.468920
-5.375415 7.625784 1.145572
-5.387805 7.646195 -1.148497
-5.379446 7.637162 1.479557
-5.343168 7.585657 -0.811769
-5.376758 7.636175 1.815357
-5.363918 7.620766 -0.488399
-5.370245 7.632584 2.154581
-5.352843 7.610673 -0.162412
-5.381063 7.653634 2.506922
-3.766740 5.371473 -1.757899
-12.953323 18.478670 0.393901
-4.468760 6.377314 -1.797809
-5.523078 7.884839 0.504519
-5.329925 7.609089 -1.805817
-5.931067 8.470444 0.904677
-5.306920 7.581884 -1.465791
-5.337385 7.628236 1.143134
-5.370183 7.677970 -1.150447
-5.347094 7.647800 1.477993
-5.317796 7.605896 -0.811943
-5.336575 7.635585 1.810778
-5.316693 7.609974 -0.486515
-5.341335 7.648089 2.153681
-5.321663 7.622754 -0.162272
-5.336623 7.647025 2.498639
-3.745758 5.381419 -1.756864
-12.952704 18.615690 0.395855
-4.434233 6.375275 -1.792860
-5.483213 7.883435 0.503263
-5.295485 7.616366 -1.803145
-5.894642 8.481277 0.903631
-5.266898 7.580895 -1.462037
-5.297135 7.627256 1.140210
-5.341086 7.693407 -1.149959
-5.312692 7.652507 1.475490
-5.275312 7.601496 -0.809502
-5.297577 7.636424 1.806580
-5.280993 7.615355 -0.485678
-5.296844 7.641061 2.146483
-5.284965 7.623924 -0.161923
-5.300233 7.648800 2.493463
-3.730244 5.399230 -1.758417
-12.965916 18.767130 0.398159
-4.410854 6.386736 -1.791960
-5.440912 7.881160 0.501902
-5.256598 7.617032 -1.798947
-5.852558 8.483761 0.901713
-5.231636 7.583683 -1.459221
-5.260544 7.628436 1.137772
-5.318922 7.715980 -1.150690
-5.275861 7.656365 1.472674
-5.229534 7.591969 -0.806539
-5.264431 7.642631 1.803908
-5.235320 7.603217 -0.483794
-5.252695 7.631294 2.138835
-5.245850 7.624206 -0.161539
-5.263646 7.652930 2.488804
-3.710137 5.408382 -1.757381
-12.964793 18.906275 0.400149
-4.384124 6.395666 -1.790160
-5.399818 7.880334 0.500646
-5.220214 7.618224 -1.795131
-5.853665 8.545862 0.906245
-5.196202 7.588861 -1.456718
-5.224913 7.633649 1.135822
-5.254966 7.680434 -1.142647
-5.231259 7.648647 1.467668
-5.203202 7.607626 -0.806365
-5.234395 7.656100 1.802764
-5.198607 7.606604 -0.482852
-5.215031 7.633494 2.134336
-5.203417 7.619350 -0.161051
-5.228189 7.658492 2.484663
-3.682536 5.408526 -1.753240
-12.968482 19.053907 0.402313
-4.362870 6.412541 -1.790610
-5.363294 7.885922 0.499808
-5.183654 7.621789 -1.791697
-5.894371 8.670044 0.917227
-5.163020 7.597149 -1.454841
-5.182619 7.628852 1.132410
-5.247085 7.726647 -1.146791
-5.198978 7.658691 1.466104
-5.155351 7.594423 -0.803053
-5.194411 7.654830 1.798184
-5.164176 7.613133 -0.482119
-5.174133 7.630685 2.128487
-5.162206 7.615948 -0.160597
-5.183003 7.649506 2.475863
-3.662551 5.419748 -1.752723
-12.967931 19.196829 0.404372
-4.340458 6.427732 -1.790610
-5.323442 7.886388 0.498657
-5.141638 7.617056 -1.786354
-5.874099 8.705433 0.918796
-5.114375 7.582373 -1.448583
-5.142639 7.627147 1.129485
-5.206767 7.725165 -1.143866
-5.164489 7.665324 1.463914
-5.118793 7.597500 -0.801484
-5.144626 7.638720 1.790170
-5.124183 7.611233 -0.480863
-5.145290 7.645464 2.127587
-5.119961 7.610694 -0.160108
-5.146565 7.653125 2.471204
-3.643611 5.432499 -1.752723
-12.956525 19.325022 0.406117
-4.308231 6.428274 -1.786561
-5.283654 7.886668 0.497506
-5.110649 7.628432 -1.784827
-5.786027 8.639799 0.909732
-5.073592 7.578839 -1.444516
-5.101633 7.623603 1.126317
-5.166525 7.723491 -1.140941
-5.130016 7.671809 1.461724
-5.085598 7.605383 -0.800438
-5.093930 7.620722 1.781775
-5.077612 7.599180 -0.478979
-5.109914 7.650414 2.123988
-5.084481 7.615213 -0.159829
-5.106952 7.651759 2.464993
-3.626646 5.446161 -1.753240
-11.562692 17.370333 0.364232
-4.284730 6.439281 -1.785661
-5.241983 7.880867 0.496040
-5.074449 7.628994 -1.781011
-5.723149 8.607505 0.904328
-5.040776 7.584107 -1.442326
-5.057647 7.612371 1.122173
-5.118922 7.707509 -1.136066
-5.100174 7.682197 1.460472
-5.043593 7.599849 -0.797998
-5.057774 7.621216 1.777958
-5.039137 7.596003 -0.477723
-5.064051 7.636460 2.115440
-5.043730 7.608699 -0.159340
-5.073011 7.655771 2.460852
-3.607727 5.461028 -1.753758
-11.532846 17.457308 0.365209
-4.268671 6.463955 -1.788361
-5.203440 7.882445 0.494994
-5.033479 7.627875 -1.776432
-5.681687 8.613457 0.902759
-5.004247 7.589337 -1.439823
-5.027768 7.625008 1.121442
-5.076690 7.702127 -1.132654
-5.053766 7.670261 1.454841
-5.015940 7.615743 -0.797824
-5.015773 7.618384 1.772997
-5.006868 7.607750 -0.477304
-5.028533 7.643572 2.112290
-5.002854 7.604539 -0.158887
-5.032459 7.652449 2.454122
-3.582285 5.463895 -1.750652
-11.512633 17.566359 0.366605
-4.240681 6.473036 -1.786561
-5.170424 7.892208 0.494470
-4.993913 7.625691 -1.771852
-5.657043 8.641570 0.903631
-4.967992 7.591883 -1.437007
-4.987831 7.625112 1.118761
-5.041078 7.706513 -1.130704
-5.020476 7.677934 1.452963
-4.970792 7.604856 -0.794860
-4.981630 7.624342 1.770326
-4.971546 7.611802 -0.476467
-4.986109 7.634099 2.105092
-4.971904 7.615261 -0.158747
-4.990932 7.647320 2.446875
-3.557824 5.466029 -1.747546
-11.508842 17.688250 0.368351
-4.216003 6.482163 -1.785212
-8.725792 13.416026 0.838736
-4.965389 7.637271 -1.770708
-5.845497 8.994400 0.938493
-4.925569 7.581812 -1.432001
-4.956032 7.631619 1.117298
-5.013334 7.719856 -1.130216
-4.978852 7.669688 1.448270
-4.936871 7.607926 -0.793466
-4.944568 7.622701 1.766128
-4.937582 7.614841 -0.475629
-4.954403 7.640783 2.102393
-4.937924 7.618281 -0.158468
-4.957144 7.650858 2.442734
-3.539680 5.477797 -1.747546
-11.509802 17.818701 0.370270
-4.187086 6.484647 -1.782062
-8.722235 13.513524 0.842923
-4.931520 7.640498 -1.767655
-5.879370 9.112510 0.948777
-4.893977 7.588143 -1.430124
-4.913490 7.621317 1.113398
-4.944419 7.672232 -1.120710
-4.947771 7.680377 1.447019
-4.902985 7.610856 -0.792071
-4.906507 7.619250 1.761549
-4.898251 7.609339 -0.474268
-4.920322 7.646558 2.099243
-4.902645 7.622018 -0.158189
-4.918912 7.650241 2.437040
-3.523664 5.494999 -1.749099
-11.509039 17.954733 0.372260
-4.160218 6.492661 -1.780263
-8.718098 13.611164 0.847110
-4.895288 7.642788 -1.764220
-5.558531 8.681615 0.901888
-4.860003 7.593534 -1.427934
-4.875086 7.620029 1.110717
-4.913328 7.682757 -1.119736
-4.909226 7.679295 1.443577
-4.861362 7.604423 -0.789631
-4.874596 7.628057 1.759641
-4.856606 7.602829 -0.472803
-4.882061 7.645620 2.094294
-4.866327 7.623913 -0.157874
-4.880749 7.649449 2.431346
-3.505500 5.508894 -1.749617
-11.508548 18.092657 0.374284
-4.140667 6.512076 -1.781612
-8.718746 13.717363 0.851820
-4.849625 7.630003 -1.757351
-5.519647 8.687510 0.900493
-4.824997 7.597112 -1.425431
-4.842075 7.626943 1.109255
-4.882227 7.693155 -1.118761
-4.866517 7.671366 1.438884
-4.823856 7.607046 -0.788062
-4.839530 7.631763 1.756588
-4.822553 7.607926 -0.472070
-4.835524 7.631341 2.085746
-4.824708 7.617202 -0.157386
-4.846785 7.655014 2.427723
-3.474975 5.505368 -1.744440
-11.513637 18.240940 0.376518
-4.115829 6.523195 -1.780712
-8.716622 13.820356 0.856321
-4.815347 7.637763 -1.755061
-5.476081 8.689143 0.898576
-4.790800 7.604718 -1.423554
-4.804840 7.627005 1.106817
-4.844767 7.693352 -1.116323
-4.830239 7.673259 1.436069
-4.783477 7.601917 -0.785796
-4.804207 7.637817 1.753916
-4.788256 7.615407 -0.471442
-4.803375 7.642413 2.083947
-4.782125 7.608603 -0.156862
-4.805645 7.648986 2.420476
-3.453684 5.514191 -1.743405
-11.507185 18.379631 0.378508
-4.093961 6.541540 -1.781612
-8.710712 13.918420 0.860508
-4.779283 7.639545 -1.751627
-5.435156 8.691313 0.896833
-4.746426 7.592918 -1.418235
-4.770543 7.634462 1.105355
-4.842074 7.748937 -1.121929
-4.795054 7.676670 1.433566
-4.748472 7.605047 -0.784402
-4.758807 7.624561 1.747047
-4.751074 7.615129 -0.470396
-4.763566 7.635150 2.077648
-4.744956 7.608280 -0.156513
-4.766653 7.646040 2.414264
-3.432321 5.520691 -1.741852
-11.509500 18.519598 0.380602
-4.061965 6.538526 -1.777113
-7.505169 12.081036 0.745369
-4.752889 7.653684 -1.751245
-5.390539 8.683896 0.894218
-4.707683 7.586794 -1.414168
-4.731599 7.628309 1.102186
-4.805891 7.748082 -1.119492
-4.757078 7.672382 1.429811
-4.717981 7.612284 -0.783530
-4.719019 7.616935 1.741705
-4.708967 7.603675 -0.468721
-4.736166 7.647593 2.076748
-4.716541 7.618874 -0.156408
-4.732121 7.647022 2.409606
-3.418051 5.538620 -1.743923
-11.514171 18.664883 0.382801
-4.039235 6.550302 -1.776663
-7.456661 12.096961 0.744741
-4.714088 7.647678 -1.746284
-5.355444 8.691545 0.893172
-4.677317 7.593957 -1.412603
-4.694826 7.625364 1.099505
-4.766327 7.744524 -1.116567
-4.719919 7.672117 1.426683
-4.684357 7.614312 -0.782136
-4.684480 7.617491 1.738270
-4.671176 7.598829 -0.467465
-4.692100 7.635853 2.069100
-4.678406 7.616547 -0.156025
-4.699335 7.653615 2.406500
-3.396681 5.547221 -1.742887
-11.514721 18.812408 0.385000
-4.015330 6.562698 -1.776214
-7.436275 12.158695 0.746939
-4.673025 7.640637 -1.740941
-5.309485 8.684689 0.890557
-4.642541 7.596752 -1.410100
-4.661969 7.631543 1.098043
-4.696846 7.691654 -1.106574
-4.683848 7.673368 1.423867
-4.654637 7.625515 -0.781613
-4.651724 7.623742 1.735980
-4.638381 7.604859 -0.466837
-4.663390 7.648856 2.068200
-4.638260 7.610634 -0.155571
-4.662538 7.653476 2.401323
-3.371276 5.549139 -1.739782
-11.523711 18.975552 0.387513
-3.991384 6.575010 -1.775764
-7.424869 12.235806 0.750079
-4.641231 7.648512 -1.739033
-5.272936 8.692949 0.889511
-4.609848 7.602777 -1.408223
-4.628101 7.635886 1.096337
-4.680257 7.724979 -1.109011
-4.648846 7.676157 1.421364
-4.608378 7.609337 -0.778301
-4.615935 7.624817 1.732546
-4.608707 7.615877 -0.466523
-4.622539 7.641744 2.061901
-4.602355 7.611376 -0.155257
-4.619806 7.643250 2.393041
-3.344906 5.549290 -1.736158
-11.515202 19.111578 0.389468
-3.967405 6.587233 -1.775314
-7.423321 12.330091 0.754266
-4.604380 7.647846 -1.735217
-5.252835 8.728373 0.891255
-4.564950 7.588356 -1.402592
-4.589144 7.631578 1.093412
-4.625652 7.695331 -1.102430
-4.612864 7.677099 1.418548
-4.574604 7.613423 -0.777081
-4.577163 7.620686 1.727966
-4.576956 7.623354 -0.465999
-4.586809 7.642797 2.057852
-4.566501 7.611961 -0.154942
-4.590120 7.654358 2.391488
-3.330471 5.569224 -1.738746
-11.518192 19.268370 0.391841
-3.936388 6.587659 -1.771715
-7.426322 12.433090 0.758976
-4.571614 7.653760 -1.732927
-5.238679 8.774024 0.894044
-4.532362 7.594065 -1.400714
-4.550270 7.627095 1.090487
-4.543859 7.619363 -1.089268
-4.577948 7.679579 1.416045
-4.538512 7.616446 -0.775686
-4.542492 7.623126 1.724913
-4.536006 7.615263 -0.464534
-4.551131 7.643691 2.053803
-4.536832 7.622701 -0.154838
-4.554481 7.655393 2.386829
-3.307081 5.576407 -1.737193
-11.518181 19.421980 0.394145
-3.909396 6.594654 -1.769915
-7.424625 12.529383 0.763268
-4.536529 7.658639 -1.730256
-4.676598 7.898250 0.803053
-4.496450 7.597025 -1.398211
-4.512499 7.624140 1.087806
-4.548567 7.688141 -1.096824
-4.541059 7.678508 1.412916
-4.499732 7.611659 -0.773594
-4.511527 7.634652 1.723769
-4.495876 7.611201 -0.463278
-4.510207 7.638505 2.047954
-4.503081 7.626437 -0.154593
-4.515949 7.651279 2.380618
-3.282696 5.579592 -1.734605
-11.517883 19.584723 0.396588
-3.882237 6.603897 -1.768565
-7.422346 12.625814 0.767559
-4.496835 7.652425 -1.725295
-4.644960 7.907656 0.802356
-4.463901 7.602455 -1.396334
-4.477489 7.628645 1.086100
-4.532754 7.722806 -1.099505
-4.500232 7.670461 1.408536
-4.468093 7.618728 -0.772723
-4.474918 7.633418 1.719952
-4.463220 7.616509 -0.462650
-4.476967 7.639969 2.044355
-4.462281 7.617954 -0.154105
-4.489212 7.666997 2.380618
-3.259306 5.582106 -1.732017
-11.524436 19.745432 0.399067
-3.861297 6.618419 -1.769015
-7.428743 12.733168 0.772583
-4.459566 7.646943 -1.720716
-4.603663 7.897196 0.799741
-4.430711 7.603562 -1.393831
-4.444175 7.629728 1.084150
-4.486139 7.701771 -1.094387
-4.465827 7.669977 1.405720
-4.425768 7.604228 -0.769760
-4.439710 7.631245 1.716136
-4.427900 7.614003 -0.461603
-4.441813 7.637927 2.039856
-4.426946 7.615420 -0.153756
-4.447264 7.653446 2.371818
-3.236904 5.586197 -1.729947
-11.522032 19.892557 0.401266
-3.832494 6.619381 -1.765866
-7.425272 12.829892 0.776875
-4.433202 7.659989 -1.720334
-4.563479 7.888275 0.797301
-4.391629 7.594271 -1.389451
-4.412887 7.634113 1.082687
-4.468163 7.732853 -1.096580
-4.433100 7.675254 1.403843
-4.395210 7.612730 -0.769062
-4.397689 7.617023 1.709649
-4.396634 7.618266 -0.460975
-4.417074 7.656760 2.040756
-4.395339 7.622166 -0.153581
-4.415695 7.660555 2.369230
-3.222181 5.608074 -1.733052
-4.515858 7.859665 0.158224
-3.799658 6.615821 -1.761367
-4.528499 7.888039 0.476676
-4.396300 7.660862 -1.716899
-4.531564 7.899762 0.796778
-4.353937 7.593180 -1.386322
-4.376339 7.632249 1.080250
-4.445094 7.755292 -1.097555
-4.396460 7.673544 1.400714
-4.361681 7.615922 -0.767842
-4.361940 7.619459 1.706596
-4.352812 7.606592 -0.459300
-4.379302 7.655983 2.036257
-4.358779 7.620104 -0.153232
-4.379341 7.659152 2.364053
-3.195891 5.607538 -1.729429
-4.504837 7.907442 0.158852
-3.772493 6.624622 -1.760017
-4.502915 7.907268 0.476885
-4.358850 7.657393 -1.712702
-5.017318 8.817741 0.887594
-4.325455 7.604898 -1.385697
-4.338527 7.630980 1.077813
-4.400944 7.743919 -1.093655
-4.362813 7.676822 1.398524
-4.326214 7.615509 -0.766273
-4.325624 7.617565 1.702780
-4.315387 7.602635 -0.458149
-4.338128 7.645798 2.029508
-4.328207 7.628314 -0.153093
-4.338284 7.649184 2.356289
-3.176296 5.618660 -1.729429
-3.752420 6.640491 -1.760917
-4.299456 7.611656 0.458149
-4.316648 7.645209 -1.706596
-4.307866 7.632767 0.766796
-4.293414 7.607159 -1.383507
-4.309294 7.638410 1.076838
-4.390844 7.786136 -1.097555
-4.324350 7.671354 1.394770
-4.335792 7.694789 -0.772723
-4.298409 7.628448 1.702016
-4.295054 7.625604 -0.458672
-4.296494 7.631276 2.021860
-4.285859 7.615494 -0.152534
-4.304924 7.652496 2.352665
-3.152922 5.620738 -1.726841
-4.280738 7.634426 0.152778
-3.729219 6.653547 -1.760917
-4.287863 7.650262 0.459614
-4.286476 7.650917 -1.704688
-4.270851 7.626149 0.764704
-4.255256 7.601415 -1.379752
-4.274851 7.639546 1.074888
-4.327785 7.737311 -1.088537
-4.291175 7.671859 1.392267
-4.255803 7.611738 -0.762961
-4.261221 7.624553 1.697819
-4.251852 7.610907 -0.456893
-4.262230 7.632614 2.018261
-4.249859 7.610459 -0.152150
-4.266340 7.643114 2.345418
-3.130466 5.626644 -1.725288
-4.243733 7.627609 0.152360
-3.702396 6.657362 -1.758667
-4.241722 7.630271 0.457521
-4.251162 7.650387 -1.701253
-4.242268 7.637529 0.764356
-4.215635 7.589581 -1.375059
-4.241783 7.639797 1.072938
-4.304991 7.756829 -1.089268
-4.264367 7.686793 1.392267
-4.235969 7.638746 -0.764182
-4.221630 7.612889 1.692094
-4.222714 7.617979 -0.456474
-4.232172 7.638185 2.016011
-4.221327 7.621749 -0.152080
-4.231215 7.642749 2.340760
-3.119258 5.650525 -1.729429
-4.206452 7.623118 0.151976
-3.674431 6.661714 -1.756418
-4.216991 7.648528 0.457730
-4.222923 7.659286 -1.700108
-4.214034 7.646319 0.763833
-4.185306 7.597328 -1.373808
-4.199770 7.626735 1.069038
-4.274061 7.764852 -1.088293
-4.225131 7.679131 1.388200
-4.206774 7.645768 -0.763484
-4.190302 7.618978 1.690186
-4.180704 7.604669 -0.454800
-4.199855 7.642663 2.013312
-4.186996 7.622416 -0.151801
-4.201723 7.652390 2.339206
-3.093950 5.651211 -1.726323
-4.169256 7.618461 0.151592
-3.643674 6.660821 -1.752819
-4.176851 7.638669 0.456265
-4.190508 7.663645 -1.697819
-4.173937 7.636506 0.761393
-4.151186 7.598023 -1.371305
-4.165509 7.627412 1.067088
-4.243124 7.772756 -1.087318
-4.191679 7.681694 1.386010
-4.174335 7.649910 -0.762438
-4.163679 7.633559 1.690186
-4.146482 7.605188 -0.453962
-4.161030 7.635032 2.007463
-4.152709 7.622938 -0.151522
-4.167593 7.653439 2.335066
-3.066828 5.648395 -1.722182
-4.137869 7.624179 0.151417
-3.622258 6.676926 -1.753718
-4.138738 7.632133 0.455009
-4.150631 7.654065 -1.692476
-4.148207 7.652781 0.761567
-4.115226 7.595099 -1.368176
-4.133188 7.631431 1.065626
-4.206517 7.770062 -1.084881
-4.149794 7.668482 1.381004
-4.154799 7.680932 -0.764007
-4.129536 7.634230 1.687133
-4.114212 7.609073 -0.453334
-4.128792 7.639225 2.004764
-4.115621 7.618033 -0.151138
-4.133510 7.654340 2.330925
-3.044276 5.656195 -1.721147
-4.110284 7.636815 0.151382
-3.600774 6.692962 -1.754618
-4.109235 7.641256 0.454695
-4.116044 7.657119 -1.689804
-4.104096 7.638098 0.758604
-4.083624 7.603170 -1.366925
-4.100890 7.635318 1.064163
-4.175614 7.777701 -1.083906
-4.119263 7.675961 1.379752
-4.076163 7.598821 -0.754420
-4.093180 7.633742 1.683699
-4.080633 7.613540 -0.452706
-4.091564 7.637127 2.000265
-4.080506 7.616488 -0.150824
-4.093997 7.644882 2.323678
-3.021783 5.661675 -1.719594
-4.074734 7.637714 0.151103
-3.570719 6.695797 -1.751919
-4.075017 7.641456 0.453857
-4.084671 7.662780 -1.687896
-4.069916 7.638310 0.757209
-4.047771 7.599944 -1.363796
-4.063548 7.632777 1.061726
-4.144280 7.787697 -1.083175
-4.086877 7.679829 1.377875
-4.042126 7.598932 -0.753026
-4.052681 7.621983 1.677974
-4.050284 7.620682 -0.452287
-4.061221 7.644481 1.998465
-4.049202 7.621857 -0.150649
-4.060039 7.645475 2.319536
-3.003810 5.675602 -1.720629
-4.039096 7.631742 0.150719
-3.541206 6.693820 -1.748320
-4.040851 7.641508 0.453020
-4.052395 7.666576 -1.685607
-4.040438 7.647184 0.756686
-4.015165 7.599352 -1.361293
-4.028018 7.626900 1.059045
-4.114727 7.794374 -1.082200
-4.050828 7.676577 1.374746
-4.013719 7.609471 -0.752677
-4.025553 7.631906 1.677211
-4.008225 7.602270 -0.450403
-4.042211 7.669973 2.001615
-4.019774 7.630639 -0.150544
-4.041425 7.674985 2.324195
-2.985872 5.687242 -1.721147
-4.006855 7.635172 0.150510
-3.514196 6.699239 -1.746520
-4.003020 7.634341 0.451764
-4.019654 7.666063 -1.682554
-4.003030 7.637600 0.754420
-3.984945 7.606322 -1.360041
-3.998605 7.635639 1.058313
-4.068160 7.771758 -1.077081
-4.024004 7.690671 1.374746
-3.979224 7.605086 -0.750934
-4.002525 7.652872 1.678738
-3.977960 7.609136 -0.449985
-3.995554 7.646039 1.991717
-3.986635 7.632215 -0.150300
-3.997623 7.656508 2.314360
-2.962432 5.690777 -1.719076
-3.976488 7.642015 0.150370
-3.490791 6.711463 -1.746520
-3.968978 7.634090 0.450927
-3.982004 7.659144 -1.677974
-3.971754 7.642687 0.753549
-3.951997 7.607915 -1.357851
-3.970100 7.646026 1.057826
-4.033692 7.771815 -1.075131
-3.992584 7.695905 1.373182
-3.952651 7.618931 -0.750934
-3.959521 7.635423 1.671868
-3.955053 7.630067 -0.450403
-3.959874 7.642640 1.987218
-3.959970 7.646084 -0.150300
-3.965545 7.660121 2.311254
-2.938118 5.692501 -1.716488
-3.943371 7.643408 0.150126
-3.463768 6.716681 -1.744720
-3.940893 7.641886 0.450613
-3.943548 7.650313 -1.673013
-3.935927 7.638793 0.751805
-3.926319 7.623420 -1.358164
-3.933389 7.640425 1.055145
-4.007896 7.785150 -1.075131
-3.948066 7.672213 1.366612
-3.929679 7.639768 -0.751631
-3.920274 7.624756 1.666526
-3.930223 7.647379 -0.450613
-3.927387 7.641860 1.983618
-3.921799 7.634273 -0.149811
-3.929530 7.652608 2.305043
-2.919226 5.702212 -1.716488
-3.909803 7.640423 0.149811
-3.438815 6.722925 -1.743371
-3.910074 7.644243 0.449985
-3.922628 7.672088 -1.674922
-3.904226 7.639384 0.750585
-3.898323 7.631122 -1.357226
-3.897200 7.632210 1.052220
-3.962198 7.759502 -1.069769
-3.919008 7.678227 1.365360
-3.887121 7.619037 -0.748319
-3.892294 7.632466 1.665381
-3.884884 7.621223 -0.448310
-3.898482 7.647898 1.981819
-3.877398 7.609819 -0.149078
-3.895366 7.648382 2.299866
-2.897675 5.706694 -1.714935
-3.871776 7.628382 0.149323
-3.412095 6.725601 -1.741121
-3.879751 7.650721 0.449566
-3.892723 7.676300 -1.673013
-3.872567 7.639849 0.749365
-3.852462 7.603477 -1.350030
-3.860207 7.622071 1.049051
-3.934193 7.771513 -1.069525
-3.885049 7.677759 1.362857
-3.855539 7.619440 -0.747099
-3.854555 7.620807 1.660038
-3.844269 7.603765 -0.446530
-3.862973 7.644065 1.977320
-3.849006 7.619738 -0.149009
-3.861676 7.648138 2.295725
-2.876870 5.715048 -1.714417
-3.845122 7.641851 0.149323
-3.387720 6.735731 -1.740671
-3.841361 7.641018 0.448205
-3.850032 7.658266 -1.666144
-3.844979 7.651541 0.749191
-3.820576 7.606287 -1.348152
-3.831798 7.631950 1.048564
-3.893684 7.758587 -1.065869
-3.853794 7.682446 1.361293
-3.820876 7.616825 -0.745530
-3.825291 7.628949 1.658893
-3.812335 7.606423 -0.445902
-3.824919 7.634855 1.971471
-3.817909 7.624186 -0.148834
-3.832363 7.656388 2.294172
-2.856041 5.723326 -1.713900
-3.807715 7.633753 0.148904
-3.358971 6.737050 -1.737972
-3.812438 7.646564 0.447787
-3.817148 7.659358 -1.663473
-3.813806 7.655998 0.748319
-3.790478 7.612506 -1.346901
-3.799828 7.634614 1.047101
-3.855969 7.750802 -1.062944
-3.820379 7.679264 1.358477
-3.791601 7.624764 -0.745007
-3.794270 7.633463 1.656985
-3.783982 7.616108 -0.445693
-3.793042 7.637689 1.968772
-3.780151 7.611732 -0.148345
-3.801800 7.658671 2.291066
-2.833475 5.728066 -1.712347
-3.780604 7.642754 0.148834
-3.340068 6.755138 -1.739771
-3.778642 7.645502 0.446949
-3.781691 7.655034 -1.659657
-3.774706 7.644255 0.745879
-3.758218 7.610863 -1.344398
-3.774488 7.647174 1.047101
-3.828486 7.759988 -1.062457
-3.786559 7.678381 1.355974
-3.754394 7.616507 -0.742916
-3.766330 7.640723 1.655841
-3.755175 7.621447 -0.445274
-3.764251 7.643231 1.966972
-3.748261 7.614116 -0.148136
-3.761395 7.644162 2.282784
-2.808510 5.725290 -1.708723
-3.741579 7.630766 0.148345
-3.312178 6.758008 -1.737522
-3.746661 7.647883 0.446321
-3.752832 7.660480 -1.658130
-3.745833 7.649571 0.745182
-3.719472 7.599095 -1.340018
-3.739050 7.642472 1.044664
-3.784808 7.739421 -1.057826
-3.755397 7.682677 1.354410
-3.724742 7.619965 -0.742044
-3.726710 7.627363 1.650116
-3.721535 7.620152 -0.444437
-3.729001 7.638811 1.962473
-3.719907 7.623557 -0.148066
-3.727912 7.643356 2.278643
-2.789353 5.736795 -1.709241
-3.708799 7.631191 0.148101
-3.284309 6.760765 -1.735272
-3.716454 7.653727 0.445902
-3.720068 7.661170 -1.655459
-3.717366 7.659017 0.744833
-3.689472 7.604925 -1.338766
-3.705422 7.641187 1.042714
-3.758633 7.754373 -1.058070
-3.719942 7.677964 1.351281
-3.690301 7.616785 -0.740475
-3.691503 7.622656 1.646300
-3.687082 7.616916 -0.443495
-3.698068 7.643012 1.960224
-3.689789 7.629296 -0.147927
-3.697847 7.649364 2.276572
-2.768471 5.744757 -1.708723
-3.682140 7.644090 0.148101
-3.256464 6.763409 -1.733023
-3.677587 7.641459 0.444437
-3.689044 7.665265 -1.653551
-3.682837 7.655787 0.743264
-3.661194 7.614196 -1.338141
-3.672705 7.641551 1.041008
-3.717790 7.738815 -1.054170
-3.680294 7.664190 1.346588
-3.657655 7.617046 -0.739255
-3.668273 7.642575 1.647827
-3.657018 7.622537 -0.443076
-3.669682 7.652358 1.959324
-3.663137 7.642128 -0.147927
-3.673629 7.667450 2.278125
-2.746735 5.750901 -1.707688
-3.648544 7.642459 0.147822
-3.235354 6.780010 -1.734373
-3.646590 7.645237 0.443914
-3.656347 7.665692 -1.650880
-3.652659 7.661403 0.742567
-3.629495 7.616229 -1.336263
-3.642592 7.647158 1.040033
-3.695872 7.762501 -1.055632
-3.645031 7.659153 1.343459
-3.626765 7.620771 -0.738383
-3.634824 7.641151 1.644774
-3.618379 7.610004 -0.441611
-3.633745 7.645762 1.954375
-3.620134 7.620552 -0.147263
-3.640211 7.666268 2.273984
-2.721686 5.749977 -1.704582
-3.621842 7.655149 0.147822
-3.210000 6.787740 -1.733473
-3.620736 7.659725 0.444018
-3.626211 7.671308 -1.649353
-3.625895 7.674105 0.742567
-3.594450 7.610991 -1.333135
-3.616725 7.661620 1.040277
-3.663672 7.764582 -1.054170
-3.609845 7.653965 1.340331
-3.589940 7.611761 -0.736292
-3.599759 7.636033 1.640957
-3.595200 7.629815 -0.442030
-3.598732 7.640768 1.949876
-3.590105 7.625904 -0.147124
-3.598624 7.647463 2.264667
-2.700779 5.757692 -1.704065
-3.600194 7.678608 0.148031
-3.186285 6.798904 -1.733473
-3.614312 7.715724 0.446530
-3.593583 7.671473 -1.646682
-3.626967 7.746259 0.748319
-3.562835 7.612758 -1.331257
-3.591643 7.677793 1.040764
-3.644956 7.795305 -1.056607
-3.583104 7.666520 1.340331
-3.564191 7.626052 -0.736466
-3.563112 7.627206 1.636378
-3.567698 7.640508 -0.441925
-3.570389 7.649753 1.948976
-3.562620 7.636576 -0.147089
-3.568640 7.652976 2.262596
-2.678220 5.761830 -1.702512
-3.598644 7.745535 0.149078
-3.154326 6.792310 -1.728974
-3.611741 7.780830 0.449566
-3.561821 7.673287 -1.644392
-3.627576 7.818515 0.754071
-3.534579 7.621562 -1.330632
-3.567323 7.695688 1.041496
-3.602700 7.775561 -1.052220
-3.546361 7.657470 1.336576
-3.529177 7.620367 -0.734723
-3.535640 7.637817 1.635996
-3.530105 7.629351 -0.440564
-3.536304 7.646250 1.944927
-3.532583 7.641706 -0.146949
-3.538665 7.658370 2.260525
-2.662133 5.779916 -1.705100
-3.602528 7.825256 0.150370
-3.127341 6.796197 -1.727174
-3.607095 7.842381 0.452392
-3.531735 7.678538 -1.642866
-3.627727 7.890868 0.759824
-3.499706 7.615904 -1.327503
-3.537122 7.700879 1.040521
-3.563942 7.762832 -1.048808
-3.509724 7.648256 1.332822
-3.494248 7.614531 -0.732980
-3.502407 7.635837 1.632944
-3.498459 7.630733 -0.439936
-3.501475 7.640831 1.940428
-3.495059 7.630357 -0.146495
-3.504675 7.654867 2.255867
-2.641138 5.787416 -1.704582
-3.602575 7.897824 0.151522
-3.105213 6.810619 -1.728074
-3.608684 7.918536 0.456056
-3.491882 7.662236 -1.636760
-3.629066 7.966944 0.765925
-3.468187 7.617288 -1.325626
-3.513510 7.720405 1.041496
-3.515450 7.728246 -1.042470
-3.475646 7.644279 1.330006
-3.469294 7.630310 -0.733328
-3.470048 7.635504 1.630272
-3.463539 7.624715 -0.438889
-3.473975 7.651234 1.939978
-3.459315 7.622479 -0.146112
-3.474738 7.660017 2.253796
-2.612166 5.777237 -1.698888
-3.601339 7.968662 0.152639
-3.077411 6.812537 -1.725824
-3.613899 8.003896 0.460242
-3.461884 7.667221 -1.635233
-3.624184 8.030411 0.770805
-3.439954 7.625746 -1.325000
-3.492253 7.745289 1.043202
-3.489270 7.742279 -1.042714
-3.442451 7.641954 1.327503
-3.434457 7.624207 -0.731585
-3.436121 7.631458 1.626837
-3.431167 7.624009 -0.438157
-3.444050 7.656204 1.938178
-3.423667 7.614446 -0.145728
-3.440853 7.656240 2.249138
-2.592772 5.788084 -1.699406
-3.602922 8.046888 0.153895
-3.051222 6.817902 -1.724475
-3.615075 8.077820 0.463801
-3.432693 7.673882 -1.634088
-3.630288 8.119404 0.778126
-3.402834 7.614263 -1.320933
-3.466003 7.759246 1.043445
-3.455750 7.739910 -1.040764
-3.413066 7.644309 1.325939
-3.402948 7.625233 -0.730539
-3.396663 7.614719 1.620732
-3.405344 7.637764 -0.438261
-3.414129 7.661061 1.936379
-3.396768 7.622105 -0.145658
-3.408369 7.651728 2.244479
-2.568635 5.788269 -1.696818
-3.604604 8.122766 0.155117
-3.022277 6.813731 -1.720876
-3.616808 8.157946 0.467674
-3.398728 7.669663 -1.630654
-3.631777 8.199430 0.784576
-3.372768 7.614668 -1.319056
-3.443469 7.777956 1.044420
-3.406767 7.698684 -1.033696
-3.381565 7.645338 1.324062
-3.369868 7.622487 -0.729145
-3.372188 7.627736 1.621113
-3.370312 7.627092 -0.437005
-3.389493 7.674122 1.936829
-3.366912 7.626597 -0.145518
-3.378520 7.656508 2.242408
-2.552538 5.803829 -1.698888
-3.610834 8.214014 0.156618
-2.990633 6.806399 -1.716377
-3.615618 8.232696 0.471233
-3.370120 7.673701 -1.629127
-3.582945 8.162169 0.779870
-3.339815 7.611924 -1.316553
-3.418692 7.795382 1.045152
-3.395810 7.746892 -1.038571
-3.346135 7.637193 1.320620
-3.344040 7.636028 -0.729319
-3.340818 7.628670 1.618824
-3.335657 7.620513 -0.435959
-3.347842 7.651985 1.928280
-3.335464 7.627309 -0.145309
-3.349450 7.662944 2.240855
-2.528163 5.806060 -1.696818
-3.477556 7.986392 0.152045
-2.968413 6.820370 -1.717276
-3.441852 7.911940 0.452183
-3.333358 7.666199 -1.624930
-3.439441 7.913948 0.754943
-3.310322 7.620490 -1.315927
-3.395412 7.816373 1.046370
-3.359262 7.736847 -1.035646
-3.310020 7.627080 1.316865
-3.312606 7.636688 -0.728273
-3.310491 7.635461 1.617679
-3.306118 7.629023 -0.435749
-3.315128 7.653475 1.925581
-3.301664 7.622392 -0.144995
-3.316543 7.660406 2.236714
-2.503291 5.804206 -1.693712
-3.411848 7.914611 0.150440
-2.940312 6.824044 -1.715477
-3.407892 7.909232 0.451345
-3.305803 7.675982 -1.624548
-4.673003 10.855799 1.034016
-3.275111 7.612040 -1.312485
-3.365175 7.825118 1.045883
-3.311286 7.703513 -1.029552
-3.281039 7.633144 1.315927
-3.277276 7.628069 -0.726356
-3.278397 7.634341 1.615008
-3.277106 7.635011 -0.435435
-3.286085 7.659629 1.924231
-3.273458 7.630197 -0.144925
-3.281410 7.652406 2.231020
-2.476184 5.796921 -1.689053
-2.920725 6.840927 -1.717276
-5.984441 14.023544 0.799065
-3.272054 7.671224 -1.621113
-4.670239 10.954521 1.041860
-3.242880 7.606503 -1.309669
-3.346209 7.852671 1.048076
-3.267051 7.670620 -1.023703
-3.255919 7.648186 1.316553
-3.245950 7.628462 -0.725310
-3.247679 7.632526 1.612336
-3.249422 7.640322 -0.435121
-3.259906 7.668689 1.923781
-3.241331 7.628692 -0.144680
-3.250145 7.653146 2.227915
-2.462219 5.817554 -1.692677
-3.341535 7.898976 0.149707
-2.886205 6.825952 -1.710978
-5.983662 14.158410 0.805555
-3.245071 7.678415 -1.620350
-4.671103 11.058043 1.050227
-3.213236 7.610496 -1.308418
-3.318779 7.864302 1.048076
-3.249516 7.703926 -1.026627
-3.221530 7.641302 1.313424
-3.216766 7.630003 -0.724438
-3.214919 7.629341 1.609283
-3.211105 7.624008 -0.433551
-3.225554 7.662062 1.919282
-3.213909 7.638116 -0.144646
-3.224910 7.668005 2.228950
-2.435921 5.811860 -1.688535
-3.307762 7.895836 0.149428
-2.860100 6.830593 -1.709628
-5.987403 14.306337 0.812777
-3.216730 7.686074 -1.619587
-4.679379 11.186402 1.060860
-3.185887 7.619845 -1.308105
-3.293601 7.881334 1.048808
-3.231018 7.735372 -1.029309
-3.189507 7.639740 1.311234
-3.185506 7.630155 -0.723393
-3.185242 7.633271 1.607757
-3.180627 7.625954 -0.433028
-3.196541 7.667877 1.917933
-3.185687 7.645597 -0.144576
-3.192180 7.664948 2.224809
-2.412659 5.813190 -1.686465
-3.276347 7.898099 0.149253
-2.834002 6.835134 -1.708278
-5.987898 14.448926 0.819686
-3.180863 7.675491 -1.615008
-4.673848 11.283662 1.068529
-3.153982 7.618143 -1.305915
-3.270626 7.903788 1.050270
-3.202481 7.742933 -1.028821
-3.156030 7.634397 1.308418
-3.152765 7.626498 -0.721998
-3.155581 7.637085 1.606230
-3.152464 7.633317 -0.432818
-3.163065 7.662776 1.913884
-3.152114 7.640035 -0.144262
-3.160251 7.663542 2.221185
-2.392354 5.821576 -1.686465
-3.246476 7.903940 0.149148
-2.809387 6.843182 -1.707828
-5.986711 14.589842 0.826490
-3.148091 7.672017 -1.611954
-4.675254 11.399451 1.077942
-3.124375 7.621794 -1.304664
-3.243014 7.915157 1.050270
-3.165651 7.730184 -1.025653
-3.123377 7.630742 1.305915
-3.117069 7.615329 -0.719906
-3.125184 7.638968 1.604322
-3.123530 7.638730 -0.432504
-3.132610 7.664752 1.911634
-3.118621 7.634330 -0.143947
-3.126907 7.658431 2.216526
-2.368376 5.820944 -1.683877
-3.212842 7.900405 0.148869
-2.784747 6.851141 -1.707379
-5.992441 14.742834 0.834026
-3.115378 7.668408 -1.608902
-4.675914 11.515385 1.087355
-3.091063 7.616182 -1.301848
-3.222084 7.942985 1.052464
-3.139396 7.743026 -1.025896
-3.092115 7.626413 1.303412
-3.085227 7.613237 -0.718686
-3.091868 7.633453 1.600888
-3.093101 7.640329 -0.431981
-3.095604 7.650349 1.905335
-3.091789 7.640922 -0.143878
-3.094976 7.652639 2.211868
-2.346600 5.825592 -1.682842
-3.179903 7.894321 0.148555
-2.752553 6.836838 -1.701530
-5.996859 14.902629 0.841876
-3.090058 7.682879 -1.609665
-4.675821 11.631460 1.096768
-3.059897 7.611726 -1.299345
-3.194983 7.951785 1.052220
-3.122577 7.775501 -1.028821
-3.066949 7.640826 1.304038
-3.056405 7.618414 -0.718163
-3.067266 7.645487 1.601269
-3.057339 7.624593 -0.430516
-3.067319 7.653336 1.903536
-3.059148 7.636818 -0.143598
-3.061780 7.647256 2.207209
-2.326551 5.831548 -1.682324
-3.147140 7.892371 0.148311
-2.730112 6.850026 -1.702430
-5.988414 15.032941 0.848052
-3.057296 7.674845 -1.605849
-4.677756 11.748712 1.106355
-3.033307 7.622362 -1.299345
-3.168676 7.966577 1.052707
-3.068285 7.718099 -1.019803
-3.035151 7.638636 1.301848
-3.028183 7.621100 -0.717466
-3.034040 7.639725 1.597835
-3.027023 7.625936 -0.429992
-3.036990 7.654941 1.901286
-3.030262 7.641872 -0.143494
-3.037204 7.663283 2.208762
-2.306183 5.839633 -1.682324
-3.116636 7.895868 0.148171
-2.705470 6.857701 -1.701980
-5.993052 15.198679 0.856216
-3.026167 7.674511 -1.603559
-4.682744 11.881747 1.117337
-3.002335 7.621877 -1.297468
-3.142304 7.981283 1.053195
-3.047869 7.745388 -1.021996
-3.004128 7.638154 1.299971
-3.001560 7.631625 -0.717466
-3.009511 7.655751 1.598979
-2.997465 7.629020 -0.429574
-3.000276 7.640102 1.894988
-2.994071 7.628203 -0.143040
-3.011140 7.675638 2.209280
-2.280156 5.833253 -1.678183
-3.088330 7.904837 0.148136
-2.677261 6.856212 -1.699280
-5.996598 15.364633 0.864381
-2.995075 7.674055 -1.601269
-4.677446 11.990828 1.126052
-2.971408 7.621267 -1.295590
-3.120910 8.008850 1.055389
-3.008564 7.724534 -1.017853
-2.973866 7.639390 1.298406
-2.967677 7.623490 -0.715723
-2.977783 7.653402 1.596308
-2.967195 7.630129 -0.429050
-2.971473 7.645078 1.893638
-2.961631 7.623698 -0.142761
-2.973142 7.657288 2.200997
-2.256297 5.832169 -1.675595
-3.052062 7.893188 0.147717
-2.655421 6.870968 -1.700630
-5.993308 15.515885 0.871708
-2.964027 7.673475 -1.598979
-4.677896 12.116746 1.136337
-2.937676 7.613163 -1.292462
-3.093651 8.021547 1.055632
-2.937317 7.620149 -1.002741
-2.944343 7.642350 1.297155
-2.938184 7.626365 -0.715026
-2.944702 7.647260 1.592874
-2.939827 7.638576 -0.428946
-2.941272 7.646309 1.891388
-2.936435 7.637723 -0.142830
-2.940161 7.651389 2.196338
-2.236617 5.841812 -1.676112
-3.021630 7.896324 0.147578
-2.624461 6.861993 -1.696131
-5.995446 15.684097 0.879977
-2.934417 7.676440 -1.597453
-4.678233 12.244672 1.146795
-2.908263 7.615990 -1.291210
-3.065629 8.032298 1.055632
-2.933338 7.689708 -1.010541
-2.914128 7.643353 1.295590
-2.910124 7.632852 -0.714677
-2.912396 7.642817 1.589821
-2.904613 7.626393 -0.427689
-2.911095 7.647424 1.889139
-2.904780 7.634843 -0.142586
-2.911372 7.656189 2.194786
-2.217579 5.853198 -1.677148
-2.992633 7.903081 0.147508
-2.597731 6.863823 -1.694331
-5.990837 15.837563 0.887409
-2.907605 7.686636 -1.597453
-4.683377 12.387654 1.158648
-2.880266 7.622399 -1.290584
-3.050199 8.076376 1.060020
-2.924005 7.746328 -1.016634
-2.884642 7.646085 1.294339
-2.878541 7.629915 -0.713457
-2.887086 7.656610 1.590584
-2.870933 7.617797 -0.426643
-2.878889 7.642949 1.885540
-2.873182 7.631835 -0.142342
-2.884631 7.666305 2.194786
-2.197132 5.860903 -1.677148
-2.961522 7.904116 0.147333
-2.570337 6.863724 -1.692082
-5.992220 16.009890 0.895887
-2.871808 7.672837 -1.592492
-4.681995 12.515891 1.169107
-2.849488 7.621305 -1.288707
-3.064373 8.200405 1.074888
-2.853193 7.639331 -1.001279
-2.851715 7.639453 1.291523
-2.849798 7.634316 -0.712934
-2.856909 7.657444 1.588676
-2.842232 7.622158 -0.426329
-2.846745 7.638343 1.881940
-2.838145 7.619331 -0.141923
-2.856503 7.672708 2.193750
-2.169272 5.848612 -1.671453
-2.931826 7.908782 0.147229
-2.547718 6.876309 -1.692982
-5.995256 16.189911 0.904784
-2.840236 7.669925 -1.589821
-4.679076 12.642403 1.179392
-2.817387 7.616384 -1.286204
-3.174095 8.585295 1.123879
-2.862974 7.747933 -1.014197
-2.822979 7.643800 1.290584
-2.816921 7.627397 -0.711365
-2.829484 7.665528 1.588294
-2.813533 7.626411 -0.426015
-2.820067 7.648233 1.881940
-2.808768 7.621687 -0.141783
-2.818354 7.651814 2.184950
-2.146848 5.850708 -1.669901
-2.898002 7.902071 0.146914
-2.523031 6.883330 -1.692532
-5.994360 16.362644 0.913263
-2.810746 7.672419 -1.588294
-4.680126 12.782141 1.190896
-2.787391 7.616897 -1.284640
-3.207523 8.769703 1.146547
-2.828413 7.737372 -1.011516
-2.792215 7.642475 1.288707
-2.784811 7.622211 -0.709971
-2.797997 7.662449 1.585623
-2.786892 7.636186 -0.426015
-2.788012 7.643384 1.878341
-2.779404 7.623930 -0.141644
-2.791625 7.661606 2.184950
-2.127073 5.859982 -1.670418
-2.866311 7.900860 0.146705
-2.494336 6.879272 -1.689382
-5.998446 16.552469 0.922683
-2.784614 7.684030 -1.588676
-4.680941 12.923909 1.202575
-2.756750 7.615437 -1.282763
-3.198501 8.840580 1.154346
-2.791938 7.721062 -1.008103
-2.763504 7.646602 1.287769
-2.757508 7.630012 -0.709796
-2.769897 7.668477 1.584860
-2.752084 7.623324 -0.424759
-2.761312 7.653070 1.878341
-2.750063 7.626061 -0.141504
-2.762244 7.664032 2.182880
-2.104644 5.861917 -1.668865
-2.836015 7.903287 0.146565
-2.464389 6.871427 -1.685333
-5.993874 16.721834 0.930952
-2.756452 7.690006 -1.587913
-4.686199 13.080844 1.215648
-2.728154 7.619432 -1.281824
-3.205748 8.958225 1.168240
-2.758286 7.712069 -1.005666
-2.736129 7.654343 1.287456
-2.726832 7.628334 -0.708750
-2.740471 7.670702 1.583333
-2.722100 7.623478 -0.424235
-2.729340 7.647980 1.874742
-2.721412 7.629962 -0.141399
-2.734828 7.671808 2.182362
-2.083522 5.867407 -1.668348
-2.807070 7.909371 0.146495
-2.442340 6.885498 -1.686683
-5.996860 16.915844 0.940582
-2.718438 7.668124 -1.581425
-4.685088 13.222948 1.227327
-2.697582 7.617737 -1.279947
-3.209558 9.068542 1.181158
-2.726051 7.706679 -1.003716
-2.701494 7.641498 1.283701
-2.694876 7.622778 -0.707356
-2.713677 7.680223 1.583333
-2.696800 7.636702 -0.424445
-2.698088 7.644598 1.871593
-2.689439 7.624331 -0.141120
-2.702892 7.666733 2.178221
-2.057010 5.854235 -1.662654
-2.780828 7.918635 0.146495
-2.416268 6.884365 -1.684433
-6.001557 17.109024 0.950212
-2.689747 7.667835 -1.579517
-4.684062 13.360623 1.238657
-2.672307 7.626640 -1.279947
-3.209651 9.165318 1.192370
-2.707695 7.736286 -1.006397
-2.674836 7.646685 1.283076
-2.670243 7.633553 -0.707530
-2.686899 7.685472 1.582570
-2.668169 7.636175 -0.423921
-2.670797 7.647983 1.870243
-2.663483 7.631318 -0.141085
-2.669819 7.653764 2.172009
-2.037194 5.863205 -1.663171
-2.743331 7.899957 0.145972
-2.393499 6.896440 -1.685333
-6.004629 17.311022 0.960260
-2.661032 7.671612 -1.578372
-4.687650 13.521843 1.252079
-2.637907 7.613524 -1.276192
-3.211413 9.274009 1.205044
-2.667041 7.706295 -1.001279
-2.644252 7.644775 1.281199
-2.639019 7.629648 -0.706310
-2.652356 7.672540 1.577991
-2.638890 7.637890 -0.423503
-2.641538 7.649892 1.868443
-2.634217 7.633008 -0.140946
-2.639934 7.653905 2.169421
-2.016717 5.870280 -1.663171
-2.713789 7.903812 0.145867
-2.361190 6.880790 -1.679485
-6.012669 17.521639 0.970832
-2.634876 7.682711 -1.578754
-4.689516 13.681364 1.265327
-2.611316 7.622685 -1.276192
-3.208601 9.371553 1.216256
-2.647835 7.738098 -1.004204
-2.618248 7.651631 1.280886
-2.609794 7.631272 -0.705613
-2.623654 7.676177 1.576846
-2.610274 7.641387 -0.423189
-2.614820 7.659065 1.868443
-2.608892 7.641701 -0.140946
-2.611421 7.653477 2.166833
-1.994972 5.873625 -1.662136
-2.685636 7.907086 0.145763
-2.335851 6.881201 -1.677685
-6.011149 17.718416 0.980567
-2.606783 7.688142 -1.577991
-4.692882 13.848611 1.279272
-2.583486 7.623821 -1.274941
-3.210620 9.479911 1.228931
-2.618343 7.735553 -1.002741
-2.588356 7.651370 1.279321
-2.582504 7.638448 -0.705439
-2.599444 7.688554 1.577609
-2.578524 7.631079 -0.422142
-2.581924 7.645539 1.863045
-2.579646 7.643183 -0.140806
-2.588392 7.673530 2.169939
-1.977328 5.885703 -1.663689
-2.656744 7.912623 0.145693
-2.311819 6.889313 -1.677685
-6.008320 17.915398 0.990301
-2.575654 7.679994 -1.574556
-4.689992 13.992555 1.291125
-2.554350 7.625299 -1.273690
-3.207757 9.581416 1.240630
-2.598252 7.765354 -1.005422
-2.555995 7.643497 1.276505
-2.554630 7.639412 -0.704741
-2.571966 7.695721 1.577227
-2.549342 7.632455 -0.421723
-2.552753 7.647110 1.861245
-2.548519 7.638863 -0.140562
-2.557927 7.671522 2.166833
-1.953119 5.881568 -1.660583
-2.624070 7.906664 0.145413
-2.286531 6.893641 -1.676785
-6.009852 18.129633 1.000978
-2.546978 7.683345 -1.573411
-4.693130 14.165818 1.305593
-2.526477 7.630418 -1.273064
-3.210465 9.701860 1.254767
-2.551809 7.715950 -0.997866
-2.526201 7.642993 1.274941
-2.518570 7.619907 -0.702127
-2.542622 7.697195 1.575701
-2.523937 7.645100 -0.421933
-2.523604 7.648572 1.859445
-2.518079 7.636319 -0.140352
-2.523269 7.656552 2.160104
-1.930768 5.882844 -1.659030
-2.593336 7.906276 0.145239
-2.262452 6.901581 -1.676785
-6.013062 18.353588 1.012177
-2.517695 7.684727 -1.571885
-4.693248 14.333593 1.319538
-2.496138 7.627926 -1.271187
-3.212366 9.822440 1.268904
-2.536575 7.760662 -1.002497
-2.500118 7.653643 1.275254
-2.486295 7.615829 -0.700907
-2.510256 7.689227 1.572266
-2.494136 7.644371 -0.421409
-2.495075 7.651776 1.858096
-2.488311 7.635554 -0.140178
-2.492939 7.654291 2.156998
-1.910982 5.895394 -1.660583
-2.560791 7.900063 0.144960
-2.231142 6.887189 -1.671386
-6.009867 18.562578 1.022540
-2.487097 7.686431 -1.570358
-4.692179 14.509938 1.334180
-2.463305 7.621986 -1.268684
-3.209806 9.931817 1.281578
-2.466152 7.635349 -0.985192
-2.470350 7.652925 1.273690
-2.460309 7.626357 -0.701081
-2.479046 7.689031 1.570358
-2.458749 7.630650 -0.420153
-2.464626 7.653450 1.856296
-2.460419 7.640387 -0.140108
-2.469167 7.672141 2.159586
-1.887446 5.892829 -1.657995
-2.530597 7.905586 0.144890
-2.204695 6.891609 -1.670486
-4.817976 15.060410 0.828688
-2.457861 7.687586 -1.568832
-4.693649 14.689445 1.349171
-2.434279 7.623012 -1.267432
-3.211407 10.062654 1.296934
-2.478564 7.771049 -1.001522
-2.441222 7.653974 1.272438
-2.433671 7.634899 -0.701081
-2.452189 7.697639 1.570358
-2.432100 7.639185 -0.420153
-2.432575 7.645294 1.852247
-2.432519 7.645118 -0.140038
-2.438857 7.669668 2.156481
-1.866280 5.897541 -1.657477
-2.507386 7.923467 0.145064
-2.179480 6.891449 -1.668687
-4.772602 15.099988 0.829944
-2.428052 7.686759 -1.566924
-4.695130 14.872937 1.364510
-2.408988 7.631042 -1.267432
-3.213256 10.184942 1.311314
-2.450394 7.771652 -1.000547
-2.410336 7.649259 1.270248
-2.406408 7.641446 -0.700907
-2.424293 7.698237 1.568832
-2.402558 7.633871 -0.419420
-2.406041 7.649600 1.851347
-2.401022 7.638300 -0.139759
-2.409176 7.668918 2.153892
-1.844407 5.896322 -1.655407
-2.479710 7.932172 0.145064
-2.157156 6.904595 -1.670037
-4.727011 15.139433 0.831200
-2.398454 7.681649 -1.564252
-4.693851 15.042482 1.378630
-2.379986 7.631861 -1.266181
-3.211944 10.306016 1.325451
-2.420888 7.772579 -0.999572
-2.380099 7.646309 1.268371
-2.374543 7.628458 -0.698989
-2.396238 7.702905 1.568068
-2.375894 7.642212 -0.419420
-2.378166 7.654232 1.850447
-2.370785 7.635177 -0.139549
-2.374374 7.651452 2.146645
-1.822672 5.899033 -1.654371
-7.529483 24.384075 0.445455
-2.130741 6.904635 -1.668237
-4.709448 15.270355 0.837480
-2.371624 7.689975 -1.564252
-3.359659 10.900428 0.997933
-2.347514 7.621244 -1.263052
-3.216245 10.448075 1.342269
-2.397245 7.792365 -1.001035
-2.353392 7.654571 1.268371
-2.345556 7.629083 -0.698292
-2.364147 7.694331 1.564634
-2.346274 7.640913 -0.418897
-2.350863 7.660622 1.849997
-2.341189 7.633846 -0.139375
-2.345954 7.654150 2.145092
-1.802071 5.905359 -1.654371
-7.459493 24.459940 0.446363
-2.098674 6.885933 -1.661938
-2.411203 7.911368 0.433446
-2.343052 7.692573 -1.563107
-3.321591 10.912088 0.997933
-2.318595 7.621833 -1.261801
-3.210932 10.561800 1.355431
-2.341755 7.707616 -0.989092
-2.326849 7.658552 1.267745
-2.315436 7.625786 -0.697246
-2.334422 7.693144 1.562726
-2.311475 7.622297 -0.417432
-2.321280 7.659458 1.847748
-2.314699 7.637742 -0.139305
-2.321117 7.663737 2.145610
-1.781444 5.911614 -1.654371
-7.414105 24.603251 0.448527
-2.074702 6.889123 -1.661039
-2.381268 7.912088 0.433028
-2.315053 7.696946 -1.562344
-3.283478 10.923617 0.997933
-2.294446 7.633264 -1.262426
-3.217011 10.709273 1.372980
-2.345861 7.814205 -1.001766
-2.299532 7.664737 1.267432
-2.289377 7.635730 -0.697420
-2.310027 7.704604 1.563489
-2.286757 7.631834 -0.417536
-2.291956 7.654045 1.844599
-2.287453 7.643858 -0.139270
-2.292693 7.666240 2.144057
-1.760730 5.913785 -1.653336
-7.322480 24.609812 0.448178
-2.050643 6.896323 -1.661039
-2.349654 7.906949 0.432295
-2.283366 7.683877 -1.558146
-3.252910 10.953544 0.999676
-2.262165 7.622289 -1.259298
-3.214608 10.838431 1.388092
-2.274570 7.673892 -0.982754
-2.266589 7.651882 1.263991
-2.262145 7.641764 -0.697246
-2.279777 7.701324 1.561199
-2.257838 7.632109 -0.417118
-2.263565 7.656393 1.843249
-2.255092 7.632619 -0.138921
-2.263732 7.666784 2.141986
-1.733599 5.901664 -1.648160
-6.958122 23.687418 0.430935
-2.026556 6.903440 -1.661039
-2.321475 7.913188 0.432190
-2.251323 7.679007 -1.555475
-3.235147 11.041875 1.006649
-2.235325 7.634321 -1.259923
-3.216915 10.986755 1.405641
-2.270623 7.759900 -0.992748
-2.237095 7.650268 1.262426
-2.232101 7.638140 -0.696200
-2.250982 7.707745 1.560818
-2.229289 7.638416 -0.417013
-2.233853 7.659025 1.841899
-2.225074 7.628926 -0.138712
-2.234251 7.665368 2.139398
