# This PCD file was generated using the MATLAB® pcwrite function
# from Computer Vision Toolbox®.
# .PCD v.7 - Point Cloud Data file format
VERSION .7
FIELDS x y z
SIZE 4 4 4
TYPE F F F
COUNT 1 1 1
WIDTH 1656
HEIGHT 1
VIEWPOINT 0 0 0 1 0 0 0
POINTS 1656
DATA ascii
1.839236 -6.816513 1.629995
2.533725 -9.396922 -0.169882
1.831996 -6.799111 1.886791
2.520514 -9.406686 0.169986
1.462227 -5.460919 -1.305166
2.514163 -9.396103 0.509752
1.458964 -5.452539 -1.097152
2.522352 -9.433298 0.854301
1.860745 -6.963839 -1.141659
1.769328 -6.626343 0.842117
2.031222 -7.612498 -0.967399
1.832670 -6.873195 1.126641
2.285799 -8.572599 -0.776209
1.822253 -6.838922 1.375733
2.496002 -9.374077 -0.508392
2.495770 -9.386384 -0.169533
1.815692 -6.833471 1.894555
2.481533 -9.392225 0.169568
1.446141 -5.477295 -1.307865
2.480840 -9.402891 0.509648
1.437919 -5.450006 -1.095625
2.478741 -9.401587 0.850640
1.985393 -7.535709 -1.234268
2.471447 -9.387213 1.191882
2.049083 -7.788481 -0.988848
2.467643 -9.386067 1.537125
2.199124 -8.364713 -0.756686
2.470826 -9.404849 1.890154
2.462249 -9.378868 -0.508182
1.804956 -6.880080 1.642143
2.458426 -9.377629 -0.169219
1.798192 -6.864061 1.901285
2.445708 -9.389220 0.169358
1.432904 -5.504941 -1.313264
2.442472 -9.390230 0.508496
1.416909 -5.447392 -1.094099
1.675547 -6.446362 0.582723
1.973975 -7.599951 -1.243654
1.746463 -6.728841 0.853573
2.028362 -7.820566 -0.992017
2.430403 -9.377416 1.534309
2.146917 -8.283620 -0.748668
2.433059 -9.394411 1.886338
2.426495 -9.375805 -0.507554
1.512569 -5.848671 1.394697
2.422676 -9.374537 -0.169009
2.401696 -9.300058 2.573697
2.406952 -9.374457 0.168939
1.627452 -6.347701 0.343429
1.396911 -5.448501 -1.093336
2.406618 -9.393573 0.848374
1.947433 -7.606795 -1.243654
2.406344 -9.406161 1.192126
2.021701 -7.908375 -1.002254
2.395700 -9.378185 1.533058
2.125386 -8.320020 -0.751283
2.392482 -9.372411 1.880232
2.391284 -9.374542 -0.507031
2.374435 -9.315279 2.219367
2.387469 -9.373248 -0.168835
2.365881 -9.295280 2.570073
2.372252 -9.375049 0.168800
2.373922 -9.395434 0.507868
1.380769 -5.464764 -1.095625
1.606116 -6.361314 0.574008
1.923286 -7.623124 -1.245219
2.362821 -9.372157 1.186764
2.002811 -7.950033 -1.006641
2.361021 -9.378829 1.531806
2.112869 -8.393080 -0.757209
2.355441 -9.363569 1.876797
2.353676 -9.363461 -0.505984
1.572347 -6.259775 1.490076
2.353275 -9.375706 -0.168730
2.335301 -9.310977 2.572144
2.335642 -9.367749 0.168520
2.335321 -9.380406 0.506612
1.356942 -5.450500 -1.091809
1.677214 -6.741972 0.607824
1.894280 -7.620206 -1.243654
2.327220 -9.368789 1.185301
1.978397 -7.970462 -1.008347
1.536010 -6.192822 1.010567
2.078282 -8.379132 -0.755292
2.319435 -9.358395 1.874126
2.317618 -9.358049 -0.505251
2.306067 -9.318387 2.216218
2.319573 -9.379981 -0.168660
2.296762 -9.294691 2.565414
2.302452 -9.373902 0.168486
1.579919 -6.441986 0.347615
1.338843 -5.459017 -1.092572
2.296738 -9.371818 0.844191
1.867200 -7.624853 -1.243341
2.290256 -9.359501 1.183108
1.943018 -7.946467 -1.004447
2.283766 -9.347111 1.523985
2.052804 -8.401819 -0.756686
2.285358 -9.360713 1.872981
2.283516 -9.360262 -0.504937
2.267989 -9.303660 2.210819
2.278299 -9.353048 -0.168032
1.533749 -6.301252 1.737711
2.266895 -9.370221 0.168276
2.261805 -9.363477 0.504833
1.327155 -5.494191 -1.098678
2.261204 -9.368157 0.843145
1.840574 -7.631324 -1.243341
2.255245 -9.357790 1.181889
1.956631 -8.124964 -1.026140
2.248813 -9.345422 1.522420
2.009480 -8.350821 -0.751457
2.248997 -9.353362 1.869928
2.248030 -9.356524 -0.504309
2.233679 -9.303941 2.209019
2.243304 -9.351221 -0.167857
2.225962 -9.286077 2.558685
2.227685 -9.350843 0.167787
2.229106 -9.371316 0.504833
1.289796 -5.422391 -1.083414
2.227568 -9.372114 0.842796
1.808902 -7.616562 -1.239900
1.645955 -6.935840 0.875266
1.920473 -8.098908 -1.021996
1.645965 -6.946675 1.130708
1.983533 -8.371355 -0.752677
1.421620 -6.004513 1.199425
2.212598 -9.352653 -0.503681
2.199843 -9.305991 2.207669
2.208810 -9.351211 -0.167718
2.191758 -9.286270 2.556615
2.191836 -9.344934 0.167543
2.193193 -9.365427 0.504100
1.606976 -6.867552 0.617063
1.556538 -6.657232 -1.082839
2.186249 -9.357841 1.179939
1.884969 -8.074633 -1.018097
2.183068 -9.358971 1.522107
1.907683 -8.178376 -0.734723
2.180080 -9.353539 1.866875
2.174953 -9.338921 -0.502530
1.496869 -6.432410 1.524718
2.173438 -9.347178 -0.167508
2.156270 -9.280691 2.552991
2.158751 -9.350580 0.167508
1.550832 -6.728104 0.361851
2.154483 -9.354432 0.839833
1.535948 -6.674175 -1.084717
2.151791 -9.357677 1.178964
1.855883 -8.077293 -1.017609
2.146849 -9.351131 1.519605
1.597392 -6.963413 1.388708
2.140111 -9.336722 -0.502007
1.469621 -6.416701 1.519769
2.141688 -9.358606 -0.167578
2.125154 -9.293812 2.554544
1.614843 -7.107757 0.127228
1.535731 -6.770484 0.363840
1.704764 -7.521772 0.674760
1.505661 -6.648671 -1.079711
2.115170 -9.347706 1.176770
1.792656 -7.928824 -0.998110
2.110277 -9.341227 1.516789
2.141183 -9.478036 -0.850117
2.110836 -9.351295 1.863441
2.106187 -9.338291 -0.501693
2.091991 -9.282892 2.196872
2.101979 -9.334811 -0.167020
1.451955 -6.453337 1.772393
1.636697 -7.322165 0.130963
1.532099 -6.865472 0.368654
2.080451 -9.330353 0.836347
1.485021 -6.665455 -1.081588
2.081234 -9.349219 1.176039
1.777898 -7.993166 -1.005422
1.384676 -6.230429 1.010880
1.880290 -8.460471 -0.758255
2.072223 -9.331775 1.858098
2.074443 -9.349486 -0.501902
1.449252 -6.537152 1.545864
2.070246 -9.345996 -0.167089
2.052287 -9.272584 2.544709
2.051269 -9.329706 0.166740
2.051512 -9.346365 0.501483
2.048724 -9.341450 0.836695
1.469356 -6.705330 -1.087220
2.046038 -9.344793 1.174577
1.735986 -7.935328 -0.997379
2.044589 -9.353801 1.516476
1.884356 -8.620751 -0.772026
1.414633 -6.477231 1.288724
2.037112 -9.335205 -0.500750
2.021321 -9.270616 2.190573
1.522142 -6.987032 -0.124820
2.017442 -9.268366 2.541603
2.018268 -9.334855 0.166705
2.018875 -9.353470 0.501483
2.015264 -9.344649 0.836347
1.445941 -6.710418 -1.087220
2.009647 -9.334413 1.172383
1.705770 -7.929696 -0.995916
2.005701 -9.331913 1.511783
1.812806 -8.434435 -0.754769
2.003315 -9.328738 1.854663
2.000322 -9.322731 -0.499704
1.988948 -9.277615 2.190573
1.999924 -9.336758 -0.166670
1.982651 -9.264016 2.538497
1.982759 -9.328152 0.166461
1.459293 -6.877232 0.368445
1.980980 -9.343831 0.835649
1.420052 -6.703830 -1.085342
1.971298 -9.314180 1.168971
1.701901 -8.048246 -1.010053
1.970664 -9.327261 1.509906
1.830717 -8.664886 -0.774815
1.969927 -9.331833 1.853900
1.966120 -9.321839 -0.499285
1.950524 -9.255897 2.183825
1.964435 -9.329984 -0.166426
1.947518 -9.257647 2.534874
1.949369 -9.331100 0.166391
1.944963 -9.326277 0.499285
1.947133 -9.344837 0.835126
1.403085 -6.739688 -1.090348
1.945240 -9.352100 1.172871
1.664508 -8.009437 -1.004447
1.331285 -6.411621 1.037161
1.845420 -8.887760 -0.794163
1.931759 -9.311740 1.848558
1.931947 -9.320823 -0.498866
1.331361 -6.428897 1.515720
1.926994 -9.313285 -0.166007
1.915582 -9.266281 2.535392
1.413765 -6.887324 0.122725
1.914402 -9.342792 0.499808
1.391426 -6.802604 -1.099734
1.322751 -6.472610 0.811162
1.640510 -8.034647 -1.006885
1.298630 -6.365906 1.029026
1.780933 -8.730165 -0.779521
1.898852 -9.316502 1.848176
1.900993 -9.335339 -0.499285
1.882362 -9.252103 2.179776
1.891685 -9.306237 -0.165763
1.878611 -9.250193 2.529180
1.876668 -9.307238 0.165728
1.877050 -9.325921 0.498552
1.588041 -7.897143 0.704741
1.357555 -6.757066 -1.091600
1.276318 -6.358466 0.796294
1.594889 -7.952739 -0.995916
1.867838 -9.322206 1.505838
1.744969 -8.708978 -0.777081
1.287501 -6.431631 1.274986
1.861737 -9.308623 -0.497506
1.847764 -9.247150 2.177076
1.858013 -9.306901 -0.165658
1.844798 -9.249115 2.527109
1.843004 -9.307848 0.165623
1.842934 -9.324579 0.498134
1.263270 -6.397560 0.570521
1.325167 -6.717189 -1.084404
1.280219 -6.495320 0.812869
1.591665 -8.082911 -1.011516
1.832616 -9.315102 1.503648
1.824939 -9.276077 -0.827108
1.826570 -9.292930 1.840925
1.827308 -9.305266 -0.496982
1.812096 -9.236334 2.173027
1.825516 -9.313331 -0.165658
1.810274 -9.244124 2.524004
1.809356 -9.308335 0.165519
1.807332 -9.315270 0.497296
1.806610 -9.320256 0.830594
1.300584 -6.715956 -1.083465
1.803163 -9.319880 1.165558
1.549878 -8.018252 -1.002741
1.800464 -9.323381 1.503961
1.826548 -9.458452 -0.842796
1.795236 -9.305033 1.842070
1.792925 -9.301782 -0.496459
1.779477 -9.240689 2.172577
1.791482 -9.311791 -0.165519
1.778360 -9.252284 2.524521
1.774980 -9.304771 0.165344
1.774935 -9.313365 0.496878
1.772205 -9.316720 0.829723
1.283772 -6.755387 -1.089097
1.255206 -6.611364 0.826274
1.598825 -8.429279 -1.053439
1.763279 -9.296308 1.498642
1.794263 -9.468687 -0.843145
1.762379 -9.309313 1.841689
1.759702 -9.304059 -0.496250
1.743955 -9.229611 2.168528
1.758368 -9.305891 -0.165309
1.745160 -9.244842 2.520898
1.741906 -9.298815 0.165135
1.394078 -7.456388 0.397544
1.196938 -6.414355 0.570870
1.253392 -6.716886 -1.082214
1.111403 -5.961746 0.744622
1.549420 -8.319394 -1.039058
1.731179 -9.304348 1.498955
1.742265 -9.373033 -0.834080
1.190809 -6.406308 1.266590
1.728111 -9.305916 -0.496040
1.138907 -6.139013 1.441486
1.292218 -6.972182 -0.123772
1.708308 -9.226183 2.514168
1.707269 -9.293037 0.164925
1.706991 -9.309813 0.496040
1.180328 -6.443766 0.573136
1.227448 -6.707618 -1.080024
1.703885 -9.320379 1.163365
1.516447 -8.303272 -1.036377
1.695145 -9.290901 1.495826
1.709744 -9.370917 -0.833383
1.691579 -9.280534 1.833675
1.693468 -9.300102 -0.495412
1.177112 -6.470805 1.518420
1.688709 -9.292363 -0.164855
1.676090 -9.232090 2.514168
1.673401 -9.291068 0.164786
1.185460 -6.595109 0.351174
1.106767 -6.163498 0.547861
1.196005 -6.667142 -1.072828
1.663988 -9.285237 1.158246
1.463665 -8.175641 -1.019803
1.659921 -9.281205 1.493324
1.675620 -9.368984 -0.832686
1.658484 -9.282516 1.832911
1.657486 -9.286294 -0.494365
1.640954 -9.202955 2.158180
1.657664 -9.306076 -0.164995
1.640809 -9.220766 2.509510
1.639569 -9.288976 0.164646
1.162084 -6.597239 0.351070
1.634603 -9.289249 0.825191
1.180249 -6.714078 -1.079711
1.367191 -7.785505 0.970568
1.475250 -8.409463 -1.048320
1.631605 -9.310292 1.497078
1.463035 -8.348398 -0.741521
1.629456 -9.307588 1.836727
1.623340 -9.282187 -0.493842
1.116481 -6.390560 1.497724
1.621389 -9.290136 -0.164611
1.606953 -9.216922 2.506922
1.606113 -9.288731 0.164541
1.121389 -6.498911 0.345627
1.603521 -9.302754 0.825888
1.162839 -6.753198 -1.085342
1.019980 -5.929731 0.738772
1.442188 -8.393042 -1.045639
1.592413 -9.276993 1.490821
1.441301 -8.396654 -0.745356
1.590929 -9.287797 -0.493842
1.104027 -6.452043 1.511221
1.586592 -9.281941 -0.164367
1.573795 -9.216763 2.505368
1.573011 -9.290338 0.164471
1.079399 -6.388564 0.339556
1.299804 -7.701248 0.683301
1.158307 -6.870193 -1.103489
1.564026 -9.286492 1.156296
1.418811 -8.433261 -1.050026
1.559038 -9.276649 1.489882
1.423210 -8.468439 -0.751283
1.244919 -7.415492 1.461597
1.555857 -9.277535 -0.493005
1.541595 -9.202336 2.154131
1.073306 -6.413825 -0.113510
1.537791 -9.199334 2.499157
1.538284 -9.281962 0.164227
1.537735 -9.298776 0.493947
1.532043 -9.274406 0.822402
1.297052 -7.860399 -1.261801
1.530954 -9.287979 1.155809
1.395169 -8.473419 -1.054414
1.523761 -9.264494 1.487066
1.365509 -8.302315 -0.736117
1.525853 -9.287332 1.829477
1.158608 -7.059742 -0.374935
1.508517 -9.201892 2.152782
1.518522 -9.273058 -0.164018
1.504734 -9.198927 2.497604
1.504274 -9.277406 0.164053
1.502078 -9.284370 0.492900
1.122678 -6.946989 0.615668
1.272125 -7.880481 -1.264304
1.494100 -9.265829 1.152397
1.368108 -8.493916 -1.056364
1.489844 -9.260004 1.485502
1.329557 -8.263756 -0.732283
1.492803 -9.288725 1.828714
1.134907 -7.069659 -0.375249
1.477621 -9.214798 2.154581
1.487724 -9.288175 -0.164192
1.471699 -9.198400 2.496051
1.470315 -9.272725 0.163878
1.466540 -9.269830 0.491853
1.138229 -7.202765 0.637980
1.264938 -8.013654 -1.284953
1.460818 -9.265105 1.151665
1.328569 -8.435890 -1.048564
1.458433 -9.271003 1.486441
1.291106 -8.207332 -0.726879
1.455188 -9.260908 1.822226
1.452734 -9.255829 -0.491016
0.981540 -6.260829 1.463082
1.453747 -9.283433 -0.164018
0.940415 -6.012229 1.630560
1.030905 -6.651561 0.117490
1.432341 -9.263051 0.491225
1.431189 -9.266313 0.820310
1.240571 -8.041447 -1.288707
1.142110 -7.429030 1.190466
1.260632 -8.199973 -0.725833
1.243767 -8.099686 1.592874
1.420115 -9.258870 -0.490911
0.954662 -6.231471 1.455433
1.415889 -9.252871 -0.163389
1.403652 -9.183624 2.489321
1.022349 -6.752000 0.119200
1.399999 -9.267994 0.491225
1.394329 -9.263300 1.150203
1.201173 -7.989536 -0.992017
1.388100 -9.243842 1.480496
1.222829 -8.143246 -0.720429
1.053868 -7.026424 1.381076
1.390450 -9.281549 -0.491853
0.900895 -6.020837 1.405494
1.385354 -9.269624 -0.163599
1.369020 -9.171272 2.484663
1.065165 -7.204577 0.127123
0.942403 -6.381941 0.338090
0.908847 -6.169597 0.545595
1.362850 -9.274003 1.150934
1.164052 -7.930830 -0.984217
1.357725 -9.250349 1.480809
1.163764 -7.938505 -0.701952
1.352441 -9.236788 1.814594
1.161229 -7.940526 -0.420572
0.881562 -6.035515 1.408194
1.349984 -9.242506 -0.163040
0.884033 -6.059826 1.640913
1.335750 -9.246595 0.163075
1.043753 -7.243141 0.383518
1.332092 -9.266987 0.819090
0.857592 -5.973433 0.740966
1.136620 -7.926788 -0.983242
1.327108 -9.266765 1.482686
1.131249 -7.908988 -0.698989
1.324861 -9.262601 1.818792
1.079813 -7.558782 -0.400161
0.875581 -6.136795 1.431139
1.319970 -9.263001 -0.163320
1.306017 -9.176554 2.483628
1.303745 -9.253182 0.163110
0.893379 -6.356719 0.336416
1.009180 -7.189787 0.635191
0.847471 -6.053062 0.750471
1.107294 -7.918911 -0.981780
1.294206 -9.267427 1.482060
1.011600 -7.243767 -0.639897
1.289809 -9.247724 1.814975
1.080424 -7.756366 -0.410419
0.943362 -6.789734 -0.119654
0.840379 -6.056283 1.638325
0.894331 -6.511873 0.114732
0.873082 -6.373651 0.337148
1.270063 -9.283735 0.819787
1.071903 -7.855666 0.973492
1.083933 -7.954199 -0.985679
0.799144 -5.872001 0.938607
0.967770 -7.111035 -0.627870
0.821250 -6.042313 1.185306
1.075372 -7.922377 -0.419002
0.847900 -6.254760 1.457233
0.911338 -6.731556 -0.118572
1.238557 -9.160561 2.476898
1.237523 -9.250166 0.162901
0.777117 -5.831978 0.514742
1.072194 -8.067945 0.999329
1.065042 -8.024839 -0.993966
1.225323 -9.244905 1.477054
0.830293 -6.272858 1.229955
0.947206 -7.165749 -0.378808
0.886505 -6.715561 1.563860
1.216625 -9.228734 -0.162482
1.205060 -9.153336 2.473793
1.202385 -9.232616 0.162517
1.199245 -9.233670 0.487980
1.199839 -9.250882 0.816126
0.928419 -7.177852 0.888671
1.195194 -9.253063 -1.145572
0.848348 -6.576852 1.050301
1.191085 -9.233934 -0.814558
0.900443 -6.990328 1.370009
0.883964 -6.871871 -0.363107
1.185836 -9.231330 2.148732
1.184404 -9.232924 -0.162482
1.173347 -9.159402 2.474310
1.169898 -9.234774 0.162482
1.169009 -9.253652 0.488818
1.167789 -9.256990 0.816301
0.906330 -7.204685 0.891596
1.166353 -9.284753 -1.148984
0.799570 -6.373971 1.017450
1.162814 -9.269666 -0.817347
0.997314 -7.961600 1.559673
1.153488 -9.221383 -0.487038
1.150466 -9.210274 2.142884
0.816046 -6.542298 -0.115081
0.864383 -6.939678 1.873850
1.136679 -9.230863 0.162342
0.956337 -7.788739 0.411256
1.132802 -9.239258 0.814383
1.128089 -9.227487 1.141428
0.089964 -0.736954 -0.091158
0.805520 -6.608105 1.054368
0.079799 -0.654635 -0.057697
0.693868 -5.700445 1.116233
1.121051 -9.223372 -0.486934
0.829750 -6.836680 1.589954
0.788633 -6.507389 -0.114418
1.108446 -9.159698 2.472239
1.104450 -9.234774 0.162342
1.101304 -9.235806 0.487457
0.729769 -6.129130 0.540017
1.096575 -9.237283 1.142160
0.078045 -0.658412 -0.081409
0.662411 -5.596686 0.892615
0.070488 -0.595552 -0.052468
0.697008 -5.897801 1.154395
1.088614 -9.225243 -0.486829
0.803373 -6.818245 1.585005
0.762174 -6.478326 -0.113859
1.073536 -9.138570 2.465510
0.891931 -7.685237 0.135047
1.066991 -9.221738 0.486515
0.935882 -8.100970 0.713457
0.061796 -0.535726 -0.085413
1.062279 -9.223306 1.139966
0.075292 -0.654736 -0.080921
0.740215 -6.446756 1.027775
0.072045 -0.627465 -0.055257
1.055655 -9.208210 1.801619
1.054816 -9.215097 -0.486096
0.931809 -8.153069 1.894538
0.732528 -6.419356 -0.112777
1.039224 -9.121148 2.459816
0.858391 -7.628689 0.134000
0.875836 -7.808250 0.411779
0.896955 -8.009147 0.705090
0.883616 -7.915021 0.977880
0.075205 -0.674723 -0.083359
0.751352 -6.751643 1.075956
0.072499 -0.651475 -0.057348
1.022857 -9.205985 1.800474
0.827319 -7.457955 -0.393252
1.020256 -9.211882 2.139734
0.707260 -6.396036 -0.112324
1.007591 -9.126641 2.460334
1.003134 -9.204086 0.161609
0.850085 -7.825159 0.412512
0.873288 -8.051844 0.708576
0.704926 -6.520753 0.805313
0.069868 -0.647351 -0.079946
0.692228 -6.424271 1.023394
0.071505 -0.663609 -0.058394
0.990294 -9.205596 1.799711
0.989178 -9.210321 -0.485468
0.768911 -7.171183 1.665088
0.985462 -9.205996 -0.161609
0.975110 -9.124339 2.458781
0.783092 -7.425686 0.130335
0.837069 -7.977564 0.701778
0.063591 -0.607070 -0.096677
0.963572 -9.214181 1.137529
0.069256 -0.663386 -0.081896
0.961973 -9.214438 1.467355
0.068569 -0.657910 -0.057871
0.956327 -9.191422 1.796276
0.956196 -9.205772 -0.485050
0.953508 -9.195520 2.134336
0.799417 -7.709484 -0.135291
0.944649 -9.125600 2.458263
0.940056 -9.206723 0.161539
0.936307 -9.201794 0.484736
0.804594 -7.934847 0.697769
0.056397 -0.556180 -0.088542
0.652728 -6.448375 0.795807
0.067056 -0.663612 -0.081896
0.927623 -9.196121 1.463914
0.065673 -0.652198 -0.057348
0.927218 -9.208217 1.798947
0.925864 -9.210879 -0.485154
0.922426 -9.192814 2.132986
0.921780 -9.202541 -0.161435
0.912597 -9.126921 2.457746
0.908109 -9.211938 0.161574
0.729436 -7.426021 0.391054
0.664344 -6.775503 0.595622
0.063691 -0.650740 -0.103560
0.064354 -0.659890 -0.081409
0.783362 -8.047179 1.280573
0.061965 -0.636548 -0.055954
0.892355 -9.200140 -0.484422
0.889205 -9.184340 2.130286
0.686716 -7.105808 -0.124610
0.879248 -9.114667 2.453605
0.874812 -9.203108 0.161365
0.705206 -7.446417 0.391996
0.639751 -6.767863 0.594751
0.052512 -0.556560 -0.088542
0.755292 -8.020019 0.989092
0.062422 -0.664064 -0.081896
0.635878 -6.777383 1.078146
0.059743 -0.636760 -0.055954
0.860531 -9.189054 1.793986
0.860050 -9.201210 -0.484317
0.857503 -9.191269 2.131186
0.651338 -6.994670 -0.122621
0.846712 -9.109985 2.451534
0.628063 -6.887933 0.362479
0.700453 -7.696671 0.676154
0.051999 -0.572478 -0.091045
0.668147 -7.370201 0.908658
0.061177 -0.676140 -0.083359
0.578284 -6.403794 1.018389
0.057699 -0.638950 -0.056128
0.827746 -9.184180 1.792460
0.824717 -9.186442 2.129387
0.664573 -7.417152 -0.129986
0.814563 -9.109037 2.450499
0.536679 -6.097496 0.106844
0.599481 -6.838353 0.359757
0.676013 -7.726857 0.678595
0.054124 -0.619885 -0.098554
0.800953 -9.191879 1.132897
0.057784 -0.664483 -0.081896
0.798280 -9.198337 1.462350
0.056330 -0.649072 -0.057000
0.794666 -9.175278 1.790170
0.601789 -6.962451 -0.366247
0.791975 -9.181499 2.127587
0.792517 -9.206545 -0.161295
0.782761 -9.111826 2.450499
0.780411 -9.235676 0.161784
0.654038 -7.788732 0.683824
0.049321 -0.588575 -0.093548
0.767372 -9.176816 1.130704
0.056125 -0.672594 -0.082871
0.763545 -9.169569 1.457344
0.054725 -0.657206 -0.057697
0.762307 -9.174083 1.789407
0.761175 -9.179855 -0.482747
0.759922 -9.184207 2.127587
0.572132 -6.929362 -0.121364
0.750792 -9.112578 2.449981
0.556728 -6.874444 0.120387
0.604860 -7.501326 0.394404
0.738857 -9.183133 0.806016
0.047266 -0.588743 -0.093548
0.620097 -7.740884 0.953506
0.055042 -0.688616 -0.084821
0.731689 -9.174150 1.457657
0.051164 -0.641505 -0.056303
0.729190 -9.162989 1.786736
0.729601 -9.188430 -0.483061
0.621503 -7.844431 1.816705
0.725546 -9.177965 -0.160702
0.718066 -9.103587 2.446875
0.531647 -6.862389 0.120142
0.711893 -9.209850 0.484108
0.706339 -9.179697 0.805493
0.045210 -0.588905 -0.093548
0.704806 -9.201741 1.133141
0.053545 -0.700680 -0.086283
0.444328 -5.814359 0.923589
0.048470 -0.635720 -0.055780
0.696902 -9.161563 1.785972
0.696615 -9.178971 -0.482433
0.695638 -9.187346 2.127137
0.694653 -9.174338 -0.160597
0.687582 -9.102066 2.445840
0.680834 -9.183393 0.160737
0.678271 -9.192361 0.483061
0.673855 -9.176145 0.804970
0.044704 -0.608752 -0.096677
0.528668 -7.216323 0.888428
0.050932 -0.696894 -0.085796
0.430206 -5.900591 0.937043
0.047406 -0.651782 -0.057174
0.565544 -7.775544 1.515405
0.532909 -7.344586 -0.385925
0.664324 -9.177939 2.124438
0.663058 -9.182691 -0.160702
0.655529 -9.100556 2.444805
0.648209 -9.177737 0.160597
0.646040 -9.192681 0.482956
0.513149 -7.320006 0.641989
0.043130 -0.616787 -0.097928
0.495463 -7.103267 0.874291
0.048775 -0.701028 -0.086283
0.637729 -9.189079 1.458908
0.044718 -0.645981 -0.056651
0.506169 -7.330462 -0.385088
0.631078 -9.162706 2.120389
0.630450 -9.176970 -0.160562
0.623230 -9.095080 2.442734
0.615634 -9.171962 0.160457
0.447753 -6.705845 0.352221
0.608852 -9.166710 0.803750
0.042436 -0.640593 -0.101682
0.489429 -7.388202 0.909145
0.049207 -0.744771 -0.091646
0.498105 -7.559177 1.199852
0.042986 -0.654085 -0.057348
0.599385 -9.144850 1.781393
0.065009 -0.994510 -0.052231
0.597237 -9.161068 2.119489
0.475869 -7.299391 -0.127682
0.591227 -9.093345 2.441699
0.582012 -9.174157 0.160457
0.416884 -6.607777 0.346987
0.577226 -9.174746 0.804273
0.042426 -0.676225 -0.107314
0.408179 -6.524153 0.802632
0.049690 -0.796459 -0.097983
0.488305 -7.848800 1.245531
0.039960 -0.642300 -0.056303
0.566974 -9.139048 1.779866
0.059811 -0.966822 -0.050766
0.466746 -7.566217 1.750119
0.399143 -6.488746 -0.113476
0.557304 -9.085810 2.439111
0.549028 -9.160164 0.160178
0.432782 -7.263132 0.381320
0.544252 -9.160793 0.802879
0.036795 -0.621155 -0.098554
0.541999 -9.176970 1.128754
0.047843 -0.812480 -0.099933
0.426171 -7.258863 1.151671
0.037251 -0.634480 -0.055605
0.535872 -9.154690 1.782538
0.056901 -0.975001 -0.051185
0.413505 -7.106728 1.643492
0.531209 -9.157208 -0.160108
0.525251 -9.081913 2.437558
0.412152 -7.303266 0.127682
0.380535 -6.764007 0.355047
0.380255 -6.801358 0.595971
0.035066 -0.629169 -0.099805
0.508419 -9.151059 1.125342
0.044568 -0.804714 -0.098958
0.398929 -7.203037 1.142597
0.035365 -0.640574 -0.056128
0.503050 -9.140823 1.779485
0.053388 -0.973199 -0.051080
0.501166 -9.164873 2.119039
0.425720 -7.785182 -0.136094
0.495656 -9.093250 2.440146
0.334510 -6.340469 0.332752
0.479763 -9.154421 0.802007
0.032772 -0.625336 -0.099179
0.386123 -7.392332 0.908902
0.041899 -0.804858 -0.098958
0.474804 -9.151464 1.451399
0.033849 -0.654622 -0.057348
0.472532 -9.138520 1.778722
0.049852 -0.967387 -0.050766
0.363223 -7.072401 1.634944
0.469479 -9.172595 -0.160318
0.462928 -9.075631 2.434970
0.371250 -7.483656 0.130788
0.313062 -6.355562 0.333485
0.362864 -7.392828 0.647567
0.030011 -0.613609 -0.097302
0.323888 -6.646142 0.817012
0.035238 -0.725689 -0.089208
0.442474 -9.145173 1.450148
0.031582 -0.652740 -0.057174
0.439780 -9.122466 1.775287
0.046379 -0.965560 -0.050661
0.337602 -7.054160 1.630445
0.436506 -9.154203 -0.159969
0.431062 -9.073333 2.433934
0.356177 -7.724616 0.134977
5.480358 -119.764145 6.283142
0.334697 -7.342300 0.643035
0.030377 -0.668963 -0.106063
0.331455 -7.327424 0.900615
0.033241 -0.737706 -0.090671
0.410106 -9.136795 1.448583
0.028946 -0.644885 -0.056477
0.408022 -9.125906 1.775669
0.042031 -0.943768 -0.049510
0.405297 -9.136453 2.111391
0.026393 -0.597326 -0.010437
0.398708 -9.059342 2.429793
0.262296 -6.155476 0.107542
0.387425 -9.167225 0.480863
0.310489 -7.377264 0.645998
0.028042 -0.669065 -0.106063
0.287249 -6.882279 0.845773
0.033139 -0.797319 -0.097983
0.258376 -6.242773 0.989605
0.027106 -0.654935 -0.057348
0.304617 -7.391268 1.437937
0.029810 -0.726391 -0.038101
0.275935 -6.752596 1.560261
0.026097 -0.641372 -0.011204
0.366848 -9.054888 2.428240
3.665273 -93.704063 1.636861
0.354496 -9.144573 0.479607
0.025252 -0.657316 -0.104185
0.254501 -6.655121 0.817743
0.031564 -0.829168 -0.101883
0.269792 -7.120075 1.128518
0.029120 -0.768511 -0.067284
0.344079 -9.122646 1.774524
0.024277 -0.646656 -0.033914
0.341212 -9.131270 2.109591
0.026087 -0.701408 -0.012252
0.335452 -9.061906 2.429793
2.871337 -80.610596 1.407955
0.202964 -5.754520 0.301769
0.139412 -3.972372 0.347751
0.025301 -0.724522 -0.114823
0.231821 -6.671840 0.819693
0.030658 -0.886807 -0.108951
0.235838 -6.856429 1.086594
0.032739 -0.951799 -0.083321
0.312300 -9.125753 1.774905
0.022020 -0.646737 -0.033914
0.226477 -6.686191 1.544514
0.019463 -0.577584 -0.010087
0.303495 -9.053367 2.427205
0.016340 -0.505881 -0.135621
0.023436 -0.729513 0.012740
0.290012 -9.126863 0.478560
0.023725 -0.750756 0.065715
0.023889 -0.760145 -0.120455
0.210700 -6.742053 0.828224
0.027624 -0.888892 -0.109195
0.221666 -7.173120 1.136653
0.025047 -0.810516 -0.070945
0.280021 -9.113052 1.772234
0.019762 -0.646810 -0.033914
0.277043 -9.119795 2.106442
0.020647 -0.683584 -0.011937
0.271891 -9.054371 2.427205
0.020889 -0.729590 0.012740
0.258660 -9.145787 0.479502
2.543046 -90.476532 7.918796
0.020132 -0.720731 -0.114197
0.253702 -9.139815 1.122661
0.025123 -0.910811 -0.111876
0.190076 -6.934919 1.098796
0.026311 -0.959971 -0.084018
0.248851 -9.137525 1.776813
0.017396 -0.642882 -0.033704
0.245101 -9.116811 2.105542
0.025468 -0.953515 -0.016650
0.239925 -9.041747 2.423582
0.017337 -0.689677 0.012042
0.227328 -9.170594 0.480758
0.017698 -0.719035 0.062926
0.017616 -0.720797 -0.114197
0.179758 -7.408169 0.909877
0.022613 -0.938676 -0.115288
0.218197 -9.123631 1.445455
0.022151 -0.926196 -0.081055
0.216067 -9.101046 1.769563
0.015293 -0.648929 -0.034018
0.212958 -9.103973 2.102393
0.016756 -0.721696 -0.012601
0.208095 -9.030941 2.420476
0.011041 -0.506025 -0.135621
0.017007 -0.785696 0.013718
0.016712 -0.784745 0.041136
0.015273 -0.723076 0.063275
0.015100 -0.720854 -0.114197
0.152207 -7.327380 0.899883
0.019500 -0.946688 -0.116263
0.186309 -9.122363 1.445142
0.019040 -0.932244 -0.081578
0.136206 -6.726694 1.307805
0.012707 -0.633004 -0.033181
0.181138 -9.102713 2.101943
0.013605 -0.689761 -0.012042
0.176608 -9.033544 2.420993
0.008921 -0.486745 -0.130445
0.012304 -0.677785 0.011833
0.012266 -0.688945 0.036112
0.012749 -0.723125 0.063275
0.013066 -0.748554 -0.118577
0.157361 -9.106245 1.118273
0.014837 -0.867358 -0.106514
0.120020 -7.088612 1.122887
0.015077 -0.890471 -0.077917
0.152591 -9.106258 1.770326
0.010431 -0.629050 -0.032972
0.149171 -9.091599 2.099243
0.011230 -0.691804 -0.012077
0.145012 -9.030242 2.419958
0.007165 -0.482910 -0.129410
0.009880 -0.673825 0.011763
0.009981 -0.688982 0.036112
0.010365 -0.733126 0.064147
0.010508 -0.752545 -0.119203
0.125709 -9.116663 1.119492
0.012234 -0.887252 -0.108951
0.123941 -9.103667 1.442013
0.012263 -0.912432 -0.079835
0.120855 -9.110662 1.771089
0.008209 -0.627086 -0.032867
0.008807 -0.681839 -0.011903
0.115065 -9.030673 2.419958
0.007373 -0.649859 0.011344
0.007741 -0.693006 0.036321
0.007524 -0.695303 0.060835
0.007929 -0.744675 -0.117952
0.009146 -0.873393 -0.107245
0.093793 -9.107979 1.442639
0.008733 -0.862660 -0.075477
0.090681 -9.114939 1.771852
0.006227 -0.637095 -0.033390
0.088909 -9.096286 2.100143
0.006411 -0.667868 -0.011658
0.085008 -9.019415 2.416852
0.005378 -0.669876 0.011693
0.005200 -0.677051 0.035484
0.005099 -0.679386 0.059440
0.005604 -0.764450 -0.121080
0.055869 -7.807168 0.958624
0.006112 -0.875404 -0.107489
0.049656 -7.294897 1.155425
0.005954 -0.874639 -0.076523
0.060260 -9.085741 1.766128
0.004140 -0.641107 -0.033600
0.057108 -9.088745 2.098343
0.003982 -0.651889 -0.011379
0.038404 -6.471589 1.734088
0.002294 -0.486821 -0.130445
0.003022 -0.665892 0.011623
0.002953 -0.705026 0.036949
0.002775 -0.691354 0.060486
0.002844 -0.740761 -0.117326
0.027960 -7.628658 0.936688
0.003104 -0.889316 -0.109195
0.024060 -7.255519 1.149168
0.002484 -0.749134 -0.065541
0.028538 -9.083934 1.765747
0.001873 -0.631131 -0.033076
0.025321 -9.067453 2.093395
0.001754 -0.669896 -0.011693
0.022073 -9.033312 2.420476
0.000604 -0.494554 -0.132515
0.000693 -0.661899 0.011553
0.000473 -0.677071 0.035484
0.000362 -0.691359 0.060486
0.000270 -0.772372 -0.122332
0.001587 -9.087752 1.115836
-0.000000 -0.875426 -0.107489
-0.001586 -9.092659 1.440136
-0.000296 -0.848758 -0.074257
-0.004756 -9.083978 1.765747
-0.000435 -0.623145 -0.032658
-0.006325 -9.059691 2.091595
-0.000593 -0.679896 -0.011868
-0.006817 -6.510337 1.744440
-0.001208 -0.494553 -0.132515
-0.001738 -0.663897 0.011588
-0.002021 -0.681062 0.035693
-0.002184 -0.695340 0.060835
-0.002417 -0.728910 -0.115449
-0.031763 -9.099607 1.117298
-0.003267 -0.891300 -0.109439
-0.034891 -9.086667 1.439197
-0.002807 -0.699323 -0.061183
-0.038034 -9.079972 1.764983
-0.002763 -0.633125 -0.033181
-0.039505 -9.053761 2.090245
-0.002985 -0.657893 -0.011484
-0.042496 -9.017784 2.416335
-0.002997 -0.490681 -0.131480
-0.004272 -0.679883 0.011868
-0.004463 -0.691037 0.036216
-0.004570 -0.671420 0.058743
-0.005309 -0.760502 -0.120455
-0.053964 -7.541173 0.925963
-0.006293 -0.879373 -0.107976
-0.066579 -9.082539 1.438571
-0.004785 -0.637547 -0.055780
-0.069729 -9.079783 1.764983
-0.004973 -0.633112 -0.033181
-0.071046 -9.045774 2.088446
-0.005137 -0.639882 -0.011170
-0.053975 -6.579666 1.763075
-0.004625 -0.490669 -0.131480
-0.006277 -0.653870 0.011414
-0.006793 -0.695013 0.036426
-0.006232 -0.615617 0.053862
-0.007750 -0.752579 -0.119203
-0.009417 -0.899198 -0.110414
-0.096614 -9.074368 1.437320
-0.008451 -0.780971 -0.068330
-0.099795 -9.075577 1.764220
-0.007094 -0.635089 -0.033286
-0.100999 -9.041591 2.087546
-0.007123 -0.627864 -0.010960
-0.103631 -8.996037 2.410641
-0.006449 -0.506104 -0.135621
-0.008342 -0.645848 0.011274
-0.009034 -0.681005 0.035693
-0.008809 -0.655437 0.057348
-0.010299 -0.756499 -0.119829
-0.125135 -9.074979 1.114373
-0.012445 -0.891220 -0.109439
-0.128344 -9.077925 1.437946
-0.012660 -0.884530 -0.077394
-0.129834 -9.071270 1.763457
-0.009084 -0.627074 -0.032867
-0.132332 -9.025596 2.083947
-0.009878 -0.665825 -0.011623
-0.134975 -8.991757 2.409606
-0.008303 -0.506077 -0.135621
-0.010596 -0.645815 0.011274
-0.011344 -0.676976 0.035484
-0.011552 -0.675321 0.059092
-0.013208 -0.764357 -0.121080
-0.156914 -9.080442 1.115105
-0.014828 -0.849490 -0.104320
-0.160031 -9.077421 1.437946
-0.016528 -0.928306 -0.081229
-0.163046 -9.068769 1.763075
-0.011383 -0.627036 -0.032867
-0.165196 -9.013359 2.081247
-0.012386 -0.675784 -0.011798
-0.166290 -8.987368 2.408570
-0.009839 -0.494456 -0.132515
-0.013164 -0.655768 0.011449
-0.013990 -0.690910 0.036216
-0.014114 -0.685237 0.059963
-0.015302 -0.736657 -0.116700
-0.190195 -9.079805 1.115105
-0.019408 -0.918893 -0.112851
-0.154049 -7.293440 1.155425
-0.020617 -0.968082 -0.084715
-0.194742 -9.070108 1.763457
-0.013658 -0.630986 -0.033076
-0.196489 -9.004933 2.079448
-0.013916 -0.637751 -0.011135
-0.197532 -8.980938 2.407017
-0.015058 -0.643726 0.011239
-0.016686 -0.702837 0.036845
-0.015882 -0.659290 0.057697
-0.017745 -0.736602 -0.116700
-0.219967 -9.065234 1.113398
-0.022359 -0.914854 -0.112364
-0.174160 -7.075632 1.121009
-0.022021 -0.888333 -0.077743
-0.224673 -9.063525 1.762312
-0.015800 -0.632934 -0.033181
-0.226201 -8.998388 2.078098
-0.015737 -0.621706 -0.010855
-0.228684 -8.972469 2.404947
-0.012998 -0.486653 -0.130445
-0.451321 -16.787378 0.293131
-0.019411 -0.712757 0.037368
-0.018178 -0.663217 0.058046
-0.020098 -0.728637 -0.115449
-0.205781 -7.413449 0.910608
-0.025552 -0.914771 -0.112364
-0.254913 -9.069324 1.437007
-0.023826 -0.842444 -0.073734
-0.256142 -9.056798 1.761167
-0.017896 -0.628882 -0.032972
-0.258001 -9.011180 2.081247
-0.018022 -0.625645 -0.010925
-0.259946 -8.969686 2.404429
-0.015017 -0.494326 -0.132515
-0.019309 -0.635610 0.011100
-0.021899 -0.712685 0.037368
-0.020732 -0.667128 0.058394
-0.022645 -0.724610 -0.114823
-0.283372 -9.067445 1.113886
-0.028745 -0.914676 -0.112364
-0.218561 -6.916292 1.095980
-0.022147 -0.696985 -0.061009
-0.289085 -9.047949 1.759641
-0.020008 -0.622824 -0.032658
-0.290461 -8.992643 2.077198
-0.021304 -0.659556 -0.011519
-0.016480 -0.486548 -0.130445
-0.024182 -0.706616 0.037054
-0.023267 -0.673026 0.058917
-0.025998 -0.748216 -0.118577
-0.267069 -7.647870 0.939613
-0.031522 -0.902667 -0.110901
-0.318776 -9.083117 1.439510
-0.023246 -0.659071 -0.057697
-0.320458 -9.040999 1.758496
-0.022182 -0.622750 -0.032658
-0.320003 -8.983842 2.075398
-0.023391 -0.653482 -0.011414
-0.322837 -8.975374 2.406500
-0.026150 -0.696553 0.036530
-0.025876 -0.682900 0.059789
-0.029230 -0.767865 -0.121706
-0.272857 -7.135162 0.876728
-0.032618 -0.852966 -0.104808
-0.347379 -9.042531 1.433253
-0.025431 -0.658990 -0.057697
-0.350742 -9.047733 1.760022
-0.024713 -0.634647 -0.033286
-0.349261 -8.969100 2.072249
-0.024776 -0.633419 -0.011065
-0.352447 -8.970393 2.405464
-3.379121 -83.048630 1.450819
-0.028297 -0.692471 0.036321
-0.026828 -0.650959 0.057000
-0.031776 -0.767764 -0.121706
-0.376644 -9.062063 1.113642
-0.035777 -0.860787 -0.105783
-0.377116 -9.035408 1.432314
-0.027199 -0.648949 -0.056826
-0.380660 -9.044559 1.759641
-0.026818 -0.634562 -0.033286
-0.379496 -8.979574 2.074948
-0.026283 -0.619348 -0.010820
-0.381698 -8.957595 2.402359
-0.021151 -0.482500 -0.129410
-4.090513 -92.943863 1.623911
-0.030505 -0.690378 0.036216
-0.029518 -0.662809 0.058046
-0.033616 -0.751867 -0.119203
-0.407227 -9.072663 1.115105
-0.038453 -0.856697 -0.105295
-0.309175 -6.861423 1.087845
-0.028901 -0.638904 -0.055954
-0.411007 -9.051092 1.761167
-0.028740 -0.630479 -0.033076
-0.408828 -8.968533 2.072699
-0.029251 -0.639234 -0.011170
-0.410957 -8.946630 2.399770
-0.033826 -0.704221 0.036949
-0.031564 -0.654736 0.057348
-0.035226 -0.728062 -0.115449
-0.313774 -6.461802 0.794344
-0.042902 -0.880336 -0.108220
-0.443595 -9.069965 1.438259
-0.032313 -0.660684 -0.057871
-0.443601 -9.037759 1.758877
-0.030952 -0.628375 -0.032972
-0.443356 -8.968844 2.073149
-0.031606 -0.637119 -0.011135
-0.445692 -8.952705 2.401841
-0.032811 -0.641063 0.011204
-0.035359 -0.686147 0.036007
-0.033437 -0.646663 0.056651
-0.039610 -0.763444 -0.121080
-0.470796 -9.043745 1.111936
-0.043075 -0.824674 -0.101395
-0.473288 -9.030881 1.432314
-0.034619 -0.660567 -0.057871
-0.474939 -9.032235 1.758114
-0.033146 -0.628263 -0.032972
-0.474146 -8.957510 2.070899
-0.035103 -0.660968 -0.011553
-0.476939 -8.951095 2.401841
-0.035267 -0.644938 0.011274
-0.037754 -0.686019 0.036007
-0.036353 -0.658478 0.057697
-0.040308 -0.727799 -0.115449
-0.502033 -9.036100 1.111205
-0.045953 -0.824519 -0.101395
-0.505801 -9.046926 1.435130
-0.036702 -0.656463 -0.057523
-0.506136 -9.024641 1.756969
-0.035787 -0.636120 -0.033390
-0.505411 -8.955801 2.070899
-0.036279 -0.640876 -0.011204
-0.508620 -8.957090 2.403911
-0.037634 -0.646807 0.011309
-0.041082 -0.701834 0.036845
-0.038185 -0.650391 0.057000
-0.043777 -0.743429 -0.117952
-0.407990 -6.907995 0.849673
-0.048596 -0.820390 -0.100908
-0.361884 -6.091198 0.966452
-0.038875 -0.654342 -0.057348
-0.537751 -9.024778 1.757351
-0.038008 -0.635991 -0.033390
-0.536087 -8.944256 2.068650
-0.037556 -0.624777 -0.010925
-0.538605 -8.934050 2.398217
-0.040015 -0.648668 0.011344
-0.030202 -0.488201 -0.112925
-0.044026 -0.709660 0.037263
-0.040702 -0.654231 0.057348
-0.044650 -0.715670 -0.113571
-0.052206 -0.832103 -0.102370
-0.446153 -7.091409 1.125390
-0.041022 -0.650219 -0.057000
-0.570329 -9.014911 1.755824
-0.040465 -0.637841 -0.033495
-0.567551 -8.946221 2.069550
-0.040245 -0.632625 -0.011065
-0.570156 -8.937897 2.399770
-0.041610 -0.636544 0.011135
-0.046234 -0.703515 0.036949
-0.043493 -0.660042 0.057871
-0.046231 -0.699733 -0.111068
-0.597155 -9.014398 1.109255
-0.053940 -0.812099 -0.099933
-0.600908 -9.023288 1.432314
-0.043671 -0.654040 -0.057348
-0.602580 -9.001007 1.753535
-0.041866 -0.623739 -0.032762
-0.600598 -8.947969 2.070450
-0.043906 -0.652425 -0.011414
-0.602781 -8.933821 2.399253
-0.044631 -0.646362 0.011309
-0.047172 -0.681432 0.035798
-0.046880 -0.673791 0.059092
-0.052369 -0.750794 -0.119203
-0.630329 -9.014129 1.109499
-0.055112 -0.788142 -0.097008
-0.634196 -9.046752 1.436381
-0.046372 -0.659846 -0.057871
-0.635375 -9.018432 1.757351
-0.044324 -0.627573 -0.032972
-0.631554 -8.941931 2.069550
-0.046465 -0.656257 -0.011484
-0.634099 -8.933589 2.399770
-0.047929 -0.662167 0.011588
-0.050154 -0.691232 0.036321
-0.050273 -0.689529 0.060486
-0.054283 -0.742736 -0.117952
-0.661087 -9.023868 1.110961
-0.058596 -0.799834 -0.098470
-0.499989 -6.808568 1.081275
-0.048268 -0.655714 -0.057523
-0.665278 -9.016274 1.757351
-0.046405 -0.627423 -0.032972
-0.661058 -8.937843 2.069100
-0.047607 -0.642140 -0.011239
-0.663863 -8.933364 2.400288
-0.049823 -0.658016 0.011519
-0.052416 -0.689061 0.036216
-0.050439 -0.661546 0.058046
-0.056143 -0.734674 -0.116700
-0.690705 -9.017668 1.110474
-0.061387 -0.799624 -0.098470
-0.693943 -9.018591 1.432627
-0.050097 -0.649583 -0.057000
-0.694267 -9.002276 1.755061
-0.048794 -0.631248 -0.033181
-0.692405 -8.937425 2.069550
-0.048145 -0.620039 -0.010855
-0.694442 -8.923288 2.398217
-0.052593 -0.663818 0.011623
-0.055137 -0.692856 0.036426
-0.053815 -0.673273 0.059092
-0.058835 -0.734463 -0.116700
-0.722178 -9.015202 1.110474
-0.061954 -0.771703 -0.095058
-0.724469 -9.004301 1.430750
-0.052204 -0.647418 -0.056826
-0.726783 -8.993799 1.753916
-0.051752 -0.639028 -0.033600
-0.725946 -8.944537 2.071799
-0.051118 -0.629833 -0.011030
-0.724961 -8.913107 2.396147
-0.053043 -0.639707 0.011204
-0.057556 -0.692659 0.036426
-0.057159 -0.684994 0.060137
-0.059424 -0.710631 -0.112946
-0.753393 -8.990734 1.107792
-0.064450 -0.767515 -0.094571
-0.755564 -8.997780 1.430124
-0.054797 -0.651202 -0.057174
-0.756854 -8.975557 1.750863
-0.053309 -0.630883 -0.033181
-0.756834 -8.938066 2.070899
-0.054834 -0.647584 -0.011344
-0.757048 -8.922072 2.399253
-0.057226 -0.663435 0.011623
-0.058422 -0.674546 0.035484
-0.058514 -0.672881 0.059092
-0.063149 -0.726173 -0.115449
-0.783547 -8.992142 1.108280
-0.066304 -0.759386 -0.093596
-0.787657 -9.002959 1.431376
-0.057592 -0.656961 -0.057697
-0.788499 -8.994513 1.755061
-0.055401 -0.630702 -0.033181
-0.786299 -8.933566 2.070450
-0.058676 -0.665316 -0.011658
-0.787848 -8.915527 2.398217
-0.060436 -0.673190 0.011798
-0.059880 -0.664392 0.034960
-0.064329 -0.712369 0.062578
-0.064615 -0.714145 -0.113571
-0.816723 -9.009122 1.110717
-0.068236 -0.751243 -0.092621
-0.816929 -8.976548 1.427621
-0.059951 -0.658751 -0.057871
-0.820069 -8.993660 1.755443
-0.057602 -0.630505 -0.033181
-0.816589 -8.921063 2.068200
-0.057893 -0.631254 -0.011065
-0.819494 -8.918492 2.399770
-0.063343 -0.678948 0.011903
-0.062757 -0.670144 0.035274
-0.063465 -0.676434 0.059440
-0.067847 -0.721782 -0.114823
-0.592804 -6.294667 0.776308
-0.071604 -0.758905 -0.093596
-0.851978 -9.012974 1.433878
-0.061313 -0.648620 -0.057000
-0.851643 -8.992697 1.755824
-0.059426 -0.626324 -0.032972
-0.849201 -8.933679 2.071799
-0.061613 -0.646974 -0.011344
-0.850253 -8.911732 2.398735
-0.061858 -0.638915 0.011204
-0.068959 -0.709679 0.037368
-0.066212 -0.680174 0.059789
-0.069599 -0.713676 -0.113571
-0.616124 -6.306389 0.778014
-0.074253 -0.758650 -0.093596
-0.672550 -6.859196 1.091600
-0.063965 -0.652368 -0.057348
-0.881493 -8.974039 1.752772
-0.062785 -0.638038 -0.033600
-0.878850 -8.915146 2.068200
-0.066819 -0.676605 -0.011868
-0.881357 -8.908710 2.398735
-0.067682 -0.674510 0.011833
-0.070236 -0.697511 0.036740
-0.070186 -0.695798 0.061183
-0.072487 -0.717359 -0.114197
-0.909220 -8.982300 1.108524
-0.076900 -0.758387 -0.093596
-0.912082 -8.979293 1.429498
-0.066645 -0.656105 -0.057697
-0.911621 -8.959188 1.750482
-0.064202 -0.629868 -0.033181
-0.910756 -8.919779 2.070000
-0.067552 -0.660453 -0.011588
-0.913039 -8.911345 2.400288
-0.072102 -0.694159 0.012182
-0.081366 -0.780694 0.041136
-0.074269 -0.711402 0.062578
-0.072115 -0.689597 -0.109817
-0.942017 -8.992892 1.110230
-0.078304 -0.746268 -0.092133
-0.943835 -8.979983 1.430124
-0.069351 -0.659831 -0.058046
-0.946177 -8.987190 1.756588
-0.065772 -0.623681 -0.032867
-0.940454 -8.902979 2.066850
-0.071330 -0.674134 -0.011833
-0.943935 -8.906181 2.399770
-0.076233 -0.709809 0.012461
-0.972921 -9.029271 0.475943
-0.075469 -0.699253 0.061532
-0.077918 -0.720764 -0.114823
-0.972120 -8.977708 1.108767
-0.081765 -0.753884 -0.093108
-0.974747 -8.972707 1.429498
-0.070363 -0.647701 -0.057000
-0.976905 -8.977978 1.755443
-0.070112 -0.643303 -0.033914
-0.971525 -8.899642 2.066850
-0.071944 -0.657978 -0.011553
-0.975019 -8.902832 2.399770
-1.003826 -9.049107 0.158922
-1.002665 -9.009940 0.475106
-0.076585 -0.687104 0.060486
-0.073420 -0.657666 -0.104811
-1.004997 -8.988069 1.110474
-0.083954 -0.749649 -0.092621
-1.006503 -8.973175 1.430124
-0.072401 -0.645471 -0.056826
-1.008239 -8.974513 1.755443
-0.071241 -0.633130 -0.033390
-1.003021 -8.900069 2.067750
-0.073567 -0.651761 -0.011449
-1.005872 -8.897456 2.399253
-1.035862 -9.049520 0.158991
-1.033882 -9.004401 0.475001
-0.076252 -0.663081 0.058394
-0.073907 -0.641706 -0.102308
-1.037729 -8.996338 1.111936
-0.087482 -0.757239 -0.093596
-1.039863 -8.987267 1.432940
-0.075570 -0.653131 -0.057523
-1.037978 -8.957288 1.752772
-0.074832 -0.644781 -0.034018
-1.035432 -8.908128 2.070450
-0.076073 -0.653487 -0.011484
-1.036478 -8.890053 2.398217
-1.069319 -9.061737 0.159271
-1.074285 -9.090178 0.479711
-1.079052 -9.103255 0.802007
-0.078476 -0.661060 -0.105437
-1.078266 -9.069538 1.121442
-0.087777 -0.737217 -0.091158
-1.075499 -9.032807 1.440762
-0.077849 -0.652863 -0.057523
-1.073661 -8.990648 1.760022
-0.074948 -0.626668 -0.033076
-1.066520 -8.904460 2.070450
-0.078240 -0.653231 -0.011484
-1.067101 -8.896156 2.400805
-1.100809 -9.070052 0.159480
-1.103112 -9.062581 0.478455
-1.108891 -9.083611 0.800613
-0.082104 -0.672561 -0.107314
-1.109299 -9.073794 1.122417
-0.090222 -0.736922 -0.091158
-1.116157 -9.103505 1.452651
-0.080370 -0.654565 -0.057697
-1.113997 -9.072777 1.776813
-0.077025 -0.626416 -0.033076
-1.096519 -8.904742 2.071349
-1.120668 -9.087768 -0.159829
-1.099096 -8.900046 2.402876
-1.136134 -9.082656 0.479711
-1.146447 -9.139190 0.805842
-0.083466 -0.664431 -0.106063
-1.143444 -9.089562 1.124854
-0.092297 -0.732664 -0.090671
-1.143376 -9.076235 1.448896
-0.082541 -0.654295 -0.057697
-1.145414 -9.066886 1.776432
-0.080966 -0.640014 -0.033809
-1.126128 -8.889259 2.068650
-1.152307 -9.095904 -0.160039
-1.128360 -8.894437 2.402359
-1.166083 -9.090117 0.159969
-1.169106 -9.088540 0.480235
-1.173753 -9.099565 0.802704
-0.086680 -0.671987 -0.107314
-1.174089 -9.089659 1.125342
-0.094217 -0.728416 -0.090183
-0.885284 -6.834996 1.091600
-0.082774 -0.638196 -0.056303
-1.181535 -9.109764 1.785591
-0.084631 -0.651625 -0.034437
-1.155598 -8.885477 2.068650
-1.185082 -9.099759 -0.160178
-1.158901 -8.886614 2.401323
-1.197299 -9.069922 0.159690
-1.200837 -9.072313 0.479607
-1.203938 -9.083562 0.801659
-0.078746 -0.593336 -0.094799
-1.207395 -9.085294 1.125342
-0.097410 -0.732001 -0.090671
-1.215600 -9.122647 1.457657
-0.085640 -0.641838 -0.056651
-1.208685 -9.058668 1.776432
-0.089664 -0.671108 -0.035484
-1.189966 -8.894703 2.071799
-1.217365 -9.087426 -0.160039
-1.191208 -8.880390 2.400805
-1.228146 -9.059742 0.159585
-1.234112 -9.079942 0.480235
-1.237760 -9.083036 0.802007
-0.081455 -0.596958 -0.095425
-1.240175 -9.088892 1.126317
-0.099427 -0.727723 -0.090183
-1.249044 -9.130092 1.459534
-0.088961 -0.649431 -0.057348
-1.248280 -9.100859 1.785591
-0.092395 -0.672753 -0.035588
-1.222293 -8.888350 2.071349
-1.248533 -9.079160 -0.159969
-1.222461 -8.878093 2.401323
-1.264654 -9.078947 0.160004
-1.266553 -9.069422 0.479921
-1.270563 -9.086553 0.802704
-0.088468 -0.631884 -0.101057
-1.274029 -9.088217 1.126804
-0.099886 -0.711627 -0.088233
-1.280299 -9.109802 1.457031
-0.092059 -0.655036 -0.057871
-1.278399 -9.084782 1.783301
-0.103660 -0.735714 -0.038938
-1.251679 -8.872452 2.068650
-1.281243 -9.070562 -0.159899
-1.254993 -8.873553 2.401323
-1.296337 -9.074477 0.160004
-1.298488 -9.066923 0.480025
-1.303404 -9.089952 0.803402
-0.090673 -0.631571 -0.101057
-1.304617 -9.075854 1.125829
-0.098976 -0.687696 -0.085309
-1.309273 -9.085727 1.453902
-0.094345 -0.654711 -0.057871
-1.311786 -9.091923 1.785591
-0.095376 -0.660231 -0.034960
-1.281526 -8.860314 2.066850
-1.310317 -9.048223 -0.159585
-1.287346 -8.878676 2.403911
-1.329453 -9.079790 0.160178
-1.330129 -9.062335 0.480025
-1.333969 -9.077461 0.802704
-0.088852 -0.603890 -0.096677
-1.336289 -9.071245 1.125829
-0.100797 -0.683419 -0.084821
-1.340403 -9.077193 1.453276
-0.094593 -0.640580 -0.056651
-1.347534 -9.114479 1.790933
-0.100605 -0.679652 -0.036007
-1.314733 -8.871208 2.070450
-1.343360 -9.053485 -0.159759
-1.316912 -8.864575 2.401323
-1.358471 -9.057296 0.159864
-0.074373 -0.495273 -0.115625
-1.363535 -9.069488 0.480653
-1.368019 -9.088511 0.804099
-0.095080 -0.630923 -0.101057
-1.366169 -9.054749 1.124367
-0.099624 -0.659509 -0.081896
-1.373852 -9.084177 1.455153
-0.096232 -0.636306 -0.056303
-1.378167 -9.101954 1.789407
-0.105371 -0.695094 -0.036845
-1.346860 -8.874272 2.072249
-1.375557 -9.052694 -0.159829
-1.347266 -8.856104 2.400288
-1.389774 -9.050523 0.159829
-1.392997 -9.060968 0.480444
-1.398520 -9.075804 0.803402
-0.093065 -0.603255 -0.096677
-1.399586 -9.061695 1.125829
-0.103745 -0.670928 -0.083359
-1.405177 -9.087380 1.456405
-0.099367 -0.641873 -0.056826
-1.406321 -9.073807 1.784827
-0.105653 -0.680906 -0.036112
-1.377530 -8.867591 2.071799
-1.404954 -9.044130 -0.159759
-1.376626 -8.851587 2.400288
-1.420709 -9.051791 0.159934
-1.422755 -9.044211 0.479816
-1.430814 -9.074802 0.803750
-0.095065 -0.602943 -0.096677
-1.425914 -9.033475 1.122904
-0.107209 -0.678423 -0.084334
-1.443680 -9.125343 1.463288
-0.102854 -0.649394 -0.057523
-4.059213 -25.628868 5.043845
-0.106972 -0.674634 -0.035798
-1.405401 -8.853352 2.069550
-1.439654 -9.058921 -0.160108
-1.409338 -8.858175 2.403394
-0.079526 -0.495946 -0.134586
-1.451346 -9.040854 0.159829
-1.455586 -9.047079 0.480235
-1.462801 -9.081810 0.804796
-0.099056 -0.614309 -0.098554
-1.463131 -9.063717 1.127291
-0.107676 -0.666287 -0.082871
-1.466059 -9.061749 1.453902
-0.108189 -0.668717 -0.059266
-1.468678 -9.067901 1.785591
-0.110286 -0.680171 -0.036112
-1.436609 -8.850315 2.070000
-1.466135 -9.022260 -0.159550
-1.441180 -8.858923 2.404947
-1.484192 -9.043625 0.159969
-1.489426 -9.055737 0.480967
-1.489961 -9.049127 0.802356
-0.092847 -0.563283 -0.090419
-1.491529 -9.038969 1.124854
-0.111295 -0.673741 -0.083846
-1.503483 -9.091657 1.459534
-0.108572 -0.656541 -0.058220
-1.499041 -9.054971 1.784064
-0.113639 -0.685693 -0.036426
-1.469088 -8.854858 2.072249
-1.500897 -9.036814 -0.159899
-1.469876 -8.840499 2.401323
-1.514758 -9.032473 0.159864
-1.518787 -9.046809 0.480758
-1.522199 -9.047800 0.802704
-0.103342 -0.613602 -0.098554
-1.525052 -9.045451 1.126317
-0.111664 -0.661604 -0.082384
-1.531651 -9.074935 1.457657
-0.108540 -0.642407 -0.057000
-1.531294 -9.053555 1.784827
-0.118699 -0.701046 -0.037263
-1.500639 -8.853519 2.073149
-1.532860 -9.043616 -0.160108
-1.499507 -8.837480 2.401841
-1.546389 -9.037255 0.160039
-1.551031 -9.045389 0.480967
-1.555124 -9.050285 0.803402
-0.098686 -0.574319 -0.092296
-1.555712 -9.044257 1.126804
-0.112510 -0.653405 -0.081409
-1.563991 -9.073425 1.458282
-0.115863 -0.671474 -0.059615
-1.559305 -9.036818 1.782538
-0.115924 -0.671127 -0.035693
-1.529991 -8.848495 2.073149
-1.565783 -9.046092 -0.160248
-1.529357 -8.826481 2.400288
-1.578614 -9.035742 0.160108
-1.579497 -9.022215 0.480025
-1.586502 -9.052929 0.804099
-0.102738 -0.585645 -0.094174
-1.585900 -9.030951 1.125829
-0.118227 -0.672559 -0.083846
-1.597022 -9.075693 1.459534
-0.117515 -0.667141 -0.059266
-1.590840 -9.031321 1.782538
-0.112023 -0.635314 -0.033809
-1.558158 -8.827747 2.069550
-1.596655 -9.036633 -0.160178
-1.560831 -8.824894 2.401323
-1.610146 -9.030177 0.160108
-1.611683 -9.020579 0.480235
-1.620374 -9.050976 0.804447
-0.109762 -0.612486 -0.098554
-1.616014 -9.017545 1.124854
-0.121976 -0.679958 -0.084821
-1.627996 -9.066174 1.458908
-0.119138 -0.662805 -0.058917
-1.631579 -9.067939 1.790933
-1.538248 -8.540670 -0.454800
-1.593270 -8.837319 2.073149
-1.640252 -9.097916 -0.161365
-1.593684 -8.830799 2.404429
-1.644307 -9.030116 0.160213
-1.646167 -9.022470 0.480653
-1.649811 -9.033504 0.803402
-0.111900 -0.612099 -0.098554
-1.653341 -9.034993 1.127779
-0.127329 -0.695127 -0.086771
-1.659788 -9.052375 1.457657
-0.118576 -0.646708 -0.057523
-1.670311 -9.100808 1.798566
-1.568051 -8.535249 -0.454800
-1.622697 -8.824038 2.071349
