# This PCD file was generated using the MATLAB® pcwrite function
# from Computer Vision Toolbox®.
# .PCD v.7 - Point Cloud Data file format
VERSION .7
FIELDS x y z
SIZE 4 4 4
TYPE F F F
COUNT 1 1 1
WIDTH 1661
HEIGHT 1
VIEWPOINT 0 0 0 1 0 0 0
POINTS 1661
DATA ascii
5.809296 -4.602741 -0.648439
5.805471 -4.601359 -0.388228
40.326641 -31.973961 11.881464
5.702841 -4.523258 -0.127054
3.677901 -2.926582 -1.259413
5.681646 -4.521005 0.126739
3.865055 -3.076607 -1.140502
5.652836 -4.501303 0.378703
4.683596 -3.730842 -1.163935
5.793303 -4.616462 0.648090
5.460364 -4.352713 -1.105992
5.930339 -4.729046 -0.931326
5.802537 -4.630447 -0.649485
5.801053 -4.632577 -0.389066
40.270081 -32.170204 11.899461
5.694829 -4.549378 -0.127228
3.675200 -2.945443 -1.262002
5.661918 -4.539297 0.126670
3.841591 -3.080998 -1.136903
5.633973 -4.518508 0.378494
4.672076 -3.748397 -1.164317
5.781816 -4.640397 0.648613
5.445137 -4.371747 -1.105992
5.877375 -4.722153 -0.925720
7.525657 -6.048621 -0.844713
5.794185 -4.660309 -0.389694
40.303299 -32.427853 11.942652
5.682030 -4.571736 -0.127298
3.661889 -2.955827 -1.260966
5.654613 -4.564327 0.126844
3.837417 -3.098618 -1.138702
5.624380 -4.543167 0.378912
4.665071 -3.769618 -1.165843
5.771780 -4.665561 0.649310
5.445972 -4.402198 -1.109120
6.457420 -5.223519 -1.019803
7.547858 -6.109954 -0.849594
5.865619 -4.749885 -0.395555
40.216743 -32.578495 11.948951
5.670698 -4.595319 -0.127403
3.653566 -2.969173 -1.261484
5.654163 -4.596653 0.127193
3.829602 -3.114453 -1.139602
5.619333 -4.571595 0.379645
4.644931 -3.778872 -1.163935
5.774820 -4.699767 0.651402
5.418317 -4.411204 -1.106618
6.451459 -5.256059 -1.021753
7.952274 -6.481095 -0.897530
5.867577 -4.785479 -0.396811
40.178272 -32.780277 11.971445
5.656172 -4.616350 -0.127437
3.629725 -2.970896 -1.256825
5.658197 -4.632830 0.127647
3.788555 -3.103105 -1.130604
5.609521 -4.596246 0.380064
3.779780 -3.097021 -0.949847
3.774536 -3.094926 -0.773099
3.616351 -2.981090 -1.255790
3.744357 -3.087707 0.084714
3.741621 -3.086549 -1.119806
3.753804 -3.097700 -0.946031
3.725992 -3.075842 0.422705
3.745431 -3.092989 -0.769345
3.757188 -3.103801 0.598379
3.739814 -3.090546 -0.595697
3.701182 -3.059708 0.760584
3.702345 -3.060670 -0.420265
3.714248 -3.071602 0.936872
3.696473 -3.057988 -0.251422
3.649693 -3.020362 1.093712
3.730720 -3.088514 -0.084539
3.631896 -3.007770 1.263555
3.613356 -2.999866 -1.258378
3.733556 -3.100759 0.084714
3.721831 -3.092119 -1.117107
3.694133 -3.070197 0.251736
3.718810 -3.090707 -0.939925
3.684592 -3.063355 0.419219
3.713349 -3.088360 -0.764965
3.685291 -3.066113 0.588629
3.695436 -3.075645 -0.590335
3.654045 -3.042275 0.753076
3.697764 -3.078674 -0.420962
3.667298 -3.054394 0.927713
3.673500 -3.060645 -0.250585
3.624158 -3.020606 1.089213
3.698414 -3.083590 -0.084051
3.616925 -3.016718 1.262002
3.601380 -3.011221 -1.257861
3.655219 -3.057322 0.083178
3.705037 -3.100090 -1.115307
3.655826 -3.059999 0.249852
3.701977 -3.098628 -0.938399
3.661655 -3.065965 0.417825
3.687403 -3.088619 -0.761836
3.641092 -3.050910 0.583267
3.663379 -3.070673 -0.586923
3.631294 -3.044858 0.750573
3.673254 -3.080042 -0.419393
3.647589 -3.059606 0.925424
3.668914 -3.078584 -0.251003
3.603144 -3.024468 1.086064
3.660062 -3.073335 -0.083423
3.597497 -3.021870 1.258896
3.593802 -3.026263 -1.258896
3.641466 -3.067485 0.083108
3.691213 -3.110492 -1.114408
3.635959 -3.065017 0.249224
3.685135 -3.106470 -0.936872
3.632653 -3.063315 0.415733
3.682639 -3.106566 -0.763087
3.636488 -3.068722 0.584242
3.679942 -3.106491 -0.591310
3.620643 -3.057515 0.750573
3.664003 -3.094131 -0.419568
3.630888 -3.067252 0.923897
3.653569 -3.087505 -0.250689
3.597029 -3.040801 1.087413
3.652366 -3.088675 -0.083492
3.591351 -3.038152 1.260449
3.578797 -3.035040 -1.257343
3.633786 -3.082765 0.083178
3.698162 -3.138489 -1.119806
3.635896 -3.086739 0.249957
3.680255 -3.124397 -0.938399
3.615864 -3.070818 0.415036
3.695860 -3.139866 -0.768093
3.625754 -3.081397 0.584242
3.690249 -3.137318 -0.594722
3.612957 -3.072693 0.751198
3.653180 -3.106901 -0.419568
3.620159 -3.079907 0.923897
3.653417 -3.109301 -0.251422
3.598263 -3.063445 1.091013
3.635473 -3.096218 -0.083353
3.577783 -3.048164 1.259413
3.571119 -3.050024 -1.258378
3.656451 -3.124008 0.083946
3.699035 -3.161509 -1.123406
3.632690 -3.105901 0.250480
3.663358 -3.132122 -0.936872
3.626320 -3.101551 0.417476
3.699887 -3.165590 -0.771222
3.614976 -3.094034 0.584242
3.715466 -3.181166 -0.600572
3.629215 -3.108417 0.756830
3.663498 -3.137779 -0.422008
3.618331 -3.100189 0.926187
3.657705 -3.135032 -0.252469
3.596424 -3.083598 1.093712
3.673214 -3.150550 -0.084470
3.567122 -3.060634 1.259413
3.560450 -3.062471 -1.258378
3.678871 -3.165446 0.084714
3.723425 -3.204912 -1.134203
3.639988 -3.134201 0.251736
3.777372 -3.252495 -0.968928
3.657740 -3.150599 0.422357
5.340924 -4.602035 -1.116629
3.631219 -3.129963 0.588629
3.675183 -3.170095 0.768719
3.676661 -3.171370 -0.424797
3.655052 -3.153843 0.938399
3.667907 -3.166052 -0.253934
3.629888 -3.134341 1.107209
3.616348 -3.124853 1.280637
3.557039 -3.081204 -1.260966
5.756345 -4.988061 0.132952
3.712214 -3.217890 -1.134203
5.637438 -4.888472 0.391054
4.547673 -3.943488 -1.170041
5.294988 -4.594757 -1.110372
5.545745 -4.815746 -0.901833
7.810956 -6.785175 -0.905200
9.137560 -7.943159 -0.634521
7.869543 -6.845713 -0.182064
3.549174 -3.096142 -1.262002
3.733256 -3.259023 -1.144101
5.642906 -4.927825 0.392624
4.526487 -3.952881 -1.168133
5.295279 -4.627510 -1.113814
6.276050 -5.488463 -1.023703
7.790223 -6.815022 -0.905548
9.100760 -7.967113 -0.633893
9.500154 -8.322615 -0.220459
3.533991 -3.104687 -1.260449
8.809636 -7.742178 0.204717
3.698440 -3.251447 -1.136903
4.514135 -3.969954 -1.168514
40.046535 -35.231308 4.666493
5.282060 -4.648576 -1.114439
6.271750 -5.523458 -1.026140
7.775356 -6.850076 -0.906594
8.392727 -7.399183 -0.586372
7.269732 -6.413641 -0.169219
3.519878 -3.111935 -1.258896
8.872149 -7.846653 0.206741
3.726155 -3.296623 -1.148600
4.510461 -3.991923 -1.170804
5.260036 -4.658598 -1.112875
6.254367 -5.543134 -1.026140
7.756780 -6.877112 -0.906943
9.446622 -8.381207 -0.661841
3.517651 -3.131911 -1.262002
8.973126 -7.991955 0.209743
3.836845 -3.418504 -1.186392
4.502362 -4.012868 -1.172330
5.246691 -4.679561 -1.113501
6.237942 -5.567576 -1.026627
7.740158 -6.910782 -0.907814
9.368159 -8.370217 -0.658386
9.030811 -8.074477 -0.211453
3.508135 -3.145460 -1.262519
3.940927 -3.535991 -1.222384
4.485405 -4.025937 -1.171567
5.230324 -4.697847 -1.113501
6.212564 -5.584008 -1.025653
7.724877 -6.945751 -0.908860
7.226128 -6.501869 -0.509438
11.689374 -10.525160 -0.274561
3.501436 -3.161570 -1.264072
3.932897 -3.553645 -1.223734
4.465499 -4.036304 -1.170041
5.224149 -4.725351 -1.115691
6.193034 -5.605660 -1.025653
7.703538 -6.975348 -0.909209
39.786201 -36.037983 10.434581
8.954285 -8.113555 -0.633265
10.436348 -9.463102 -0.245904
3.486091 -3.169874 -1.262519
3.917587 -3.564729 -1.222834
4.451383 -4.051867 -1.170041
5.209082 -4.744888 -1.116004
6.185165 -5.637941 -1.027602
7.670309 -6.994141 -0.908163
10.315694 -9.412921 -0.731866
9.881982 -9.023489 -0.233583
3.473580 -3.180719 -1.262002
3.907993 -3.581015 -1.223734
4.456026 -4.084626 -1.175002
5.183753 -4.755030 -1.114126
6.180072 -5.672922 -1.030040
21.672258 -19.900755 4.660183
7.165965 -6.580215 -0.851163
10.244538 -9.413736 -0.729145
3.475237 -3.204612 -1.266660
9.881749 -9.115422 0.234665
3.896901 -3.595957 -1.224184
4.437413 -4.096161 -1.173857
5.172928 -4.778457 -1.115378
6.163146 -5.697155 -1.030527
7.631535 -7.056989 -0.909383
39.622818 -36.652615 10.491824
9.790895 -9.060122 -0.699104
9.767392 -9.044705 -0.232361
3.465446 -3.218037 -1.267178
3.882898 -3.608211 -1.223734
4.425963 -4.114298 -1.174620
5.163448 -4.803213 -1.116942
6.128693 -5.705108 -1.028090
7.634557 -7.109381 -0.912695
39.598068 -36.887047 10.519300
8.769058 -8.177279 -0.209289
3.459836 -3.235392 -1.269249
3.871701 -3.623075 -1.224184
4.407275 -4.125698 -1.173475
5.150976 -4.825259 -1.117881
6.111638 -5.729181 -1.028577
7.614055 -7.140077 -0.913218
39.537792 -37.089520 10.537618
10.023057 -9.405696 -0.720352
8.746292 -8.213315 -0.209429
3.435863 -3.235530 -1.264590
3.856195 -3.633894 -1.223284
7.105241 -6.697982 0.511741
4.394276 -4.142404 -1.173857
5.134101 -4.843209 -1.117881
6.106037 -5.764106 -1.031015
21.004513 -19.835222 4.575709
7.586188 -7.163876 -0.912869
39.488007 -37.302803 10.558989
10.106296 -9.550367 -0.728726
8.729192 -8.254786 -0.209708
3.427352 -3.250163 -1.265625
3.860450 -3.663429 -1.228683
7.164121 -6.798496 0.517603
4.388332 -4.165827 -1.176147
5.120028 -4.863822 -1.118507
6.083002 -5.782650 -1.030527
6.536044 -6.215494 -0.789108
8.770741 -8.346428 -0.634521
9.431746 -8.978592 -0.227300
3.424369 -3.270112 -1.268731
3.834189 -3.662750 -1.224184
7.128794 -6.812424 0.516765
4.373764 -4.181120 -1.176147
20.694986 -19.790380 2.505205
5.103871 -4.880774 -1.118507
6.069530 -5.808280 -1.031502
20.692072 -19.808350 4.536913
7.559015 -7.238710 -0.915658
8.717054 -8.350597 -0.632637
11.093621 -10.634686 -0.268243
3.423255 -3.290821 -1.272354
3.824188 -3.678813 -1.225083
6.889103 -6.629531 0.501064
4.362704 -4.198324 -1.176910
20.619196 -19.849228 2.503984
5.092494 -4.904041 -1.119758
6.046358 -5.826676 -1.031015
20.531782 -19.792715 4.516889
7.552181 -7.280331 -0.917750
9.216828 -8.891266 -0.671156
11.075136 -10.691398 -0.268697
3.406194 -3.297375 -1.270284
7.175416 -6.948606 0.174350
3.816923 -3.697564 -1.226883
6.756914 -6.547904 0.493109
4.345203 -4.210794 -1.176147
5.069672 -4.916286 -1.118507
6.037380 -5.858806 -1.032965
6.957869 -6.754427 1.535874
7.515286 -7.295546 -0.916355
39.322044 -38.185642 10.654393
7.661465 -7.442647 -0.559785
3.386364 -3.301154 -1.267178
7.128210 -6.951272 0.173791
3.812362 -3.719029 -1.229582
6.345212 -6.192033 0.464639
4.336099 -4.231421 -1.177673
5.058133 -4.939474 -1.119758
6.031089 -5.893719 -1.035402
20.152971 -19.700823 4.463702
7.492623 -7.324521 -0.916704
7.628301 -7.462364 -0.559262
3.377577 -3.315661 -1.268213
7.126731 -6.998530 0.174350
3.795187 -3.728217 -1.228233
6.155463 -6.048956 0.452287
4.324102 -4.249283 -1.178436
6.909492 -6.792309 0.847677
5.039452 -4.955715 -1.119445
6.556341 -6.449650 1.129241
6.007650 -5.911951 -1.034915
7.472690 -7.356221 -0.917401
7.574776 -7.459319 2.066462
7.734529 -7.619298 -0.568997
3.379721 -3.341012 -1.273390
3.779379 -3.738702 -1.227333
6.915119 -6.843081 0.509857
4.306452 -4.261590 -1.177673
7.016007 -6.945342 0.863713
5.026334 -4.977445 -1.120384
6.483017 -6.422202 1.120467
5.989797 -5.935680 -1.035402
7.390367 -7.326153 -0.910429
7.520718 -7.460580 -0.555180
3.357086 -3.341886 -1.269249
3.767686 -3.753247 -1.227783
6.925144 -6.901012 0.512369
4.294332 -4.279367 -1.178436
6.695401 -6.674400 0.827108
5.017321 -5.003329 -1.122261
6.393102 -6.377499 1.108767
5.969041 -5.956552 -1.035402
7.229383 -7.216776 -0.893695
7.498869 -7.491020 -0.555494
17.327332 -17.321283 -0.427654
3.350857 -3.359055 -1.271319
3.761441 -3.773276 -1.230032
6.187649 -6.209286 0.459405
4.282139 -4.297112 -1.179200
6.702996 -6.728784 0.830943
4.999825 -5.020813 -1.122261
7.267110 -7.300162 1.264760
5.956614 -5.985795 -1.036864
7.083306 -7.120492 -0.878704
7.364253 -7.408083 -0.547434
10.930543 -11.003278 -0.270722
3.339112 -3.370731 -1.271319
3.745505 -3.783613 -1.229133
6.157508 -6.222330 0.458777
4.258828 -4.303661 -1.176910
6.685073 -6.757806 0.831640
4.990603 -5.046662 -1.124138
6.379126 -6.453033 1.114130
5.938473 -6.009374 -1.037352
6.960393 -7.045954 -0.866502
7.233115 -7.327142 -0.539584
10.858364 -11.007199 -0.269884
3.324616 -3.379611 -1.270284
3.737739 -3.802223 -1.230932
6.102153 -6.209596 0.456265
4.249283 -4.324102 -1.178436
5.890721 -5.996534 0.735420
4.967420 -5.058414 -1.122887
5.925803 -6.038568 -1.038814
6.843670 -6.976336 -0.854998
7.175336 -7.319542 -0.537176
11.161320 -11.393586 -0.278401
3.320898 -3.399487 -1.273390
33.537800 -34.343472 0.837890
3.720360 -3.811063 -1.229582
6.074860 -6.225141 0.455846
4.247875 -4.352959 -1.182253
6.673905 -6.841393 0.836172
4.952491 -5.078551 -1.123512
6.868790 -7.046088 1.208213
5.901918 -6.056373 -1.038327
5.934009 -6.091431 1.346901
6.741422 -6.920263 -0.845236
7.003460 -7.194276 -0.526186
9.431506 -9.695244 -0.236096
3.311702 -3.413832 -1.274425
3.712460 -3.829624 -1.231382
6.054484 -6.247743 0.455951
4.235387 -4.370580 -1.183016
5.779399 -5.965961 0.726705
4.940231 -5.101484 -1.124764
6.866244 -7.092842 1.212113
5.886263 -6.082644 -1.039302
5.866011 -6.063834 1.336263
6.623024 -6.846376 -0.833383
38.990311 -40.319279 10.902445
6.972753 -7.212934 -0.525767
9.372598 -9.702218 -0.235468
3.303786 -3.429545 -1.275978
11.339506 -11.775260 0.285347
3.700421 -3.843963 -1.231832
6.047872 -6.284669 0.457102
4.211937 -4.376850 -1.180726
5.741964 -5.968868 0.724613
4.919654 -5.115849 -1.124138
5.862244 -6.100290 -1.038814
5.894075 -6.135557 1.347527
6.552157 -6.820601 -0.827457
38.949959 -40.559917 10.930685
6.955831 -7.245874 -0.526395
9.338673 -9.734876 -0.235468
3.286453 -3.435473 -1.273907
3.688327 -3.858265 -1.232282
6.053495 -6.334620 0.459196
4.199346 -4.394365 -1.181489
5.924780 -6.202095 0.750411
4.907223 -5.138706 -1.125390
6.896061 -7.223884 1.226249
5.857359 -6.137949 -1.041739
5.908073 -6.193256 1.355661
6.434792 -6.745400 -0.815603
38.843365 -40.732574 10.940606
6.927740 -7.267220 -0.526186
11.310112 -11.872638 -0.286219
3.275771 -3.448325 -1.274425
7.043385 -7.416992 0.178538
3.678862 -3.875356 -1.233632
5.984602 -6.306455 0.455637
4.192090 -4.417541 -1.183779
6.215732 -6.552305 0.790154
4.891974 -5.158671 -1.126015
5.860190 -6.181831 1.045883
5.846822 -6.169885 -1.043689
5.856532 -6.182292 1.348778
6.342696 -6.695499 -0.806888
38.835941 -41.010460 10.978768
6.796605 -7.179674 -0.518126
9.262239 -9.791119 -0.235258
3.269017 -3.465359 -1.276496
7.017451 -7.441532 0.178538
3.663975 -3.886756 -1.233182
6.022821 -6.391263 0.460242
4.176644 -4.432148 -1.183779
6.083529 -6.457942 0.776209
4.868521 -5.169963 -1.124764
5.830691 -6.196040 -1.044664
5.821380 -6.188309 1.345649
6.275601 -6.671160 -0.801310
38.827045 -41.288799 11.016931
6.718150 -7.146601 -0.514044
11.237903 -11.962965 -0.286499
3.258221 -3.478159 -1.277013
10.936161 -11.678460 0.279273
3.643727 -3.892409 -1.230932
6.131484 -6.552247 0.470291
4.157124 -4.442399 -1.182634
6.044617 -6.461679 0.774117
4.863937 -5.201354 -1.127893
6.687187 -7.153588 1.202363
5.806317 -6.213454 -1.044177
6.031679 -6.456878 1.399463
6.197873 -6.634787 -0.794337
6.694526 -7.171468 -0.514148
17.203327 -18.441853 -0.440219
3.250008 -3.493754 -1.278566
10.944352 -11.769283 0.280530
3.639405 -3.915095 -1.234081
6.059630 -6.520938 0.466523
4.142928 -4.458321 -1.183016
6.059993 -6.523612 0.778998
4.843062 -5.215406 -1.127267
6.594650 -7.104144 1.190176
5.798095 -6.248235 -1.046614
6.115056 -6.592111 -0.786668
6.721048 -7.250453 -0.518126
10.939402 -11.809344 -0.280984
3.228616 -3.495144 -1.274943
11.375306 -12.318671 0.292677
3.624395 -3.926343 -1.233632
6.020577 -6.524437 0.465267
4.132665 -4.478527 -1.184542
5.902094 -6.398278 0.761567
4.832862 -5.240993 -1.129144
6.631701 -7.194260 1.201388
5.778939 -6.271355 -1.047101
7.129409 -7.739607 1.666653
5.893576 -6.398000 -0.761044
6.698403 -7.276808 -0.518335
6.464505 -7.025173 2.204070
11.098474 -12.065273 -0.286150
3.219008 -3.509240 -1.275978
11.651189 -12.706134 0.300914
3.625152 -3.954773 -1.238580
6.069087 -6.620925 0.470710
4.119660 -4.495820 -1.185306
5.901257 -6.442348 0.764356
4.809202 -5.252003 -1.127893
6.912146 -7.551217 1.256961
5.770414 -6.306135 -1.049539
6.914344 -7.556266 1.622226
5.880620 -6.428824 -0.762264
6.639273 -7.263291 -0.515719
11.001750 -12.040010 -0.284684
3.213244 -3.527596 -1.278566
6.564648 -7.206868 0.170161
3.601521 -3.955246 -1.234981
6.594469 -7.244687 0.513416
4.106584 -4.513077 -1.186069
5.932358 -6.521862 0.771328
4.789102 -5.264999 -1.127267
5.752141 -6.328174 -1.050026
7.071249 -7.782108 1.665402
5.787143 -6.371148 -0.753026
6.605752 -7.274917 -0.514986
6.327473 -6.970892 2.173477
11.163906 -12.303439 -0.289989
6.608980 -7.286132 2.635813
3.197639 -3.533935 -1.277013
6.504574 -7.191182 0.169253
3.587693 -3.967793 -1.234981
6.539677 -7.235065 0.511113
4.096862 -4.532496 -1.187595
5.811853 -6.432104 0.758429
4.786583 -5.299276 -1.131021
6.610482 -7.321101 1.211138
5.722036 -6.339372 -1.048564
5.546041 -6.146545 1.311234
5.737956 -6.359240 -0.749365
6.499780 -7.206080 1.886338
6.609743 -7.330565 -0.517289
10.863883 -12.057098 -0.283287
3.193031 -3.553697 -1.280119
6.482105 -7.216818 0.169323
3.584236 -3.991892 -1.238580
6.701154 -7.465937 0.525767
4.077081 -4.542387 -1.186450
5.784042 -6.446421 0.757732
4.769375 -5.317422 -1.131334
6.611391 -7.373691 1.216012
5.707822 -6.368176 -1.050026
6.352377 -7.089792 1.507716
5.734336 -6.400005 -0.751805
5.555072 -6.202108 1.618442
6.818594 -7.615476 -0.535711
10.848398 -12.124754 -0.283986
6.882501 -7.694955 2.766258
3.174177 -3.557614 -1.277531
6.464860 -7.248356 0.169533
3.562499 -3.995652 -1.235881
6.411931 -7.194065 0.505042
4.058588 -4.553658 -1.185687
5.803917 -6.514174 0.763310
4.750785 -5.334037 -1.131334
6.559210 -7.367072 1.211138
5.693477 -6.396958 -1.051489
6.401122 -7.194568 1.525236
5.727853 -6.437845 -0.753897
5.528170 -6.215593 1.616915
6.989704 -7.861632 -0.551307
6.280020 -7.065901 2.182475
16.936852 -19.063028 -0.445106
6.786325 -7.640934 2.738306
3.164301 -3.571564 -1.278566
3.558864 -4.019736 -1.239480
6.490028 -7.333062 0.513206
4.049174 -4.575149 -1.187595
5.810188 -6.567223 0.767145
4.734754 -5.353548 -1.131960
6.601827 -7.467258 1.223812
5.655338 -6.398944 -1.048564
5.476140 -6.198364 1.309982
5.676325 -6.424950 -0.750062
5.522034 -6.252511 1.621495
7.011129 -7.941381 -0.555180
6.310765 -7.150607 2.201821
3.155643 -3.586939 -1.280119
10.869767 -12.359737 0.287302
3.535804 -4.021890 -1.236331
7.036602 -8.006776 0.558634
4.037067 -4.593679 -1.188740
5.576832 -6.347975 0.739255
4.714734 -5.368558 -1.131647
6.586197 -7.502192 1.225762
5.596304 -6.376869 -1.041739
5.451866 -6.214473 1.309357
5.639410 -6.428251 -0.748145
5.551954 -6.330791 1.636760
7.029446 -8.018370 -0.558843
6.218978 -7.096381 2.178426
10.649679 -12.156466 -0.282101
6.689543 -7.638712 2.720706
3.141832 -3.596478 -1.279601
10.792357 -12.358442 0.286394
3.529433 -4.043015 -1.239030
5.314567 -6.090055 0.423607
4.024880 -4.612181 -1.189885
4.702457 -5.392427 -1.133211
6.526055 -7.486230 1.219425
5.532277 -6.348475 -1.033940
5.448305 -6.254317 1.313737
5.619554 -6.450901 -0.748493
5.578815 -6.406394 1.651261
6.998792 -8.039846 -0.558634
16.736300 -19.239344 -0.445106
6.759181 -7.772807 2.760046
3.135588 -3.614719 -1.282190
3.512746 -4.052365 -1.238131
7.393845 -8.532679 0.591710
4.003613 -4.620267 -1.188358
5.688919 -6.567468 0.760172
4.684899 -5.410303 -1.133524
6.603819 -7.629036 1.238924
5.468517 -6.319712 -1.026140
5.472963 -6.327082 1.325000
5.504457 -6.363490 -0.736117
7.005949 -8.105024 -0.561460
10.857360 -12.569499 -0.289919
6.532522 -7.565329 2.678260
3.115387 -3.616860 -1.279084
10.885879 -12.642606 0.291211
3.506207 -4.073465 -1.240830
7.327540 -8.516045 0.588780
4.001547 -4.650585 -1.192556
6.536446 -7.599319 0.876961
4.671136 -5.432614 -1.134776
6.432226 -7.483435 1.211625
5.428312 -6.317683 -1.022728
5.484309 -6.385108 1.333135
5.518560 -6.424985 -0.740998
5.426524 -6.320064 1.619205
6.922980 -8.065777 -0.557064
10.943605 -12.759106 -0.293410
6.304881 -7.353433 2.595438
3.105253 -3.630649 -1.280119
10.839083 -12.677487 0.291141
3.493232 -4.087160 -1.241280
7.414533 -8.678234 0.598200
3.973811 -4.651091 -1.189122
6.628923 -7.761472 0.892998
4.652144 -5.448886 -1.134776
6.411220 -7.511882 1.212600
5.364997 -6.288268 -1.014928
5.441797 -6.380540 -0.733677
6.126537 -7.188483 -0.494994
10.828985 -12.715019 -0.291525
6.321753 -7.425409 2.613037
3.098814 -3.648829 -1.282707
6.257365 -7.370605 0.168765
3.473901 -4.093386 -1.239480
10.976157 -12.938062 0.889188
3.966442 -4.675413 -1.191793
6.596636 -7.778487 0.892300
4.631818 -5.463585 -1.134463
6.431162 -7.588734 1.221375
5.294255 -6.249402 -1.005666
6.608966 -7.804063 1.619723
5.295883 -6.253536 -0.716943
6.094957 -7.202202 -0.494470
10.836185 -12.813819 -0.292921
4.918902 -5.818674 2.041565
3.082322 -3.655193 -1.281154
3.462103 -4.108467 -1.240380
6.260031 -7.431393 0.509229
3.951362 -4.690732 -1.192175
4.622896 -5.491810 -1.136966
5.627540 -6.687655 1.073182
5.251962 -6.243537 -1.001766
5.516309 -6.560116 1.357538
5.265046 -6.261309 -0.715723
6.056930 -7.208142 -0.493423
10.840257 -12.909760 -0.294248
6.184061 -7.367264 2.577320
3.075746 -3.673336 -1.283742
3.453993 -4.128000 -1.242630
6.234052 -7.453199 0.509229
3.927407 -4.695460 -1.189885
5.473750 -6.546530 0.746576
4.602430 -5.506398 -1.136653
5.638527 -6.748388 1.079762
5.184325 -6.206985 -0.992992
5.412348 -6.482287 1.337515
5.250819 -6.288825 -0.716769
6.027894 -7.224641 -0.493109
10.897571 -13.070391 -0.297040
6.139753 -7.366546 2.569556
3.053024 -3.672166 -1.279601
6.755004 -8.127780 0.184472
3.437072 -4.137034 -1.241730
6.387921 -7.691556 0.523988
3.923536 -4.724244 -1.193701
6.400279 -7.709173 0.876612
4.594536 -5.536110 -1.139469
5.628879 -6.784833 1.082444
5.122077 -6.176147 -0.985192
5.440117 -6.561969 1.350030
5.230106 -6.308650 -0.716943
6.615747 -7.982870 2.015325
5.993719 -7.234871 -0.492377
10.591743 -12.794122 -0.289919
6.223621 -7.520393 2.615625
3.045106 -3.688760 -1.281672
10.012887 -12.133651 0.274596
3.427570 -4.155019 -1.243529
6.362305 -7.715349 0.524092
3.899527 -4.728823 -1.191411
6.451904 -7.826785 0.887420
4.570158 -5.546017 -1.138217
7.377204 -8.955632 1.424653
5.055058 -6.138822 -0.976417
5.321767 -6.465010 1.326252
5.199190 -6.316100 -0.715723
6.600316 -8.021074 2.019141
5.968428 -7.255749 -0.492377
5.189732 -6.311342 1.886440
10.861931 -13.214123 -0.298576
3.037111 -3.705343 -1.283742
10.038910 -12.252055 0.276481
3.410576 -4.163943 -1.242630
5.504036 -6.722223 0.455323
3.891703 -4.753039 -1.194083
5.490707 -6.708334 0.758429
4.548269 -5.558878 -1.137592
7.265464 -8.882986 1.409053
5.031086 -6.153357 -0.975930
5.281666 -6.462133 1.321871
5.173328 -6.329582 -0.715200
5.084167 -6.222710 1.561963
6.684685 -8.184560 -0.553819
10.590672 -12.976196 -0.292363
3.025377 -3.717421 -1.284260
10.059178 -12.364582 0.278226
3.398480 -4.178847 -1.243529
5.903862 -7.262109 0.490493
3.878803 -4.771165 -1.195228
5.492389 -6.758382 0.761916
4.533820 -5.580853 -1.138843
6.638741 -8.174797 1.293034
4.974545 -6.127728 -0.969105
5.244140 -6.462125 1.318117
5.153713 -6.350696 -0.715549
6.586210 -8.118795 2.032116
10.623372 -13.109412 -0.294527
3.017240 -3.733969 -1.286331
10.033549 -12.421399 0.278715
3.381423 -4.187652 -1.242630
5.971307 -7.397679 0.498238
3.860892 -4.783147 -1.194846
5.476271 -6.786816 0.762961
4.524232 -5.608946 -1.141346
4.898312 -6.077051 -0.958381
5.221550 -6.480391 1.318117
5.120263 -6.354684 -0.713980
6.520885 -8.095867 2.020667
5.816966 -7.224512 -0.486096
5.228438 -6.495897 1.925131
10.502332 -13.052934 -0.292433
6.516356 -8.101816 2.785928
2.996934 -3.735437 -1.283225
5.826428 -7.264772 0.162552
3.374099 -4.208552 -1.245329
5.469563 -6.824687 0.458358
3.844172 -4.796595 -1.194846
5.694217 -7.107545 0.796778
4.505861 -5.626245 -1.141659
5.651041 -7.058700 1.110230
4.891953 -6.112711 -0.961305
6.018282 -7.522802 1.525862
5.096805 -6.370963 -0.713806
6.080592 -7.603406 1.892444
6.809377 -8.517756 -0.571509
11.039576 -13.819139 -0.308733
6.066108 -7.596162 2.604755
2.985080 -3.747386 -1.283742
5.807262 -7.292887 0.162726
3.360601 -4.221829 -1.245779
11.006991 -13.827775 0.926242
3.826183 -4.808448 -1.194464
5.743790 -7.220934 0.807236
4.489882 -5.646578 -1.142597
5.648600 -7.106354 1.114617
4.831067 -6.080016 -0.953506
5.216644 -6.565274 1.328129
5.088167 -6.405877 -0.715723
10.925059 -13.759310 3.415100
5.595035 -7.049062 -0.471652
10.934000 -13.780446 4.061266
10.520132 -13.258837 -0.295434
10.934099 -13.785510 4.714648
2.974378 -3.760814 -1.284778
6.511199 -8.232784 0.183215
3.341748 -4.226835 -1.243979
5.353631 -6.774010 0.452497
3.817895 -4.832559 -1.197136
6.084063 -7.703759 0.858833
4.477254 -5.669187 -1.144162
7.142881 -9.047703 1.415391
4.805960 -6.089769 -0.952531
10.951417 -13.881835 2.800490
5.117593 -6.489305 -0.723044
10.879372 -13.795463 3.415100
5.553081 -7.044050 -0.470082
10.867737 -13.790608 4.053618
10.132250 -12.861929 -0.285801
10.840494 -13.765920 4.694978
2.966663 -3.776733 -1.286848
5.999543 -7.640510 0.169568
3.330584 -4.243073 -1.245329
5.285568 -6.736090 0.448729
3.800637 -4.843648 -1.196754
5.815012 -7.413495 0.824319
4.452563 -5.678564 -1.142910
5.440900 -6.941533 1.082931
4.738149 -6.047131 -0.943269
5.385062 -6.875235 1.383194
5.107102 -6.520356 -0.724613
5.244315 -6.697948 1.653551
5.521074 -7.053954 -0.469454
10.825537 -13.836133 4.055868
10.249911 -13.105137 -0.290408
10.794755 -13.806719 4.696013
2.955838 -3.790113 -1.287884
5.976525 -7.666137 0.169672
3.319346 -4.259284 -1.246679
5.316029 -6.823824 0.453334
3.784913 -4.858434 -1.197136
6.817401 -8.754185 0.970741
4.437567 -5.700306 -1.144162
5.572687 -7.161009 1.114130
4.697510 -6.038564 -0.939369
5.370732 -6.906466 1.385697
5.080642 -6.533425 -0.724090
5.230542 -6.728613 1.656604
7.060168 -9.085531 -0.603015
5.870959 -7.557894 2.209469
10.150138 -13.071341 -0.288872
5.473936 -7.051872 2.392006
2.939042 -3.795825 -1.286331
5.560506 -7.184082 0.158573
3.303265 -4.269304 -1.246229
5.191978 -6.712791 0.444751
3.766729 -4.870064 -1.196754
6.701495 -8.667594 0.958539
4.418851 -5.717324 -1.144475
6.814721 -8.820399 1.368593
4.649708 -6.020361 -0.934007
5.315204 -6.884517 1.377562
5.287927 -6.849186 -0.757035
6.817351 -8.836548 -0.584907
5.070982 -6.575304 1.917033
5.881239 -7.628678 -0.168136
5.431599 -7.047984 2.384241
2.928129 -3.809124 -1.287366
10.387242 -13.517367 0.297564
3.294278 -4.288536 -1.248478
5.110127 -6.654837 0.439727
3.749706 -4.883183 -1.196754
4.403677 -5.738983 -1.145726
5.568469 -7.259593 1.123392
4.619001 -6.023952 -0.932057
5.264702 -6.868536 1.370679
5.273683 -6.880253 -0.758429
6.200785 -8.092710 1.981742
6.977137 -9.109230 -0.601340
5.066955 -6.617721 1.924231
5.864297 -7.661864 -0.168416
6.127736 -8.008949 2.702071
2.918330 -3.823929 -1.288919
9.859685 -12.923959 0.283741
3.272198 -4.290711 -1.245779
5.186157 -6.802877 0.448310
3.735019 -4.899364 -1.197517
5.491147 -7.205551 0.792594
4.381223 -5.751177 -1.145100
5.521446 -7.250558 1.119004
4.561874 -5.992653 -0.924745
5.056475 -6.644786 1.322497
5.273764 -6.930330 -0.761916
7.715325 -10.142493 2.477082
6.724063 -8.842591 -0.582185
5.921216 -7.789614 2.258959
5.838727 -7.683881 -0.168451
6.195561 -8.156437 2.744517
2.906132 -3.835633 -1.289437
5.989641 -7.908244 0.173163
3.260730 -4.306768 -1.247129
5.545671 -7.327374 0.481596
3.722634 -4.918633 -1.199044
5.459950 -7.216730 0.791723
4.358738 -5.763284 -1.144475
5.522440 -7.304625 1.124367
4.519385 -5.980035 -0.920357
5.047539 -6.681311 1.326252
5.239933 -6.935979 -0.760521
7.592321 -10.053427 2.448843
6.890509 -9.127430 -0.599351
5.898684 -7.816458 2.260758
7.533994 -9.987063 -0.218365
4.952719 -6.567708 2.204103
2.898531 -3.853473 -1.292025
6.023290 -8.010614 0.174943
3.249189 -4.322797 -1.248478
4.944180 -6.580243 0.431353
3.708979 -4.936306 -1.200189
5.522074 -7.352039 0.804447
4.345710 -5.787942 -1.146352
5.801961 -7.730297 1.186764
4.472273 -5.960841 -0.914995
6.420386 -8.560481 1.694811
5.292198 -7.056236 -0.771677
7.510074 -10.017035 2.433578
6.899331 -9.205766 -0.602910
5.420349 -7.234994 2.087096
7.458331 -9.958880 -0.217178
6.112998 -8.165468 2.733129
2.876971 -3.852732 -1.288401
3.238741 -4.340360 -1.250278
4.980888 -6.677507 0.436587
3.697595 -4.957091 -1.202097
5.748865 -7.709884 0.841402
4.330202 -5.809412 -1.147603
5.471311 -7.343000 1.124367
4.439581 -5.960496 -0.912558
6.079022 -8.164553 1.612214
5.281813 -7.093844 -0.773769
7.416452 -9.964445 2.414497
6.802775 -9.143265 -0.597258
5.235733 -7.039648 2.025459
7.408011 -9.963992 -0.216724
5.773321 -7.768116 2.593367
2.858904 -3.856543 -1.286331
5.539799 -7.475688 0.162412
3.227051 -4.356337 -1.251628
4.981320 -6.726956 0.438680
3.682606 -4.973125 -1.202860
6.373887 -8.610669 0.937273
4.304021 -5.816551 -1.146039
4.404585 -5.956803 -0.909633
6.062227 -8.201607 1.615342
5.283073 -7.147487 -0.777604
6.133271 -8.300753 2.006166
6.809976 -9.219970 -0.600712
5.205341 -7.050042 2.023210
5.917311 -8.017253 -0.173931
5.811545 -7.876830 2.622872
2.852294 -3.875835 -1.289437
6.490086 -8.822266 0.191174
3.212980 -4.369144 -1.252078
4.986200 -6.782925 0.441192
3.673363 -4.997021 -1.205531
5.586359 -7.602124 0.825365
4.297726 -5.850644 -1.149794
5.405815 -7.361817 1.121442
4.360272 -5.940136 -0.904758
5.241590 -7.143396 -0.775163
5.660692 -7.717384 1.860388
6.750588 -9.206640 -0.598305
5.136922 -7.008442 2.006114
5.729736 -7.820097 -0.169219
5.841090 -7.974994 2.648754
2.841027 -3.888887 -1.290472
6.313012 -8.644617 0.186845
3.188516 -4.367742 -1.248478
5.471104 -7.497257 0.486410
3.657055 -5.011399 -1.205913
5.393054 -7.393011 0.800613
4.272622 -5.859226 -1.148542
5.242103 -7.191354 1.092681
4.330158 -5.942485 -0.902808
5.790821 -7.949937 1.557775
5.278795 -7.247003 -0.784402
5.649899 -7.759317 1.865731
7.229696 -9.932583 -0.643837
5.090642 -6.996392 1.997565
5.690642 -7.823878 -0.168869
5.670073 -7.798459 2.583532
2.830837 -3.903472 -1.292025
5.593839 -7.716238 0.166356
3.176681 -4.383579 -1.249828
3.633782 -5.016185 -1.204005
5.423305 -7.489249 0.808980
4.256776 -5.880505 -1.149794
5.040082 -6.965160 1.055632
4.281466 -5.918962 -0.896958
5.837113 -8.072551 1.577798
5.459466 -7.553052 1.811541
5.821722 -8.057187 -0.520952
5.035382 -6.971465 1.985418
5.778015 -8.002579 -0.172290
5.735526 -7.946654 2.625978
2.814937 -3.910195 -1.290990
5.667321 -7.875304 0.169358
3.169327 -4.405715 -1.252977
5.759117 -8.008758 0.516975
3.617396 -5.030432 -1.204386
5.543658 -7.711975 0.830943
4.233918 -5.892120 -1.149168
5.761557 -8.021008 1.212600
4.244570 -5.911297 -0.893546
5.131598 -7.149270 1.393831
5.261765 -7.330618 -0.789457
5.358674 -7.468380 1.786736
5.786578 -8.067722 -0.520324
5.049623 -7.042846 2.000715
5.762858 -8.040577 -0.172674
5.692000 -7.944640 2.618731
2.800148 -3.918425 -1.290472
5.752547 -8.052875 0.172744
3.155061 -4.418336 -1.253427
5.713720 -8.004428 0.515405
3.599814 -5.043029 -1.204386
5.624330 -7.882110 0.847154
4.188088 -5.871483 -1.142285
4.926796 -6.909664 1.041983
4.193953 -5.884048 -0.887209
5.606382 -7.868568 1.530242
5.217646 -7.322978 -0.786668
5.699314 -8.001953 1.909616
5.764173 -8.096007 -0.520847
7.021678 -9.865868 2.795692
5.752145 -8.085086 -0.173198
7.021231 -9.872531 3.246109
2.793159 -3.937629 -1.293578
5.734812 -8.087586 0.173058
3.136238 -4.424553 -1.252078
5.724105 -8.075474 0.518754
3.586729 -5.061971 -1.205913
5.694668 -8.039892 0.861970
4.156153 -5.869945 -1.139156
4.933611 -6.970568 1.048564
4.174417 -5.897923 -0.887209
5.687504 -8.038699 1.559652
5.158689 -7.293973 -0.781613
5.656613 -8.000959 1.904655
7.010773 -9.920015 -0.636615
6.976551 -9.871593 2.790743
5.749534 -8.138414 -0.173931
6.970623 -9.870512 3.237826
2.781198 -3.948449 -1.294095
3.126035 -4.441303 -1.253877
5.914564 -8.403096 0.538537
3.571053 -5.075443 -1.206295
5.507508 -7.830578 0.837567
4.116214 -5.854607 -1.133524
4.152554 -5.908485 -0.886721
4.895442 -6.968095 1.348778
5.127603 -7.301257 -0.780567
6.949156 -9.902336 -0.633998
5.554574 -7.915101 2.232414
6.950161 -9.907445 -0.211244
5.589103 -7.970217 2.608378
2.775841 -3.968732 -1.297719
3.106824 -4.445256 -1.252078
5.175998 -7.408591 0.473640
3.555563 -5.091096 -1.207058
5.657192 -8.100352 0.864411
4.089993 -5.858507 -1.131647
5.817694 -8.336369 1.248186
4.215950 -6.043423 -0.904758
4.857530 -6.965697 1.345024
5.108922 -7.328918 -0.781613
5.983646 -8.586933 2.034406
6.901991 -9.908506 -0.632846
6.859073 -9.846894 2.770497
6.899538 -9.908670 -0.210755
5.423293 -7.791483 2.543674
2.754667 -3.969357 -1.294613
6.979117 -10.060356 0.213722
3.100505 -4.471026 -1.256127
6.313975 -9.108345 0.580824
3.532406 -5.097639 -1.205531
5.777258 -8.337200 0.887420
4.061743 -5.863714 -1.129770
5.680875 -8.204225 1.225275
4.157619 -6.006603 -0.896958
6.151513 -8.890542 1.712332
5.128494 -7.414777 -0.788759
6.881073 -9.952368 2.351912
6.839510 -9.895947 -0.630439
6.793021 -9.828683 2.758350
5.689001 -8.234371 -0.174699
2.741196 -3.981017 -1.295130
5.615663 -8.158632 0.172884
3.089620 -4.490386 -1.258376
6.937013 -10.085873 0.641534
3.520373 -5.120259 -1.207821
5.999511 -8.726078 0.926466
4.015609 -5.842748 -1.122887
6.920980 -10.073854 1.500699
4.137822 -6.025074 -0.897446
6.125595 -8.922800 1.714209
5.047170 -7.354671 -0.780393
6.813452 -9.932193 2.341227
6.781733 -9.889652 -0.628450
5.067439 -7.389734 2.068650
5.624864 -8.205686 -0.173651
5.315802 -7.757722 2.519862
2.727676 -3.992633 -1.295648
5.589106 -8.184114 0.172988
3.066549 -4.492023 -1.255677
5.037935 -7.382568 0.468407
3.499369 -5.129883 -1.207058
3.978587 -5.834578 -1.118507
4.117948 -6.043480 -0.897933
4.827352 -7.087255 1.358164
5.008966 -7.356652 -0.778649
6.722969 -9.881416 -0.626357
6.728319 -9.892991 -0.208835
5.249318 -7.721237 2.501745
2.725583 -4.015094 -1.300307
3.053208 -4.501102 -1.255677
4.980139 -7.344585 0.465057
3.493845 -5.152635 -1.210111
3.947962 -5.826733 -1.114752
5.411299 -7.989451 1.184814
4.124483 -6.091835 -0.903296
5.736244 -8.478770 -0.895612
6.040701 -8.928789 2.095464
6.674091 -9.868717 -0.624368
5.776849 -8.545214 2.381332
6.673185 -9.874804 -0.208033
5.713013 -8.457149 2.734682
2.707611 -4.020249 -1.298754
3.041830 -4.518199 -1.257476
3.472744 -5.162148 -1.209347
3.911150 -5.818212 -1.110372
5.487480 -8.163154 1.207725
4.074406 -6.063355 -0.896958
5.385089 -8.016881 1.529616
4.332717 -6.452627 -0.679989
5.506818 -8.204285 1.920684
6.622296 -9.869894 -0.622903
5.673848 -8.459514 2.351638
6.613056 -9.859840 -0.207230
5.643652 -8.417669 2.715529
2.688194 -4.021646 -1.296166
3.027415 -4.532559 -1.258376
3.461245 -5.184036 -1.211637
5.245971 -7.860055 0.826759
3.879854 -5.815396 -1.107243
6.257153 -9.382204 1.384680
4.001503 -6.002270 -0.885746
5.477604 -8.216427 1.564032
4.313481 -6.472685 -0.680512
5.486854 -8.236529 1.923736
6.575626 -9.874662 -0.621751
6.534066 -9.815965 2.722358
6.560869 -9.856231 -0.206671
5.619586 -8.445359 2.718118
2.676275 -4.034225 -1.297201
3.008060 -4.536077 -1.256577
50.286472 -75.859451 4.769795
3.440959 -5.192812 -1.210874
5.163489 -7.795268 0.818044
3.834368 -5.788706 -1.099734
5.767905 -8.711050 1.282797
3.999107 -6.041992 -0.889646
5.359511 -8.100408 1.538377
5.731772 -8.666334 -0.909034
6.564192 -9.924937 2.312987
6.520815 -9.863092 -0.619658
5.717133 -8.650762 2.393929
6.517606 -9.865724 -0.206392
6.463022 -9.786812 3.142581
2.670320 -4.054370 -1.300825
2.996493 -4.553061 -1.258376
5.162511 -7.847228 0.492272
3.423720 -5.204195 -1.210874
3.805457 -5.788850 -1.097232
3.945297 -6.006140 -0.882334
5.368066 -8.175208 1.549014
5.767523 -8.783555 -0.919319
6.130907 -9.340517 2.171788
6.460051 -9.845717 -0.617146
5.691176 -8.677183 2.395729
6.461200 -9.854967 -0.205694
6.420349 -9.796388 3.138440
2.657209 -4.065284 -1.301342
5.521458 -8.450543 0.176199
2.983779 -4.568388 -1.259726
5.063024 -7.754824 0.485364
3.409826 -5.222689 -1.212400
3.783068 -5.798789 -1.096606
5.459718 -8.371996 1.227224
3.921055 -6.014886 -0.881603
5.268317 -8.084667 1.528365
5.836901 -8.957206 -0.935355
6.488314 -9.960651 2.310697
6.409296 -9.843101 -0.615576
5.809683 -8.925650 2.458715
6.408221 -9.848968 -0.205101
4.717698 -7.253526 2.318501
2.644053 -4.076156 -1.301860
2.968874 -4.580410 -1.260176
3.387305 -5.227970 -1.210874
3.747774 -5.788744 -1.092226
5.413204 -8.364338 1.223325
3.908662 -6.041871 -0.883553
5.130651 -7.933815 1.496452
5.902972 -9.128099 -0.951043
6.440715 -9.963453 2.306118
6.354303 -9.833542 -0.613587
5.890571 -9.119390 2.506405
6.347769 -9.830958 -0.204263
6.314086 -9.782538 3.119805
2.627717 -4.082111 -1.300825
2.959192 -4.600579 -1.262875
5.010923 -7.793341 0.485573
3.371159 -5.243065 -1.211637
3.699783 -5.758581 -1.084091
5.321757 -8.286306 1.209188
3.882185 -6.047125 -0.882334
5.220283 -8.134549 1.530868
5.881834 -9.165417 -0.952787
6.395297 -9.969352 2.302302
6.309157 -9.838850 -0.612540
6.254120 -9.756770 2.675568
6.300468 -9.832851 -0.203844
6.252809 -9.762224 3.106346
2.613452 -4.091259 -1.300825
2.939970 -4.605953 -1.261526
4.962202 -7.777110 0.483480
3.362341 -5.269695 -1.215072
5.493016 -8.612352 0.893695
3.669040 -5.754804 -1.080962
5.356813 -8.405272 1.223812
3.929315 -6.167789 -0.897933
4.243317 -6.665806 -0.691319
5.742651 -9.021104 2.078673
6.258690 -9.835538 -0.610970
5.607121 -8.814992 2.411925
6.252158 -9.832847 -0.203390
6.202114 -9.757903 3.098064
2.604643 -4.110601 -1.303930
2.923874 -4.616187 -1.261526
5.225635 -8.253374 0.511950
3.341954 -5.280324 -1.214690
5.437978 -8.595386 0.889860
3.628918 -5.738163 -1.075331
5.488717 -8.678937 1.260860
3.905641 -6.178112 -0.897446
5.431402 -8.594949 1.610337
4.187037 -6.628359 -0.685916
5.483137 -8.683529 1.996244
6.204478 -9.829698 -0.609191
6.177904 -9.791385 2.672868
6.202857 -9.830934 -0.202902
5.323971 -8.441248 2.674119
2.593363 -4.124575 -1.305483
30.002674 -47.735771 0.984141
2.907971 -4.628522 -1.261975
5.055135 -8.049211 0.498134
3.331855 -5.305259 -1.217743
4.929119 -7.851599 0.811071
3.598365 -5.734062 -1.072202
5.471638 -8.722538 1.264273
3.744820 -5.972069 -0.865516
5.681030 -9.063363 1.694185
4.158584 -6.634493 -0.685044
4.354103 -6.949116 1.594018
6.147864 -9.815750 -0.606992
6.116802 -9.769944 2.661171
6.150870 -9.828176 -0.202378
5.224350 -8.350973 2.639437
2.582018 -4.138519 -1.307036
2.901076 -4.653529 -1.266025
3.311239 -5.313525 -1.216980
3.574151 -5.739881 -1.070951
5.439060 -8.738214 1.263785
3.691441 -5.932856 -0.857960
5.668137 -9.113331 1.699817
4.200640 -6.753864 -0.695851
5.503235 -8.851645 2.026010
6.103021 -9.820188 -0.605946
5.480051 -8.821218 2.397528
6.095429 -9.815612 -0.201680
5.241016 -8.443018 2.662730
2.562472 -4.139294 -1.304448
4.802549 -7.760833 0.159306
2.884815 -4.663627 -1.266025
3.295768 -5.330060 -1.218125
3.533328 -5.718711 -1.064693
5.405395 -8.752080 1.263054
3.665495 -5.937259 -0.856742
5.762411 -9.333780 1.737361
5.746567 -9.311754 -0.957319
6.046689 -9.805730 -0.603748
6.013678 -9.756006 2.645874
6.048155 -9.811938 -0.201191
5.536268 -8.985013 2.827857
2.551041 -4.153152 -1.306001
2.873412 -4.679811 -1.267824
5.304214 -8.642142 0.531419
3.280224 -5.346552 -1.219270
3.508148 -5.720294 -1.062816
5.387756 -8.788573 1.265735
3.631264 -5.925686 -0.853329
5.279913 -8.619411 1.600950
4.154428 -6.784725 -0.696026
5.999541 -9.801878 -0.602282
5.960953 -9.742649 2.636876
6.001348 -9.812520 -0.200772
5.573391 -9.116363 2.863056
2.539266 -4.164887 -1.307036
2.855031 -4.686484 -1.266924
5.153513 -8.462727 0.519277
3.266560 -5.364108 -1.220796
3.479944 -5.719005 -1.060313
4.667943 -7.674398 1.102918
3.601277 -5.923059 -0.851136
5.717628 -9.407543 1.743619
5.729007 -9.429973 -0.965337
5.240544 -8.625960 1.961898
5.950777 -9.798862 -0.600817
5.914773 -9.743408 2.631478
5.954610 -9.812894 -0.200354
5.898212 -9.723781 3.047335
2.527982 -4.180779 -1.309107
2.841679 -4.701424 -1.268274
4.994838 -8.266981 0.506193
3.252967 -5.386127 -1.223086
4.663653 -7.724926 0.789457
3.452836 -5.721573 -1.058436
4.557021 -7.551280 1.082931
3.577503 -5.930495 -0.850404
5.723516 -9.491725 1.755508
5.732054 -9.509638 -0.971438
5.902457 -9.800076 -0.599561
5.842837 -9.704919 2.615281
5.900724 -9.801069 -0.199690
5.840329 -9.704584 3.034912
2.521324 -4.202831 -1.313248
2.828436 -4.718493 -1.270074
5.122034 -8.544750 0.522104
3.227083 -5.385661 -1.220414
4.212818 -7.033531 0.717292
3.420666 -5.713253 -1.054681
4.595576 -7.678648 1.098774
3.588382 -5.995750 -0.857960
5.144741 -8.599641 1.587184
5.638492 -9.428701 -0.961154
5.850795 -9.791473 -0.597781
5.792629 -9.694130 2.607183
5.844943 -9.785555 -0.198957
5.679652 -9.512599 2.968654
2.497489 -4.194570 -1.308071
2.814766 -4.731196 -1.270973
5.129411 -8.621765 0.525767
3.213220 -5.403082 -1.221941
4.209833 -7.081716 0.720778
3.377483 -5.683808 -1.047172
4.708975 -7.927665 1.132166
3.577604 -6.022977 -0.860154
5.672896 -9.554244 1.759888
5.582789 -9.406225 -0.956970
5.306197 -8.943766 2.021431
5.803011 -9.785052 -0.596211
5.686892 -9.589251 2.573890
5.799203 -9.782522 -0.198504
5.431411 -9.165750 2.854774
2.482584 -4.201165 -1.307554
2.803025 -4.747217 -1.272773
4.597783 -7.789931 0.474059
3.198279 -5.418780 -1.223086
4.807946 -8.149258 0.827805
3.352595 -5.684769 -1.045295
4.750204 -8.057811 1.148497
3.562605 -6.045690 -0.861616
4.018385 -6.824587 -0.692888
5.757360 -9.781866 -0.594851
5.706747 -9.699740 2.598185
5.754884 -9.785467 -0.198155
5.689177 -9.677609 3.007995
2.472052 -4.218570 -1.310142
2.786437 -4.756972 -1.272773
4.561480 -7.790421 0.473117
3.179388 -5.432161 -1.223467
4.995366 -8.538280 0.865457
3.321765 -5.679966 -1.042166
4.315181 -7.378633 1.049539
3.543483 -6.061516 -0.862104
5.471764 -9.367555 -0.949126
5.700329 -9.766678 -0.592652
5.673121 -9.723960 2.599085
5.706583 -9.781315 -0.197666
5.651468 -9.690734 3.005924
2.464108 -4.238864 -1.313766
2.768004 -4.765468 -1.272323
3.162378 -5.446621 -1.224231
3.293988 -5.677857 -1.039664
4.309021 -7.430462 1.054657
3.487395 -6.016071 -0.853817
5.496968 -9.486584 -0.959236
5.651190 -9.760591 -0.591082
5.609859 -9.693104 2.585588
5.660385 -9.780407 -0.197247
5.603097 -9.685319 2.998160
2.451226 -4.250787 -1.314801
2.759972 -4.788128 -1.275922
3.143347 -5.457627 -1.224231
5.118549 -8.890654 0.897530
3.265285 -5.671630 -1.036535
4.270495 -7.420622 1.051245
3.451588 -6.000072 -0.849917
5.525379 -9.612810 -0.970043
5.607846 -9.760226 -0.589931
5.562156 -9.684616 2.578389
5.606298 -9.765421 -0.196549
5.563486 -9.694766 2.995054
2.431360 -4.248832 -1.311695
2.742274 -4.796041 -1.275472
33.270565 -58.187840 3.512790
3.126205 -5.469725 -1.224612
5.071247 -8.876438 0.894392
3.237630 -5.669271 -1.034032
4.354789 -7.628569 1.078544
3.474895 -6.089669 -0.860885
5.423385 -9.508204 -0.957667
5.558908 -9.753715 -0.588361
5.509024 -9.670107 2.569391
5.551118 -9.743995 -0.195746
5.514098 -9.682943 2.985737
2.418421 -4.260653 -1.312730
2.731163 -4.813583 -1.277722
4.280219 -7.546809 0.454695
3.106126 -5.478896 -1.224231
4.902709 -8.651411 0.869989
3.207126 -5.659354 -1.030277
4.322618 -7.630877 1.076838
3.514347 -6.206531 -0.875753
5.454914 -9.641527 -0.969172
5.517685 -9.756448 -0.587419
5.457746 -9.654394 2.560393
5.509201 -9.749385 -0.195467
5.468863 -9.681947 2.979525
2.408674 -4.281694 -1.316354
4.760528 -8.465840 0.169533
2.705134 -4.812616 -1.274573
3.091797 -5.502763 -1.226902
4.147475 -7.384673 0.740998
3.170843 -5.648067 -1.025897
4.199663 -7.483710 1.053682
3.507005 -6.249408 -0.879897
6.429553 -11.462015 2.081517
4.809806 -8.577988 -0.860402
5.458952 -9.743670 -0.585325
5.420636 -9.675280 2.560393
5.458046 -9.746041 -0.194978
5.397676 -9.642190 2.960890
2.392579 -4.286284 -1.315318
6.221237 -11.149864 0.222867
2.694855 -4.831772 -1.277272
3.079268 -5.523275 -1.229192
5.023014 -9.013464 0.902759
3.148252 -5.651648 -1.024646
4.271394 -7.671031 1.078056
3.514267 -6.311300 -0.886965
6.387666 -11.476369 2.080266
3.881443 -6.976442 -0.698466
5.413024 -9.737280 -0.583860
5.367691 -9.655730 2.550495
5.421811 -9.757095 -0.194839
5.352539 -9.636393 2.953643
2.377416 -4.292505 -1.314801
6.155171 -11.117949 0.221820
2.681648 -4.845798 -1.278622
3.056184 -5.524866 -1.227283
4.111905 -7.436427 0.743438
3.116114 -5.637852 -1.020266
3.410644 -6.175823 -0.866247
3.837816 -6.955060 -0.694980
5.370095 -9.735939 -0.582709
5.320781 -9.650516 2.544196
5.387719 -9.775962 -0.194839
5.307683 -9.634714 2.947431
2.362597 -4.302883 -1.315318
6.133648 -11.170918 0.222448
2.667530 -4.860253 -1.279971
3.036857 -5.537752 -1.227665
4.126760 -7.528321 0.751108
3.099226 -5.656165 -1.021517
3.363319 -6.140683 -0.859666
5.694581 -10.401362 1.878152
3.587784 -6.555937 -0.653842
5.323834 -9.736279 -0.581557
5.279766 -9.659694 2.541497
5.349726 -9.787690 -0.194699
5.261053 -9.629447 2.940185
2.345715 -4.307710 -1.314283
5.369920 -9.865510 0.196060
2.653424 -4.876844 -1.281771
5.367385 -9.864952 0.588570
3.018446 -5.550044 -1.228047
3.881588 -7.140077 0.711016
3.058714 -5.628765 -1.014634
4.200306 -7.732782 1.080494
3.393833 -6.250662 -0.873316
5.690285 -10.480202 1.888790
3.753053 -6.915141 -0.688356
5.278390 -9.733735 -0.580301
5.229299 -9.647225 2.533399
5.319340 -9.813335 -0.194839
5.220045 -9.634165 2.936044
2.334336 -4.322671 -1.316354
6.378575 -11.811705 0.234316
2.628906 -4.870183 -1.277722
5.329123 -9.876597 0.588152
3.004647 -5.570914 -1.230337
4.906131 -9.100255 0.904502
3.028783 -5.618011 -1.010880
4.180290 -7.757154 1.081956
3.336371 -6.193723 -0.863810
5.301544 -9.846033 1.771151
3.750609 -6.968551 -0.692365
5.291492 -9.831478 2.170262
5.229997 -9.721285 -0.578522
5.192664 -9.655932 2.531149
5.285052 -9.831844 -0.194839
5.180897 -9.642118 2.932938
2.322725 -4.335497 -1.317907
6.016333 -11.234536 0.222448
2.619247 -4.893075 -1.281321
6.261384 -11.701940 0.695545
2.989861 -5.587770 -1.231863
4.896599 -9.155127 0.908337
2.999841 -5.611129 -1.007751
4.141961 -7.750689 1.079031
3.253936 -6.091520 -0.847967
5.669086 -10.617253 1.906311
3.773168 -7.069486 -0.701081
5.184750 -9.718335 -0.577266
5.140587 -9.639609 2.522151
5.250700 -9.850233 -0.194839
5.139940 -9.646503 2.928797
2.307725 -4.345688 -1.318424
2.602152 -4.902187 -1.281321
6.181181 -11.649624 0.691149
2.968441 -5.596957 -1.231481
3.752479 -7.078235 0.700907
2.977405 -5.618595 -1.007125
4.955144 -9.350744 1.299371
3.267962 -6.169501 -0.857229
5.600563 -10.577621 1.895673
5.136958 -9.714321 -0.575905
5.091561 -9.632542 2.515403
5.195726 -9.829607 -0.194071
5.093602 -9.640472 2.921549
2.293442 -4.355426 -1.318942
6.183540 -11.747998 0.231733
2.592332 -4.927214 -1.285370
6.618474 -12.579651 0.744950
2.943403 -5.596859 -1.229192
4.154200 -7.902530 0.781090
2.948585 -5.611467 -1.003996
4.776842 -9.094685 1.261348
3.242714 -6.173841 -0.856254
5.558096 -10.586613 1.893796
3.582069 -6.825731 -0.674411
5.544026 -10.568775 2.319856
5.086322 -9.700353 -0.574021
5.046018 -9.623486 2.508654
5.148387 -9.822888 -0.193582
5.041989 -9.623969 2.911197
2.282564 -4.369856 -1.321012
6.590650 -12.622842 0.248557
2.576881 -4.937510 -1.285820
6.305042 -12.080966 0.714177
2.920287 -5.597886 -1.227283
4.113233 -7.887995 0.778301
2.926309 -5.614208 -1.002745
4.779676 -9.173853 1.270122
3.238733 -6.216249 -0.860641
3.631173 -6.975420 -0.688007
5.046753 -9.702991 -0.573183
5.001487 -9.615962 2.502356
5.113939 -9.836357 -0.193512
4.997575 -9.616637 2.903950
2.266283 -4.373971 -1.319977
6.515647 -12.580705 0.247301
2.555118 -4.935646 -1.283121
5.930552 -11.460772 0.676285
2.902533 -5.611533 -1.228047
4.030301 -7.791873 0.767493
2.894974 -5.599315 -0.998365
4.749229 -9.189652 1.270122
3.116796 -6.033513 -0.833830
5.543911 -10.736532 1.913819
3.710063 -7.188115 -0.707705
4.996377 -9.688597 -0.571299
4.962533 -9.622970 2.499656
5.064913 -9.825709 -0.192954
4.949819 -9.606548 2.895668
2.256413 -4.394278 -1.323601
2.537010 -4.944977 -1.283121
6.065317 -11.827206 0.696592
2.870304 -5.599422 -1.223086
4.003532 -7.810138 0.767842
2.874432 -5.609888 -0.998365
3.124513 -6.103207 -0.841874
5.662900 -11.066277 1.968884
3.680063 -7.194570 -0.707007
6.285677 -12.293869 2.683919
4.948106 -9.681946 -0.569834
4.911265 -9.609859 2.491558
5.021588 -9.829962 -0.192675
4.897006 -9.590215 2.885315
2.239417 -4.400797 -1.323083
2.520635 -4.957716 -1.284021
5.571301 -10.962657 0.644465
2.841846 -5.591904 -1.219270
3.974880 -7.824759 0.767842
2.844908 -5.602772 -0.995236
4.750019 -9.358749 1.288647
2.998838 -5.911033 -0.813844
3.643213 -7.184271 -0.704741
6.240949 -12.312232 2.683156
4.906157 -9.683125 -0.568892
4.868968 -9.613887 2.487959
4.971076 -9.819755 -0.192116
4.858333 -9.601204 2.883244
2.222301 -4.405138 -1.322048
2.507700 -4.975186 -1.286270
5.586920 -11.089060 0.650745
2.813476 -5.584258 -1.215453
3.951127 -7.845705 0.768539
2.821780 -5.605611 -0.993985
4.686986 -9.314981 1.280359
3.017432 -5.999496 -0.824568
3.617218 -7.195165 -0.704567
4.861568 -9.678775 -0.567636
4.823138 -9.606443 2.481660
4.926005 -9.815599 -0.191697
4.814395 -9.597382 2.877033
