# This PCD file was generated using the MATLAB® pcwrite function
# from Computer Vision Toolbox®.
# .PCD v.7 - Point Cloud Data file format
VERSION .7
FIELDS x y z
SIZE 4 4 4
TYPE F F F
COUNT 1 1 1
WIDTH 1598
HEIGHT 1
VIEWPOINT 0 0 0 1 0 0 0
POINTS 1598
DATA ascii
-13.411877 -3.086517 -2.179758
-11.764325 -2.705195 1.482175
-12.571558 -2.888511 -1.583814
-12.304524 -2.824895 1.999546
-26.244381 -6.025234 -2.355820
-12.149137 -2.786986 2.422893
-11.974600 -2.744751 -0.643837
-12.613942 -2.886661 -0.225869
-7.755478 -1.763425 -2.131116
-12.809562 -2.910261 0.229290
-9.319504 -2.115629 -2.206320
-11.162729 -2.532013 0.599875
-10.685484 -2.423761 -2.129810
-11.812155 -2.677153 1.059640
-13.476514 -3.051898 -2.188519
-11.769823 -2.663240 1.481688
-12.643522 -2.858619 -1.591614
-26.568428 -6.002076 -2.383012
-12.186731 -2.748635 -0.654723
-15.663364 -3.527021 -0.280251
-7.755930 -1.735077 -2.129563
-12.550330 -2.805331 0.224473
-9.328733 -2.083510 -2.206770
-12.380072 -2.762737 0.664771
-10.628731 -2.371908 -2.116835
-11.996445 -2.674929 1.075328
-13.425386 -2.991091 -2.178507
-11.748045 -2.615238 1.477788
-12.831697 -2.854120 -1.614038
-26.896519 -5.977593 -2.410553
-26.898052 -5.968083 -1.443949
-18.506516 -4.099410 -0.330863
-7.769486 -1.709654 -2.131634
-12.243652 -2.691944 0.218818
-9.360692 -2.056369 -2.212619
-13.041212 -2.862525 0.699732
-10.613934 -2.329741 -2.112256
-11.939540 -2.618528 1.069401
-13.520648 -2.962814 -2.192273
-11.974287 -2.621766 1.505087
-19.093658 -4.177057 -2.399851
-27.209187 -5.947489 -2.436700
-12.499886 -2.729988 2.487005
-12.568574 -2.742691 -0.674192
-11.643099 -2.536479 -0.207998
-7.771631 -1.681707 -2.130599
-12.405429 -2.682148 0.221541
-9.369718 -2.024093 -2.213068
-10.633515 -2.295165 -2.114545
-11.933027 -2.573472 1.068007
-13.612011 -2.933075 -2.205413
-12.577198 -2.707803 1.579671
-16.022411 -3.446609 -2.012307
-12.374974 -2.657486 2.460291
-12.027309 -2.576234 -0.214700
-7.777453 -1.654569 -2.130599
-12.721807 -2.704103 0.227021
-9.378633 -1.991781 -2.213518
-12.142612 -2.576564 0.650536
-10.649144 -2.259663 -2.116072
-12.737158 -2.700396 1.139126
-13.691736 -2.900282 -2.216677
-11.382488 -2.409042 1.428553
-16.042112 -3.392302 -2.013282
-16.006159 -3.381784 -1.431272
-12.937400 -2.731055 2.570197
-16.026920 -3.380323 -0.858414
-12.122326 -2.552366 -0.216235
-7.775618 -1.625827 -2.128528
-11.942321 -2.494882 0.212954
-9.383620 -1.958633 -2.213068
-12.870575 -2.686461 0.689055
-10.726157 -2.236903 -2.129810
-11.794662 -2.457591 1.054062
-13.767529 -2.866160 -2.227314
-13.499521 -2.807904 -1.693009
-16.038622 -3.324362 -0.858414
-12.220798 -2.530806 -0.217841
-7.799889 -1.603925 -2.133704
-12.032797 -2.472168 0.214420
-9.399610 -1.929464 -2.215318
-12.701374 -2.607219 0.679530
-10.891219 -2.233664 -2.161103
-16.249029 -3.329538 1.451143
-13.862108 -2.837921 -2.241080
-16.256798 -3.325214 2.037412
-13.676014 -2.797333 -1.713971
-28.768303 -5.873900 -2.568828
-20.507658 -4.179790 -1.096857
-16.214710 -3.301871 -0.288837
-7.801379 -1.577285 -2.132669
-13.401243 -2.707034 0.238644
-9.409776 -1.899053 -2.216218
-11.897888 -2.399036 0.636091
-11.114504 -2.239059 -2.203844
-11.935703 -2.404493 1.065217
-13.976017 -2.812984 -2.257975
-12.001808 -2.413451 1.503137
-13.498858 -2.712043 -1.690572
-16.282213 -3.268288 2.630290
-29.128538 -5.841604 -2.599159
-20.138277 -4.031339 -1.076341
-12.273037 -2.454622 -0.218469
-7.784368 -1.544170 -2.126457
-12.147840 -2.407541 0.216166
-9.418584 -1.864930 -2.216668
-12.361156 -2.445333 0.660375
-11.380720 -2.249316 -2.254981
-12.061712 -2.383909 1.075676
-13.645153 -2.694390 -2.202910
-12.649371 -2.495468 1.583083
-19.265881 -3.797280 -2.411063
-19.809164 -3.897178 -1.766298
-20.070604 -3.941332 -1.071945
-29.585392 -5.804428 -0.526260
-7.791871 -1.516000 -2.126975
-12.019176 -2.336291 0.213722
-9.448313 -1.834855 -2.222066
-12.466109 -2.418654 0.665504
-11.585087 -2.247720 -2.293906
-13.618089 -2.637224 -2.196966
-12.011382 -2.323898 1.502162
-19.303055 -3.731162 -2.413988
-29.979481 -5.789422 -2.671324
-30.105768 -5.802910 -1.606819
-30.038481 -5.779059 -0.533939
-7.802808 -1.489877 -2.128528
-12.082258 -2.304814 0.214700
-9.435517 -1.798217 -2.217567
-12.617704 -2.402392 0.673145
-11.681580 -2.224155 -2.311460
-13.623330 -2.588938 -2.196340
-12.748815 -2.420439 1.593320
-19.335466 -3.667458 -2.416425
-30.410591 -5.762643 -2.707929
-19.846436 -3.753612 -1.058547
-12.412849 -2.343190 -0.220494
-7.807961 -1.462630 -2.128528
-12.113816 -2.267041 0.215118
-9.439822 -1.764909 -2.217118
-13.411335 -2.505018 0.715014
-11.708571 -2.186970 -2.315277
-14.329434 -2.671328 -2.308660
-12.901602 -2.402818 1.611357
-19.371569 -3.604304 -2.419350
-30.900644 -5.743834 -2.749763
-12.165337 -2.252517 -0.215956
-7.813019 -1.435368 -2.128528
-13.301762 -2.441333 0.236061
-9.438258 -1.730541 -2.215318
-11.731582 -2.148918 -2.318329
-12.838947 -2.349442 1.141914
-14.381422 -2.629107 -2.315543
-12.890381 -2.354205 1.608919
-19.442619 -3.547346 -2.426662
-20.265427 -3.693815 -1.802206
-31.862652 -5.796171 -1.697255
-12.594178 -2.286480 -0.223426
-7.798969 -1.404662 -2.123352
-13.314139 -2.395591 0.236131
-9.448076 -1.698276 -2.216218
-11.735147 -2.107260 -2.317566
-12.807849 -2.297572 1.138428
-14.390512 -2.578891 -2.315543
-12.914152 -2.311993 1.610869
-19.501781 -3.487844 -2.432512
-20.325270 -3.631462 -1.806390
-31.965273 -5.699639 -1.701651
-12.586332 -2.239701 -0.223146
-7.819044 -1.380117 -2.127493
-20.888531 -3.683214 0.370235
-9.465463 -1.667314 -2.218917
-11.769501 -2.071046 -2.322909
-12.866811 -2.261819 1.142960
-14.430555 -2.534112 -2.320549
-12.965160 -2.274442 1.616231
-18.825573 -3.299132 -2.346716
-20.000265 -3.501401 -1.776408
-19.318474 -3.375087 -1.027774
-13.212646 -2.303600 -0.234107
-7.816201 -1.351496 -2.125422
-9.452022 -1.630950 -2.214418
-11.980637 -2.065107 0.637138
-11.784397 -2.031281 -2.324435
-14.412057 -2.479036 -2.316169
-18.852627 -3.236089 -2.348666
-20.299068 -3.480727 -1.801858
-29.437172 -5.037081 -1.565159
-20.655844 -3.527057 -0.365768
-7.824680 -1.324851 -2.126457
-12.344762 -2.087961 0.218539
-9.459579 -1.598268 -2.214868
-11.889302 -2.006657 0.631904
-11.799160 -1.991443 -2.325962
-14.385561 -2.422804 -2.310537
-18.981266 -3.190001 -2.363290
-20.346464 -3.415781 -1.804995
-20.302834 -3.401175 -1.078853
-20.431349 -3.415374 -0.361579
-7.829257 -1.297529 -2.126457
-12.363812 -2.046819 0.218748
-9.451641 -1.563015 -2.211719
-11.798291 -1.948964 -2.324435
-14.354948 -2.366152 -2.304280
-19.090225 -3.139828 -2.375477
-20.309113 -3.336667 -1.800638
-19.376411 -3.176479 -1.029030
-12.624270 -2.065043 -0.223286
-7.826110 -1.268957 -2.124387
-12.311664 -1.994054 0.217701
-9.470505 -1.532191 -2.214868
-20.669104 -3.340261 1.097276
-11.828280 -1.911527 -2.329015
-14.406025 -2.322948 -2.311163
-19.022673 -3.060562 -2.365728
-20.220312 -3.249631 -1.791748
-20.333973 -3.260617 -1.079272
-20.375713 -3.260010 -0.360183
-7.822644 -1.241784 -2.122316
-13.052916 -2.069717 0.230686
-9.489008 -1.502911 -2.218017
-12.355170 -1.954656 0.655560
-11.873336 -1.878427 -2.336647
-14.429259 -2.277626 -2.313666
-19.040560 -2.998698 -2.366703
-19.786165 -3.112585 -1.752353
-30.289118 -4.753984 -1.606819
-20.398266 -3.194285 -0.360392
-7.846020 -1.217434 -2.127493
-11.969253 -1.855077 0.211418
-9.478789 -1.467394 -2.214418
-11.872060 -1.835773 -2.335121
-14.733868 -2.273024 -2.361222
-19.564953 -3.011334 -2.430562
-19.757526 -3.037444 -1.748867
-19.428854 -2.973033 -0.343079
-7.854042 -1.190618 -2.128528
-12.869330 -1.948600 0.227195
-9.481927 -1.434008 -2.213968
-20.603661 -3.112331 1.092042
-11.901691 -1.797836 -2.339700
-13.280388 -2.003728 1.175034
-15.081590 -2.272802 -2.415661
-19.551788 -2.939479 -2.427637
-29.607677 -4.446038 -2.619379
-19.683044 -2.948675 -1.043056
-20.352827 -3.041751 -0.359205
-7.858150 -1.163193 -2.128528
-12.998701 -1.921801 0.229360
-9.490730 -1.401470 -2.214868
-11.884587 -1.752842 -2.335121
-15.503751 -2.281103 -2.481990
-19.499081 -2.861992 -2.419838
-29.871407 -4.379066 -2.641342
-19.910604 -2.911746 -1.054570
-19.716269 -2.876293 -0.347792
-7.854515 -1.134652 -2.126457
-13.033040 -1.880413 0.229848
-9.505210 -1.369720 -2.217118
-12.151938 -1.748958 0.643418
-11.867314 -1.707993 -2.330541
-15.683688 -2.251671 -2.509522
-20.004143 -2.864827 -2.481260
-29.456543 -4.213268 -2.603342
-20.181643 -2.879465 -1.068386
-19.722227 -2.806893 -0.347722
-7.862254 -1.107767 -2.127493
-20.687002 -2.911052 0.364651
-9.502213 -1.335450 -2.215318
-11.892645 -1.669287 -2.334357
-15.754054 -2.205678 -2.519534
-20.308924 -2.836160 -2.517821
-28.748846 -4.009695 -2.539544
-20.547646 -2.858531 -1.087227
-20.056744 -2.783107 -0.353446
-7.866073 -1.080316 -2.127493
-20.344393 -2.790454 0.358438
-9.493301 -1.300421 -2.212169
-20.494715 -2.803784 1.084087
-11.882839 -1.625634 -2.331304
-15.804717 -2.156548 -2.526417
-20.523266 -2.793096 -2.543170
-21.754126 -2.956742 -1.920738
-20.498125 -2.778744 -1.084087
-21.346491 -2.886157 -0.375995
-7.865966 -1.052341 -2.126457
-20.112198 -2.687113 0.354179
-9.501646 -1.267790 -2.213068
-11.880658 -1.583108 -2.329778
-15.835648 -2.104489 -2.530171
-20.780842 -2.754302 -2.573881
-20.677988 -2.729655 -1.093089
-21.419880 -2.819978 -0.377112
-7.858098 -1.023378 -2.123352
-20.264231 -2.635460 0.356692
-9.498284 -1.233614 -2.211269
-11.882217 -1.541122 -2.329015
-15.874241 -2.053257 -2.535177
-21.002958 -2.709173 -2.600204
-22.331488 -2.876578 -1.969894
-20.885487 -2.682905 -1.103556
-20.469128 -2.625784 -0.360218
-7.865455 -0.996427 -2.124387
-20.987041 -2.658722 0.369258
-9.519723 -1.204311 -2.215318
-11.871942 -1.497670 -2.325962
-15.904481 -2.003567 -2.538932
-21.240303 -2.668211 -2.628478
-32.305168 -4.046728 -2.848424
-20.977505 -2.624042 -1.107952
-21.168709 -2.640455 -0.372365
-7.866799 -0.970102 -2.123869
-9.529670 -1.171786 -2.216668
-11.872946 -1.457814 -2.325199
-15.895690 -1.946117 -2.536429
-21.371655 -2.608970 -2.643590
-32.433117 -3.953559 -2.858534
-21.006363 -2.553215 -1.108999
-7.883564 -0.944246 -2.127493
-9.506614 -1.135277 -2.210369
-11.893558 -1.418223 -2.328252
-15.918081 -1.892480 -2.538932
-21.455540 -2.543232 -2.652852
-32.470463 -3.843131 -2.860626
-20.066526 -2.360826 -0.352678
-7.898325 -0.918059 -2.130599
-9.518261 -1.102985 -2.212169
-11.894535 -1.376246 -2.327488
-15.916739 -1.836002 -2.537680
-21.499786 -2.472399 -2.657239
-36.683937 -4.212044 -3.230515
-29.040257 -3.324122 -1.531874
-21.215067 -2.420907 -0.372714
-7.901482 -0.890483 -2.130599
-9.533672 -1.071058 -2.214868
-11.891462 -1.333842 -2.325962
-15.919125 -1.779991 -2.537054
-21.480665 -2.394256 -2.653827
-31.542061 -3.510144 -2.776608
-29.742493 -3.299363 -1.568299
-19.975187 -2.208809 -0.350793
-7.885338 -0.860802 -2.125422
-9.548978 -1.039038 -2.217567
-20.751265 -2.254310 1.093926
-11.868721 -1.289356 -2.320619
-15.909533 -1.722711 -2.534552
-21.587572 -2.329916 -2.666014
-27.592278 -2.973123 -2.427985
-20.189564 -2.161204 -0.354423
-7.874846 -0.831849 -2.121799
-9.542856 -1.004681 -2.215318
-11.896580 -1.250381 -2.325199
-15.895800 -1.665111 -2.531423
-22.290550 -2.327100 -2.751810
-27.608433 -2.877402 -2.428508
-7.898843 -0.806514 -2.127493
-9.526917 -0.969389 -2.210819
-11.912592 -1.210037 -2.327488
-15.897586 -1.609212 -2.530797
-18.344448 -1.850428 -2.263845
-29.840538 -3.004786 -2.623911
-29.362055 -2.946253 -1.546528
-7.890074 -0.777801 -2.124387
-9.532183 -0.936318 -2.211269
-11.908927 -1.167683 -2.325962
-15.907039 -1.554093 -2.531423
-18.137413 -1.765606 -2.237521
-29.344332 -2.841047 -1.545062
-7.900434 -0.750986 -2.126457
-9.543153 -0.903776 -2.213068
-11.901202 -1.124997 -2.323672
-15.924166 -1.499668 -2.533300
-18.123701 -1.700429 -2.235084
-18.466356 -1.729327 -1.622666
-19.235954 -1.794625 -1.012491
-21.212984 -1.975338 -0.371876
-7.899160 -0.723051 -2.125422
-9.557742 -0.873188 -2.215768
-11.912879 -1.084156 -2.325199
-15.897575 -1.443994 -2.528294
-18.158897 -1.643002 -2.238740
-18.444500 -1.662357 -1.620225
-19.241798 -1.730826 -1.012491
-31.064804 -2.783398 -0.544410
-7.909212 -0.697531 -2.127493
-9.562673 -0.839990 -2.216218
-11.916408 -1.044648 -2.325199
-15.902518 -1.388496 -2.528294
-18.152657 -1.578573 -2.237278
-18.388378 -1.595843 -1.614822
-7.915448 -0.670243 -2.128528
-9.561522 -0.807946 -2.215318
-11.935633 -1.004359 -2.328252
-15.910972 -1.336083 -2.528920
-17.977776 -1.503314 -2.215097
-18.381924 -1.530653 -1.613776
-7.917627 -0.643994 -2.128528
-9.558456 -0.774093 -2.213968
-11.942810 -0.965095 -2.329015
-15.915539 -1.280535 -2.528920
-18.108850 -1.447463 -1.589372
-30.792374 -2.445048 -0.539175
-7.923679 -0.616650 -2.129563
-54.732147 -4.259458 0.958242
-9.559029 -0.742241 -2.213518
-11.922618 -0.921582 -2.324435
-15.931516 -1.228661 -2.530797
-18.085981 -1.382116 -1.586932
-7.922033 -0.587318 -2.128528
-54.748096 -4.049283 0.958242
-9.567637 -0.705961 -2.214868
-11.933748 -0.878454 -2.325962
-15.932177 -1.167191 -2.530171
-18.053169 -1.313072 -1.583620
-7.920180 -0.559391 -2.127493
-9.573815 -0.674504 -2.215768
-11.956326 -0.838167 -2.329778
-15.939900 -1.114626 -2.530797
-18.072264 -1.257401 -2.224360
-18.153049 -1.256651 -1.591987
-7.910427 -0.532345 -2.124387
-9.558612 -0.639909 -2.211719
-11.951203 -0.797991 -2.328252
-15.939753 -1.058717 -2.530171
-18.187466 -1.201633 -2.238009
-55.196777 -3.637138 8.761270
-18.105427 -1.193040 -1.587455
-38.103298 -2.484076 -0.666507
-7.927660 -0.505713 -2.128528
-9.572455 -0.607281 -2.214418
-11.949998 -0.756020 -2.327488
-15.959121 -1.004066 -2.532674
-18.199476 -1.138635 -2.238984
-55.264336 -3.447899 8.770030
-18.113457 -1.130085 -1.587803
-7.933235 -0.478268 -2.129563
-9.574517 -0.573863 -2.214418
-11.944725 -0.713830 -2.325962
-15.982248 -0.949523 -2.535803
-18.151815 -1.072061 -2.232647
-55.276035 -3.254968 8.770030
-18.157072 -1.069192 -1.591290
-7.942571 -0.451012 -2.131634
-9.582299 -0.540768 -2.215768
-11.947144 -0.672134 -2.325962
-15.985465 -0.893724 -2.535803
-17.984991 -0.999222 -2.211685
-18.097034 -1.002275 -1.585711
-7.940238 -0.423079 -2.130599
-9.595803 -0.507934 -2.218467
-11.957260 -0.630840 -2.327488
-15.996377 -0.838336 -2.537054
-17.936827 -0.933753 -2.205348
-18.100422 -0.939102 -1.585711
-7.930090 -0.394783 -2.127493
-9.585841 -0.473857 -2.215768
-11.963310 -0.589290 -2.328252
-15.991315 -0.782107 -2.535803
-17.971701 -0.872676 -2.209248
-18.067770 -0.874180 -1.582574
-7.946857 -0.367816 -2.131634
-9.577703 -0.439946 -2.213518
-11.969217 -0.547709 -2.329015
-15.978161 -0.725565 -2.533300
-18.042065 -0.812976 -2.217535
-18.074692 -0.811285 -1.582923
-7.951954 -0.340237 -2.132669
-9.592808 -0.407092 -2.216668
-11.955364 -0.505259 -2.325962
-16.004278 -0.670782 -2.537054
-18.088427 -0.751805 -2.222897
-18.017693 -0.745720 -1.577693
-7.929928 -0.311567 -2.126457
-9.594171 -0.373604 -2.216668
-11.957055 -0.463523 -2.325962
-16.006523 -0.614908 -2.537054
-18.086851 -0.691665 -2.222409
-18.036112 -0.683420 -1.579088
-7.934779 -0.285407 -2.127493
-9.607042 -0.342202 -2.219367
-11.966374 -0.424147 -2.327488
-16.020321 -0.562244 -2.538932
-18.033497 -0.629743 -2.215585
-18.042263 -0.623748 -1.579436
-83.680756 -2.849085 -1.461499
-7.927959 -0.258843 -2.125422
-9.588647 -0.309713 -2.214868
-11.979488 -0.384844 -2.329778
-16.006300 -0.508613 -2.536429
-18.024317 -0.563291 -1.577693
-83.646225 -2.555622 -1.460732
-7.940400 -0.231505 -2.128528
-9.589670 -0.276240 -2.214868
-11.984683 -0.343137 -2.330541
-15.984283 -0.452067 -2.532674
-18.060034 -0.501311 -1.580657
-83.662628 -2.263840 -1.460871
-7.950816 -0.204034 -2.131116
-9.596420 -0.242912 -2.216218
-11.974033 -0.301004 -2.328252
-16.025261 -0.397248 -2.538932
-18.075615 -0.438600 -1.581877
-83.630035 -1.970865 -1.460173
-7.941823 -0.176065 -2.128528
-9.587468 -0.209200 -2.213968
-11.967159 -0.259035 -2.326725
-16.042349 -0.341643 -2.541435
-17.937330 -0.375731 -2.202910
-18.120859 -0.376415 -1.585711
-83.618416 -1.678566 -1.459859
-7.957841 -0.148632 -2.132669
-9.595934 -0.175874 -2.215768
-11.956212 -0.217049 -2.324435
-16.015791 -0.285149 -2.537054
-18.111210 -0.316133 -2.224116
-18.353199 -0.313949 -1.605932
-83.663765 -1.387314 -1.460557
-7.950606 -0.119346 -2.130599
-9.596490 -0.142379 -2.215768
-12.000115 -0.173849 -2.332831
-16.040430 -0.226782 -2.540809
-18.126097 -0.253105 -2.225822
-83.640099 -1.094915 -1.460068
-7.962564 -0.091728 -2.133704
-9.593049 -0.107159 -2.214868
-12.000648 -0.131962 -2.332831
-16.037174 -0.170746 -2.540183
-18.109035 -0.186488 -2.223628
-83.667412 -0.803178 -1.460487
-7.955109 -0.063870 -2.131634
-9.601147 -0.075408 -2.216668
-11.985332 -0.089953 -2.329778
-16.029753 -0.117505 -2.538932
-18.127420 -0.126559 -2.225822
-18.397320 -0.122017 -1.609592
-83.555725 -0.510421 -1.458498
-7.943686 -0.037435 -2.128528
-9.609146 -0.041927 -2.218467
-11.973784 -0.050158 -2.327488
-16.061670 -0.061671 -2.543938
-18.155544 -0.063374 -2.229234
-18.437481 -0.057927 -1.613078
-19.249498 -0.057114 -1.008828
-83.393013 -0.218342 -1.455635
-7.939906 -0.008313 -2.127493
-9.597542 -0.008376 -2.215768
-12.005299 -0.006285 -2.333594
-16.057838 -0.002805 -2.543312
-18.286673 0.000002 -2.245321
-18.519258 0.006461 -1.620225
-19.287527 0.013462 -1.010817
-83.665230 0.073015 -1.460382
-7.955341 0.019438 -2.131634
-9.593611 0.026787 -2.214868
-12.005247 0.035619 -2.333594
-16.034046 0.053173 -2.539557
-83.606537 0.350198 -4.381671
-83.680389 0.379717 -1.460662
-7.951354 0.048572 -2.130599
-9.597356 0.060302 -2.215768
-11.993257 0.079543 -2.331304
-16.073250 0.112213 -2.545815
-24.142076 0.172757 -2.964350
-83.041481 0.652207 -4.352154
-83.656563 0.671639 -1.460278
-7.958876 0.075013 -2.132669
-9.604882 0.093879 -2.217567
-12.012560 0.119509 -2.335121
-16.053038 0.165310 -2.542686
-24.014332 0.251485 -2.948751
-83.649879 0.949009 -1.460208
-7.943129 0.101208 -2.128528
-9.592826 0.125577 -2.214868
-11.988540 0.159031 -2.330541
-16.103754 0.219243 -2.550821
-83.652275 1.226487 -1.460313
-7.927297 0.127300 -2.124387
-9.611841 0.157707 -2.219367
-12.003615 0.201139 -2.333594
-16.063438 0.271975 -2.544563
-24.067636 0.415895 -2.955575
-83.625710 1.503489 -4.383346
-83.659477 1.518701 -1.460522
-7.953818 0.156886 -2.131634
-9.583922 0.192386 -2.213068
-11.998872 0.245056 -2.332831
-16.086033 0.331334 -2.548318
-24.065950 0.504110 -2.955575
-82.956696 1.795614 -4.348595
-83.669334 1.825668 -1.460801
-7.945465 0.185857 -2.129563
-9.583153 0.227514 -2.213068
-11.986167 0.286654 -2.330541
-16.080759 0.390198 -2.547692
-24.135489 0.589854 -2.964350
-83.666451 2.117821 -1.460871
-7.956392 0.212514 -2.132669
-9.586242 0.259397 -2.213968
-11.985151 0.326401 -2.330541
-16.067530 0.443195 -2.545815
-24.061962 0.667905 -2.955575
-83.678970 2.395833 -1.461220
-7.936333 0.238317 -2.127493
-9.593121 0.291420 -2.215768
-11.968241 0.367752 -2.327488
-16.089664 0.497204 -2.549569
-24.031706 0.751025 -2.952163
-83.612534 2.671459 -4.384183
-83.682091 2.688281 -1.461430
-7.935406 0.267404 -2.127493
-9.599778 0.326844 -2.217567
-11.994281 0.412561 -2.332831
-16.071941 0.555626 -2.547066
-24.028791 0.839101 -2.952163
-82.975441 2.955553 -4.351316
-83.679657 2.995280 -1.461569
-7.949817 0.297064 -2.131634
-9.582937 0.361437 -2.213968
-12.000615 0.454724 -2.334357
-16.069798 0.614529 -2.547066
-24.025717 0.922973 -2.952163
-83.708656 3.288931 -1.462267
-7.952649 0.323582 -2.132669
-9.589474 0.393533 -2.215768
-11.975503 0.493547 -2.329778
-16.091354 0.668796 -2.550821
-24.050291 1.003800 -2.955575
-83.697296 3.566504 -1.462267
-7.955392 0.350121 -2.133704
-9.595904 0.425676 -2.217567
-11.962032 0.532733 -2.327488
-16.049582 0.720383 -2.544563
-24.118032 1.090975 -2.964350
-83.655533 3.828033 -4.388789
-83.796196 3.863780 -1.464222
-7.938618 0.378540 -2.129563
-9.590466 0.458984 -2.216668
-11.967843 0.576948 -2.329015
-16.058670 0.779782 -2.546440
-24.114077 1.175151 -2.964350
-83.798172 4.157055 -1.464501
-7.929531 0.405854 -2.127493
-9.592612 0.494332 -2.217567
-11.965756 0.618720 -2.329015
-16.055849 0.835829 -2.546440
-24.109608 1.263532 -2.964350
-7.928066 0.433531 -2.127493
-9.575353 0.525286 -2.213968
-11.975285 0.661135 -2.331304
-16.049046 0.888849 -2.545815
-7.930441 0.460043 -2.128528
-9.573461 0.558707 -2.213968
-11.965188 0.700384 -2.329778
-16.049789 0.945098 -2.546440
-24.100449 1.427612 -2.964350
-83.718109 5.032431 -1.463943
-7.930717 0.487840 -2.129046
-9.571452 0.592122 -2.213968
-11.962670 0.742149 -2.329778
-16.046392 1.001117 -2.546440
-24.095320 1.511724 -2.964350
-83.631798 5.290964 -4.391720
-83.727974 5.326411 -1.464431
-7.923182 0.515146 -2.127493
-9.580995 0.626290 -2.216668
-11.952170 0.783386 -2.328252
-16.050686 1.057640 -2.547692
-24.089895 1.595824 -2.964350
-82.967155 5.539752 -4.357806
-83.704887 5.618358 -1.464362
-7.909771 0.542008 -2.124387
-9.563197 0.658661 -2.213068
-11.968947 0.826455 -2.332067
-16.035070 1.112844 -2.545815
-24.084179 1.679904 -2.964350
-83.704712 5.911920 -1.464711
-7.915539 0.570169 -2.126457
-9.568615 0.692602 -2.214868
-11.954243 0.867377 -2.329778
-16.074432 1.171971 -2.552698
-24.078167 1.763964 -2.964350
-83.760429 6.195070 -1.466037
-7.928911 0.598960 -2.130599
-9.558492 0.723740 -2.213068
-11.951143 0.909097 -2.329778
-16.050760 1.223768 -2.549569
-24.072186 1.843796 -2.964350
-82.774277 6.383644 -4.350898
-83.780159 6.490656 -1.466770
-7.909549 0.623883 -2.125940
-9.548138 0.756486 -2.211269
-11.944147 0.948413 -2.329015
-16.085775 1.282930 -2.555827
-24.136837 1.933525 -2.973125
-83.812798 6.787567 -1.467747
-7.913098 0.651965 -2.127493
-9.547381 0.789969 -2.211719
-11.936851 0.989777 -2.328252
-16.124506 1.342674 -2.562710
-24.058727 2.011812 -2.964350
-83.732803 7.075395 -1.466770
-7.895376 0.678258 -2.123352
-9.556214 0.824296 -2.214418
-11.921587 1.030427 -2.325962
-16.084297 1.395877 -2.557078
-24.051558 2.095776 -2.964350
-83.701675 7.337654 -4.403443
-7.912202 0.707537 -2.128528
-9.541634 0.856604 -2.211719
-11.910096 1.071328 -2.324435
-16.106869 1.454501 -2.561458
-24.044096 2.179719 -2.964350
-83.385162 7.603306 -4.388161
-7.901862 0.735815 -2.126457
-9.517086 0.889575 -2.206770
-11.929546 1.117171 -2.329015
-16.101431 1.513526 -2.561458
-24.075470 2.271560 -2.969225
-7.899245 0.763392 -2.126457
-9.535259 0.924860 -2.211719
-11.917758 1.158047 -2.327488
-16.080322 1.568188 -2.558955
-24.027882 2.351719 -2.964350
-7.892688 0.790578 -2.125422
-9.531974 0.958136 -2.211719
-11.913643 1.199641 -2.327488
-16.098333 1.626689 -2.562710
-24.019526 2.435578 -2.964350
-7.893723 0.818522 -2.126457
-9.530682 0.989942 -2.212169
-11.913288 1.241627 -2.328252
-16.081062 1.678834 -2.560833
-24.011318 2.515217 -2.964350
-7.894807 0.845106 -2.127493
-9.515542 1.021956 -2.209469
-11.909105 1.281127 -2.328252
-16.090818 1.736654 -2.563336
-23.903711 2.588327 -2.952163
-7.895648 0.873082 -2.128528
-9.508043 1.054738 -2.208570
-11.908463 1.323120 -2.329015
-16.072876 1.791502 -2.561458
-23.993174 2.682781 -2.964350
-7.888715 0.900200 -2.127493
-9.512048 1.088805 -2.210369
-11.911573 1.365575 -2.330541
-16.070452 1.848044 -2.562084
-23.912668 2.758333 -2.955575
-7.875931 0.926602 -2.124904
-9.512060 1.122459 -2.211269
-11.930131 1.409912 -2.335121
-16.052132 1.902734 -2.560207
-23.902895 2.841782 -2.955575
-61.154957 7.303117 -3.227768
-7.870731 0.953855 -2.124387
-9.510019 1.155891 -2.211719
-11.917340 1.450598 -2.333594
-16.049314 1.959234 -2.560833
-23.963764 2.933887 -2.964350
-61.188557 7.523843 -3.230908
-7.875021 0.982282 -2.126457
-9.494324 1.187627 -2.209019
-11.947270 1.496582 -2.340463
-16.042377 2.015241 -2.560833
-23.854898 3.005113 -2.952163
-7.875377 1.010256 -2.127493
-9.488188 1.220515 -2.208570
-11.914712 1.534765 -2.335121
-16.039162 2.071738 -2.561458
-23.844265 3.088359 -2.952163
-7.867972 1.037234 -2.126457
-9.484089 1.251970 -2.208570
-11.940423 1.580465 -2.341227
-16.028288 2.124396 -2.560833
-23.833891 3.167413 -2.952163
-7.845345 1.060731 -2.121281
-9.493177 1.286903 -2.211719
-11.927335 1.618997 -2.339700
-16.032518 2.181931 -2.562710
-23.822691 3.250591 -2.952163
-53.013500 7.261945 -2.804265
-7.837578 1.088947 -2.120246
-9.490558 1.320299 -2.212169
-11.897987 1.659450 -2.335121
-15.993113 2.236298 -2.557704
-53.397606 7.466523 6.620187
-23.811197 3.333734 -2.952163
-52.986526 7.456201 -2.804265
-7.845203 1.117934 -2.123352
-9.477938 1.353973 -2.210369
-11.899896 1.702084 -2.336647
-15.965654 2.289307 -2.554575
-23.798819 3.420978 -2.952163
-52.991806 7.645666 -2.805940
-7.841253 1.145312 -2.123352
-9.494607 1.388497 -2.215318
-11.905537 1.745318 -2.338937
-15.977519 2.345108 -2.557704
-23.787344 3.499880 -2.952163
-52.993820 7.825438 -2.807406
-7.841234 1.171880 -2.124387
-9.491630 1.421918 -2.215768
-11.868619 1.780130 -2.332831
-15.949700 2.397933 -2.554575
-23.774982 3.582893 -2.952163
-7.835185 1.198952 -2.123869
-9.496239 1.456521 -2.218017
-11.862333 1.821549 -2.332831
-15.933426 2.452388 -2.553324
-23.789799 3.670099 -2.955575
-7.817593 1.224201 -2.120246
-9.500723 1.491171 -2.220267
-11.890814 1.868431 -2.339700
-15.940380 2.510450 -2.555827
-23.651350 3.733311 -2.939976
-7.832348 1.254537 -2.125422
-9.489687 1.523400 -2.218917
-11.857080 1.905562 -2.334357
-15.923716 2.564821 -2.554575
-23.763596 3.836094 -2.955575
-7.826014 1.281559 -2.124904
-45.006298 7.378133 0.796074
-9.467005 1.553673 -2.214868
-11.858107 1.948216 -2.335884
-45.168289 7.428975 4.004806
-15.875687 2.613967 -2.548318
-23.750061 3.919022 -2.955575
-45.151657 7.458605 7.248236
-44.817661 7.419515 -2.380763
-45.354111 7.516444 10.613641
-7.819587 1.308551 -2.124387
-44.854046 7.514035 0.793840
-9.476898 1.589288 -2.218467
-11.839616 1.987646 -2.333594
-15.878151 2.671338 -2.550195
-23.708832 3.997276 -2.952163
-44.673336 7.555918 -2.374483
-7.799738 1.333233 -2.120246
-44.953693 7.692145 0.796074
-9.471293 1.622362 -2.218467
-11.832606 2.028960 -2.333594
-15.864837 2.726079 -2.549569
-43.362743 7.458867 5.402468
-23.722124 4.084727 -2.955575
-45.137417 7.780363 7.254492
-43.094662 7.435986 8.500542
-44.713604 7.723382 -2.378042
-7.791231 1.359787 -2.119210
-9.477091 1.657425 -2.221167
-11.833187 2.071605 -2.335121
-15.831877 2.777342 -2.545815
-44.749313 7.890513 -2.381391
-7.813064 1.391718 -2.126457
-9.448226 1.686388 -2.215768
-11.810422 2.110136 -2.332067
-15.829864 2.833981 -2.547066
-23.568716 4.223694 -2.939976
-41.399246 7.441445 8.176166
-41.644268 7.492979 9.768724
-41.021614 7.388338 -0.727556
-7.808405 1.417620 -2.126457
-9.431078 1.715617 -2.213068
-11.838127 2.155621 -2.338937
-15.793173 2.881496 -2.542686
-40.651276 7.424239 5.073909
-23.484282 4.288990 -2.931202
-40.895428 7.490956 8.081525
-7.807460 1.444209 -2.127493
-9.433002 1.748303 -2.214868
-11.807749 2.190568 -2.334357
-15.806834 2.938184 -2.546440
-40.528851 7.540847 5.061721
-23.539419 4.384023 -2.939976
-40.870365 7.626530 8.081525
-7.802372 1.471451 -2.127493
-9.419182 1.779773 -2.213068
-11.803890 2.232499 -2.335121
-15.792601 2.992608 -2.545815
-23.406960 4.443950 -2.925352
-39.179691 7.445580 6.316512
-39.340500 7.497484 9.245938
-38.586227 7.360723 -0.685670
-7.797188 1.498678 -2.127493
-38.505886 7.408098 0.684448
-9.412911 1.812639 -2.213068
-39.170254 7.550084 2.090612
-11.776747 2.269973 -2.331304
-15.739390 3.039473 -2.538932
-38.474689 7.450841 6.207007
-38.721062 7.519587 9.106468
-37.853630 7.357999 -0.673104
-7.803284 1.528116 -2.130599
-9.402703 1.844736 -2.212169
-11.776457 2.312584 -2.332831
-15.728684 3.094395 -2.538932
-40.603477 7.995530 5.081221
-23.297461 4.591892 -2.915602
-37.750759 7.447459 6.094374
-37.215813 7.341925 -3.318717
-37.880192 7.493609 8.914810
-37.215694 7.368905 -0.662214
-7.801692 1.556099 -2.131634
-37.155048 7.417563 0.661341
-9.384740 1.875257 -2.209469
-11.776013 2.355216 -2.334357
-15.756523 3.157046 -2.545189
-37.141979 7.448663 4.651266
-23.281288 4.673188 -2.915602
-37.143532 7.462470 6.000514
-36.603947 7.354063 -3.266423
-37.183758 7.477294 7.372478
-37.414421 7.537276 8.811333
-36.609512 7.381773 -0.651882
-7.792426 1.582554 -2.130599
-36.470497 7.413375 0.649613
-9.397234 1.911888 -2.213968
-36.670074 7.467272 1.961238
-11.752330 2.393173 -2.331304
-15.729924 3.208865 -2.542686
-36.808453 7.515524 4.612755
-36.412804 7.447980 5.886630
-35.933903 7.350025 -3.208900
-36.841995 7.542468 7.309893
-35.952625 7.366939 -1.923347
-35.988037 7.387276 -0.641271
-7.775503 1.607399 -2.127493
-35.856934 7.419086 0.639142
-9.375237 1.941518 -2.210369
-36.639870 7.594419 1.961028
-11.770819 2.439761 -2.336647
-35.854713 7.438204 3.203671
-15.679943 3.255722 -2.536429
-36.770329 7.641541 4.611292
-23.248096 4.835614 -2.915602
-35.922443 7.478415 5.811541
-35.381374 7.365774 -3.161836
-35.862144 7.472392 7.120610
-35.359688 7.374146 -1.892992
-35.945431 7.502839 8.477506
-35.382626 7.391818 -0.630939
-7.762284 1.632938 -2.125422
-35.243782 7.420605 0.628671
-9.376030 1.975839 -2.212169
-36.742123 7.749466 1.967937
-11.746863 2.477590 -2.333594
-15.683946 3.313702 -2.538932
-36.801697 7.782177 4.618605
-23.231077 4.916730 -2.915602
-35.443920 7.507975 5.738330
-34.723927 7.355461 -3.105359
-35.282715 7.480270 7.010704
-34.774960 7.378955 -1.863056
-35.617840 7.564304 8.406421
-34.742424 7.384734 -0.619979
-7.760314 1.660834 -2.126457
-34.728828 7.438876 0.619944
-9.334778 2.001200 -2.204070
-36.675785 7.869302 1.965843
-11.749660 2.521054 -2.335884
-15.672284 3.368426 -2.538932
-36.785954 7.913089 4.620068
-23.116741 4.976902 -2.903415
-34.567829 7.448561 5.600667
-34.160480 7.360786 -3.057249
-34.653786 7.473420 6.890876
-34.182823 7.378095 -1.832701
-35.652168 7.701764 8.420817
-34.196529 7.393547 -0.610695
-7.754469 1.687913 -2.126457
-34.116489 7.432353 0.609473
-9.358200 2.040418 -2.211269
-36.636391 7.994723 1.965215
-11.729280 2.559541 -2.333594
-34.217651 7.473158 3.064221
-15.660430 3.423116 -2.538932
-22.889799 5.011705 -2.877092
-34.078514 7.467708 5.525579
-33.725872 7.390432 -3.020644
-34.132729 7.485831 6.792419
-33.649647 7.386039 -1.805486
-33.604130 7.388344 -0.600572
-34.374035 7.563909 9.430849
-7.748530 1.714969 -2.126457
-33.606152 7.444145 0.600817
-9.358629 2.074759 -2.213068
-36.683773 8.132598 1.969193
-11.712607 2.598765 -2.332067
-33.607853 7.462983 3.011928
-15.609818 3.469190 -2.532674
-33.656559 7.486135 4.233498
-22.511759 5.011351 -2.831756
-33.629364 7.486245 5.456748
-33.120342 7.378999 -2.968699
-33.577518 7.487006 6.687092
-33.120735 7.391222 -1.778481
-33.114960 7.396000 -0.592265
-33.783169 7.551430 9.275558
-7.731188 1.739462 -2.123352
-33.070137 7.440543 0.591671
-9.332687 2.101501 -2.208570
-38.977650 8.783986 2.093962
-11.691975 2.637043 -2.329778
-33.126816 7.477604 2.971139
-15.629059 3.527894 -2.537680
-33.124237 7.483098 4.169638
-22.111645 4.999293 -2.783496
-33.541374 7.589639 5.446736
-32.628017 7.388954 -2.926864
-33.004883 7.474298 6.577950
-32.612976 7.391523 -1.752522
-36.483196 8.275387 8.636770
-32.698929 7.423012 -0.585284
-33.191448 7.540911 9.120266
-7.736677 1.767672 -2.126457
-32.482540 7.427559 0.581619
-9.336693 2.136672 -2.211269
-38.993477 8.930693 2.096474
-11.683166 2.675801 -2.329778
-32.686249 7.492149 2.933837
-15.585842 3.575362 -2.532674
-32.618099 7.488513 4.109191
-21.803856 5.009774 -2.746935
-32.133446 7.389061 -2.884681
-32.542374 7.489066 6.490941
-32.084827 7.389675 -1.725517
-32.318188 7.455293 -0.578931
-32.882572 7.591540 9.042621
-7.726696 1.793794 -2.125422
-32.039585 7.444061 0.574149
-9.313992 2.165719 -2.207669
-11.681401 2.718346 -2.331304
-32.174778 7.493229 2.890259
-15.592506 3.634226 -2.535803
-32.116192 7.491396 4.049231
-21.480803 5.014552 -2.708425
-33.549126 7.837989 5.456748
-31.622419 7.387858 -2.841103
-32.118401 7.509644 6.411564
-31.603773 7.395144 -1.701023
-36.519409 8.552094 8.659266
-32.201347 7.552759 8.862482
-7.716628 1.819865 -2.124387
-31.573561 7.452035 0.566261
-9.294996 2.195530 -2.204970
-39.000149 9.219251 2.100242
-11.675662 2.760011 -2.332067
-31.760653 7.513751 2.855396
-15.575881 3.687722 -2.535177
-31.633986 7.495452 3.991709
-21.177303 5.021713 -2.672351
-33.598442 7.973296 5.469263
-31.177708 7.398828 -2.803452
-31.541872 7.491070 6.301658
-31.099758 7.391797 -1.675274
-36.527245 8.688538 8.668263
-31.678665 7.546916 8.725825
-7.725257 1.850392 -2.128528
-31.061199 7.445667 0.557535
-9.298646 2.230688 -2.207669
-38.967728 9.355322 2.100242
-11.646868 2.796165 -2.328252
-31.153053 7.484935 2.803103
-15.574435 3.744840 -2.537054
-31.175310 7.501793 3.937111
-20.966652 5.049129 -2.647977
-33.631855 8.105346 5.479274
-30.671333 7.391854 -2.760222
-31.038399 7.486042 6.206254
-30.685465 7.406586 -1.654340
-31.185190 7.532973 7.406739
-31.490644 7.618384 8.681309
-7.699980 1.872782 -2.123352
-30.611456 7.450942 0.549925
-9.287016 2.262213 -2.206770
-38.989170 9.504534 2.103173
-11.629407 2.834943 -2.326725
-30.669930 7.482193 2.761966
-15.553595 3.797309 -2.535803
-30.751690 7.513512 3.886901
-20.948900 5.122287 -2.647977
-33.657085 8.235834 5.488034
-30.250546 7.402259 -2.724663
-30.722229 7.523362 6.148248
-30.259813 7.415722 -1.632777
-30.749897 7.541515 7.309560
-33.368408 8.189888 -0.599734
-7.689645 1.898723 -2.122316
-30.169821 7.455094 0.542456
-9.290413 2.297424 -2.209469
-11.615628 2.874577 -2.325962
-30.252964 7.492447 2.726754
-15.521070 3.846826 -2.532674
-30.243597 7.501340 3.825966
-20.803736 5.163819 -2.631891
-33.605129 8.347555 5.484280
-30.345211 7.543411 6.078030
-30.269537 7.535819 7.201583
-33.360962 8.311634 -0.600118
-7.682971 1.925551 -2.122316
-29.767328 7.465992 0.535684
-9.276668 2.328417 -2.208120
-38.991604 9.794005 2.106941
-11.613141 2.917017 -2.327488
-29.797661 7.490184 2.688057
-15.507547 3.900982 -2.532674
-29.793724 7.500245 3.772344
-20.650837 5.202461 -2.614829
-33.617920 8.475432 5.491163
-29.031239 7.319081 -2.619379
-29.816145 7.522491 5.977283
-29.095760 7.346149 -1.572696
-29.834946 7.538320 7.104404
-32.203430 8.142738 -0.579804
-7.676202 1.952358 -2.122316
-29.353500 7.471205 0.528703
-9.253376 2.356934 -2.204520
-39.011368 9.943875 2.109872
-11.610497 2.959479 -2.329015
-29.443136 7.510436 2.658424
-15.509151 3.958996 -2.535177
-29.382692 7.505942 3.723596
-20.613317 5.269598 -2.612391
-33.649372 8.608389 5.501175
-28.997795 7.418394 -2.618681
-29.333242 7.509672 5.885695
-29.008026 7.431807 -1.569346
-29.381834 7.533033 7.002726
-32.244545 8.272992 -0.581060
-32.451511 8.332130 8.977398
-7.673081 1.980109 -2.123352
-28.928394 7.470614 0.521513
-9.250752 2.390683 -2.205870
-39.007351 10.087991 2.111547
-11.577286 2.994091 -2.324435
-28.957676 7.494352 2.616938
-15.468464 4.006175 -2.530797
-28.998896 7.515828 3.678261
-20.610170 5.345502 -2.614341
-28.946133 7.512936 4.736523
-28.651592 7.436489 -2.589746
-28.930611 7.514297 5.810134
-28.599173 7.433531 -1.548621
-29.015882 7.547256 6.921744
-28.639198 7.454614 -0.516556
-29.109529 7.582457 8.060143
-7.651172 2.002965 -2.119210
-28.573290 7.485399 0.515579
-9.246120 2.423951 -2.206770
-28.659506 7.518677 1.552808
-11.559170 3.032490 -2.322909
-28.565195 7.499263 2.583819
-15.465847 4.063161 -2.532674
-28.596193 7.518072 3.630488
-20.576029 5.413373 -2.612391
-28.606443 7.531450 4.685213
-28.228554 7.431960 -2.553838
-28.585264 7.531201 5.746023
-28.202246 7.435553 -1.528524
-28.593666 7.544097 6.827265
-28.322989 7.477962 -0.511321
-28.709330 7.585333 7.956615
-7.655336 2.032635 -2.122316
-28.164324 7.483419 0.508668
-9.241369 2.457210 -2.207669
-28.254786 7.518014 1.532292
-11.556102 3.074840 -2.324435
-28.423326 7.568172 2.573360
-15.443935 4.115085 -2.531423
-28.232195 7.527833 3.587590
-20.576185 5.490287 -2.614829
-28.228815 7.537487 4.627645
-27.863649 7.439982 -2.523159
-28.524658 7.621814 5.739153
-27.828810 7.441094 -1.509683
-28.183125 7.541097 6.735485
-28.300575 7.577816 -0.511390
-28.622965 7.669501 7.940051
-7.648194 2.059345 -2.122316
-27.744139 7.475553 0.501547
-9.213922 2.484381 -2.203171
-27.896702 7.527106 1.514289
-11.545298 3.115160 -2.324435
-28.435204 7.677729 2.576847
-15.410407 4.163817 -2.528294
-27.776499 7.510276 3.532993
-20.537735 5.556889 -2.612391
-27.779039 7.521369 4.558188
-27.514421 7.449722 -2.493875
-27.447979 7.442017 -1.490423
-27.818094 7.547578 6.654502
-28.297108 7.682853 -0.511809
-7.644687 2.087046 -2.123352
-27.343651 7.470118 0.494776
-9.197674 2.514473 -2.201371
-27.470863 7.510023 1.492517
-11.538141 3.156478 -2.325199
-28.446663 7.787461 2.580333
-15.422450 4.224891 -2.532674
-27.394024 7.509574 3.487657
-20.499067 5.623294 -2.609954
-27.414856 7.520430 4.502497
-27.146255 7.451841 -2.462847
-28.508617 7.831170 5.746786
-27.086740 7.445671 -1.472211
-27.393242 7.535066 6.559123
-28.313892 7.788309 -0.512577
-27.527052 7.577048 7.650174
-7.633631 2.112690 -2.122316
-26.998804 7.472210 0.488982
-9.189284 2.544960 -2.201371
-27.128830 7.518384 1.475351
-11.508134 3.191488 -2.321382
-28.453865 7.896302 2.583471
-15.404550 4.274954 -2.532048
-27.074413 7.518570 3.450121
-20.465008 5.686989 -2.608004
-27.015417 7.512351 4.441175
-26.728506 7.437601 -2.427287
-28.490055 7.927778 5.748312
-26.711721 7.437946 -1.453160
-27.033958 7.532758 6.479041
-28.286531 7.887104 -0.512577
-27.139446 7.572361 7.549752
-7.615423 2.134862 -2.119210
-26.637543 7.472430 0.482908
-9.180346 2.577019 -2.201371
-26.740923 7.511500 1.455672
-11.501267 3.230695 -2.322146
-28.462048 8.000321 2.586608
-15.381927 4.326558 -2.530797
-26.681120 7.509775 3.403323
-20.456495 5.761620 -2.609467
-26.719044 7.530509 4.396748
-26.404539 7.441868 -2.400095
-28.583141 8.061278 5.772736
-26.401114 7.450857 -1.437669
-26.714939 7.544452 6.408855
-28.305014 7.998839 -0.513415
-26.800547 7.578735 7.462789
-7.600490 2.159322 -2.117140
-26.284307 7.472400 0.476974
-9.178792 2.611182 -2.203171
-26.422558 7.521679 1.439762
-11.505026 3.275123 -2.325199
-28.449280 8.103985 2.588003
-15.351533 4.375893 -2.528294
-26.376036 7.523367 3.367738
-20.428625 5.830808 -2.608492
-26.346899 7.525002 4.339805
-26.025896 7.433319 -2.368021
-28.581255 8.168557 5.778079
-26.048498 7.449603 -1.419875
-26.471109 7.575470 6.356667
-26.454504 7.580709 7.373755
-7.598477 2.187441 -2.118693
-25.939083 7.472217 0.471180
-9.173365 2.644288 -2.204070
-26.108290 7.530830 1.424062
-11.463343 3.306555 -2.319093
-15.313390 4.422879 -2.524540
-26.101698 7.543734 3.336052
-20.400520 5.899876 -2.607517
-25.990303 7.521377 4.285366
-25.735678 7.447690 -2.343966
-28.582741 8.277005 5.784184
-25.677032 7.440426 -1.401034
-26.130068 7.576652 6.281083
-26.086515 7.573895 7.278510
-7.592649 2.214493 -2.119210
-25.621063 7.477560 0.465875
-9.145374 2.670828 -2.199572
-25.794281 7.537886 1.408361
-11.455500 3.347651 -2.319856
-29.478195 8.620030 2.687011
-15.305441 4.478522 -2.525791
-25.823734 7.561170 3.303878
-20.391228 5.974406 -2.608979
-25.645432 7.518689 4.232804
-25.392145 7.444431 -2.315031
-29.570957 8.675166 5.990258
-25.363445 7.445632 -1.385333
-25.647245 7.533805 6.171308
-25.715197 7.563518 7.182229
-7.581167 2.239887 -2.118175
-25.295652 7.478507 0.460429
-9.132257 2.701630 -2.198672
-25.442244 7.531503 1.390566
-11.455040 3.390961 -2.322146
-29.444109 8.721739 2.686663
-15.289715 4.531921 -2.525791
-25.507904 7.565468 3.266830
-20.351217 6.039900 -2.606542
-25.312262 7.517055 4.182119
-25.094793 7.452473 -2.290279
-29.563076 8.785054 5.994837
-25.061625 7.452148 -1.370260
-25.314470 7.532136 6.097523
-25.436842 7.578219 7.111830
-7.558497 2.261905 -2.114034
-24.993538 7.484158 0.455403
-9.135838 2.737406 -2.201821
-25.113525 7.529639 1.374028
-11.446894 3.432054 -2.322909
-29.459282 8.838205 2.690846
-15.258669 4.580721 -2.523288
-25.196161 7.568802 3.230269
-20.330011 6.110898 -2.606542
-25.005903 7.521160 4.135815
-24.770985 7.450502 -2.263086
-29.592390 8.906301 6.007049
-24.737123 7.449734 -1.353931
-24.967096 7.523744 6.020140
-32.116562 9.684334 -0.585528
-25.095821 7.572091 7.023831
-7.554252 2.289397 -2.115069
-24.657249 7.477345 0.449749
-9.122499 2.768147 -2.200921
-24.796598 7.529055 1.358118
-11.423573 3.468568 -2.320619
-29.451130 8.947935 2.692938
-15.242586 4.633953 -2.523288
-24.728987 7.522669 3.173722
-20.304760 6.180670 -2.606054
-24.684708 7.518619 4.087008
-24.439877 7.444047 -2.235196
-29.516050 8.995801 5.997890
-24.447334 7.455638 -1.339487
-24.739380 7.549428 5.971551
-32.082565 9.796375 -0.585528
-24.762547 7.565940 6.937904
-7.542521 2.314620 -2.114034
-24.359554 7.480012 0.444792
-9.101603 2.796541 -2.198222
-24.487627 7.528699 1.342627
-11.403889 3.506115 -2.319093
-29.442570 9.057709 2.695030
-15.211212 4.682486 -2.520785
-24.395241 7.514277 3.134236
-20.264091 6.245658 -2.603617
-24.375166 7.517410 4.040077
-24.170042 7.454149 -2.212884
-24.119640 7.447825 -1.322948
-24.720324 7.638035 5.973350
-32.078739 9.917755 -0.586087
-24.470222 7.570123 6.863364
-7.543620 2.343798 -2.116622
-24.058321 7.479511 0.439766
-9.089925 2.827716 -2.197772
-24.190403 7.529834 1.327763
-11.387833 3.544732 -2.318329
-15.175915 4.729677 -2.517656
-24.095970 7.514286 3.099138
-20.238377 6.315178 -2.603129
-24.118731 7.530623 4.001907
-23.892832 7.460090 -2.189875
-28.264460 8.830463 5.755945
-23.864740 7.460462 -1.310388
-24.697231 7.725442 5.974250
-32.074459 10.039228 -0.586645
-24.152370 7.564262 6.781577
-7.542765 2.372435 -2.118693
-23.814613 7.495014 0.435787
-9.078141 2.858841 -2.197322
-23.870611 7.521789 1.311644
-11.364156 3.580921 -2.316040
-29.488825 9.297791 2.705140
-15.170617 4.786189 -2.519534
-23.815931 7.518270 3.066477
-20.197279 6.379806 -2.600692
-23.817303 7.527851 3.956228
-23.604479 7.460585 -2.165820
-23.789637 7.523673 4.849983
-23.587202 7.464180 -1.296571
-24.662683 7.809252 5.972450
-32.054466 10.155960 -0.586924
-23.871687 7.567958 6.710143
-7.516029 2.392889 -2.113516
-23.567286 7.507689 0.431738
-9.068107 2.890513 -2.197322
-23.605770 7.524480 1.298455
-11.355326 3.621764 -2.316803
-29.467579 9.404305 2.706186
-15.168874 4.843919 -2.522037
-23.547506 7.524026 3.035278
-20.148415 6.441805 -2.597280
-23.521265 7.520166 3.911175
-23.305033 7.455510 -2.140719
-23.579988 7.548014 4.812585
-23.309927 7.466052 -1.282754
-24.620428 7.890531 5.968851
-32.085365 10.282947 -0.588111
-23.559486 7.555052 6.629391
-7.516823 2.422075 -2.116105
-23.340506 7.520791 0.428038
-9.073309 2.925352 -2.200921
-23.355068 7.534476 1.286104
-11.350087 3.663792 -2.318329
-29.430782 9.505878 2.705837
-15.085056 4.872338 -2.510773
-23.299536 7.530032 3.006517
-20.142054 6.513473 -2.599230
-23.254303 7.524379 3.871128
-23.043821 7.460722 -2.119105
-23.278393 7.536668 4.756105
-23.045637 7.465754 -1.269566
-25.369007 8.223308 6.156910
-32.091118 10.408463 -0.588879
-23.352894 7.578804 6.578663
-7.494056 2.442200 -2.111964
-23.101183 7.532782 0.424128
-9.037105 2.948544 -2.194623
-23.078003 7.534142 1.272287
-11.326678 3.697755 -2.316040
-29.463491 9.624458 2.711764
-15.071711 4.926192 -2.511399
-23.141035 7.568130 2.989455
-20.107876 6.580034 -2.597767
-23.021393 7.537891 3.836712
-22.799313 7.465175 -2.098885
-23.005674 7.537196 4.705731
-22.772713 7.465267 -1.255958
-25.366072 8.320316 6.163209
-32.092590 10.532890 -0.589577
-23.172127 7.609640 6.535182
-7.494659 2.471368 -2.114552
-22.862059 7.543199 0.420219
-9.015656 2.976404 -2.191923
-22.786058 7.526943 1.257633
-11.313703 3.737267 -2.316040
-29.463766 9.738502 2.714901
-15.016912 4.966371 -2.505142
-23.118246 7.650103 2.989943
-20.069708 6.645191 -2.595817
-22.706167 7.522541 3.788530
-22.561289 7.474543 -2.079362
-22.766785 7.547027 4.662227
-22.534197 7.474291 -1.244235
-25.325775 8.405133 6.160510
-32.108765 10.662489 -0.590555
-22.899755 7.608853 6.465817
-7.478657 2.495069 -2.112481
-22.592798 7.541909 0.415751
-9.012604 3.010329 -2.193723
-22.585371 7.548193 1.248003
-11.289414 3.773003 -2.313750
-29.478722 9.857719 2.719434
-14.995739 5.017503 -2.504516
-23.106461 7.735796 2.991893
-19.993687 6.697553 -2.588993
-22.447523 7.523905 3.749735
-22.289480 7.470932 -2.056701
-22.479710 7.539057 4.608801
-22.258024 7.469038 -1.230418
-25.421906 8.535660 6.191103
-32.082729 10.778328 -0.590764
-22.473864 7.554560 6.352973
-7.458919 2.517452 -2.109375
-22.346563 7.546505 0.411702
-9.002041 3.041770 -2.193723
-22.282646 7.533591 1.232721
-11.265017 3.808615 -2.311460
-14.899548 5.043218 -2.491375
-23.060516 7.810039 2.989455
-19.958904 6.763481 -2.587530
-22.192890 7.524830 3.711565
-22.025517 7.468080 -2.034738
-22.211563 7.535484 4.559190
-22.027563 7.477348 -1.219114
-25.369812 8.616826 6.185704
-32.094135 10.906981 -0.591671
-22.235193 7.560814 6.292926
-7.439117 2.539727 -2.106270
-22.081650 7.543021 0.407304
-8.987679 3.071914 -2.192823
-22.052118 7.541523 1.221417
-11.259086 3.850453 -2.312987
-29.465734 10.082630 2.724663
-14.754769 5.051686 -2.470101
-23.063160 7.900775 2.993355
-19.950195 6.838259 -2.589480
-21.949738 7.527916 3.675272
-21.788235 7.472528 -2.015215
-21.977144 7.541603 4.516449
-21.785980 7.480253 -1.207181
-25.369066 8.715462 6.192903
-32.089905 11.030645 -0.592300
-21.989447 7.562986 6.230810
-7.450293 2.572617 -2.111964
-21.828377 7.541693 0.403116
-8.958485 3.096900 -2.188324
-21.821802 7.547947 1.210112
-11.264129 3.896152 -2.316803
-29.498142 10.208882 2.730938
-14.580249 5.048861 -2.443820
-23.977043 8.307483 3.115712
-19.892445 6.896154 -2.585093
-21.706837 7.529391 3.638979
-21.573784 7.483239 -1.997784
-21.735538 7.543602 4.472182
-21.552193 7.484185 -1.195667
-25.375309 8.816751 6.201900
-32.085205 11.154415 -0.592928
-21.762207 7.569883 6.173870
-7.450386 2.601792 -2.114552
-21.616917 7.553195 0.399695
-8.947620 3.128152 -2.188324
-21.557779 7.540981 1.196923
-11.231929 3.928965 -2.312987
-29.488657 10.320996 2.733378
-14.432030 5.054026 -2.421919
-23.959137 8.395066 3.117174
-19.842028 6.956351 -2.581681
-21.520115 7.548889 3.612072
-21.340721 7.485961 -1.978610
-21.497890 7.545307 4.428677
-21.314884 7.485248 -1.183944
-25.388502 8.920784 6.212698
-32.098892 11.284916 -0.593905
-21.699202 7.632976 6.163517
-7.430330 2.623922 -2.111446
-21.383020 7.555326 0.395855
-8.936646 3.159368 -2.188324
-21.327971 7.544249 1.185619
-11.203340 3.962908 -2.309934
-29.572655 10.466413 2.744534
-14.283957 5.058215 -2.400018
-23.963367 8.490576 3.121562
-19.813879 7.024243 -2.581193
-21.352142 7.573775 3.588294
-21.100395 7.484478 -1.958738
-21.267902 7.548068 4.386699
-21.089121 7.488767 -1.172849
-25.353537 9.008048 6.211799
-32.081921 11.404925 -0.594324
-21.686985 7.713859 6.167658
-7.402932 2.643347 -2.106270
-21.160673 7.559953 0.392225
-8.925564 3.190542 -2.188324
-21.094641 7.544665 1.174105
-11.182043 3.999346 -2.308407
-21.053150 7.533977 1.956298
-14.150907 5.066756 -2.380620
-23.970961 8.587563 3.126436
-19.792978 7.094710 -2.581681
-21.132196 7.578904 3.555756
-20.886599 7.490822 -1.941307
-21.034462 7.547995 4.343958
-20.867353 7.492146 -1.161963
-25.387960 9.120206 6.227995
-32.102131 11.538486 -0.595441
-21.638113 7.781669 6.161447
-7.393660 2.669172 -2.106270
-20.931030 7.560403 0.388456
-8.921702 3.224328 -2.190123
-20.887865 7.553053 1.164056
-11.171707 4.039690 -2.309170
-20.854359 7.545053 1.940261
-13.951108 5.050229 -2.349959
-20.823883 7.542248 2.719393
-19.756893 7.159694 -2.580218
-20.912479 7.582595 3.523217
-20.650541 7.487620 -1.921784
-20.782825 7.539694 4.297400
-20.657089 7.498153 -1.151705
-20.853697 7.573638 5.122135
-20.660872 7.507695 -0.383709
-20.830118 7.573311 5.938862
-7.393372 2.698276 -2.108858
-20.660324 7.544252 0.383918
-8.899411 3.251439 -2.187424
-20.647526 7.547749 1.152124
-11.164913 4.081359 -2.310697
-20.614582 7.539784 1.920390
-13.796119 5.048661 -2.326807
-20.622204 7.550734 2.696481
-19.709414 7.220421 -2.577293
-20.700411 7.587565 3.491930
-20.444695 7.493834 -1.905050
-20.590494 7.551352 4.263055
-20.435785 7.498661 -1.140819
-20.724689 7.608775 5.096941
-20.450584 7.512197 -0.380288
-20.633110 7.583326 5.890204
-7.383908 2.724067 -2.108858
-20.386234 7.524921 0.379311
-8.888007 3.282482 -2.187424
-20.463682 7.561626 1.143331
-11.143232 4.117585 -2.309170
-20.446112 7.559188 1.907142
-13.670957 5.057039 -2.308660
-20.424448 7.559284 2.674057
-19.650583 7.276769 -2.572906
-20.410767 7.562327 3.447503
-20.224108 7.493169 -1.886922
-20.368879 7.550845 4.222603
-20.225973 7.501884 -1.130561
-20.412991 7.575308 5.026756
-20.276144 7.528545 -0.377530
