# This PCD file was generated using the MATLAB® pcwrite function
# from Computer Vision Toolbox®.
# .PCD v.7 - Point Cloud Data file format
VERSION .7
FIELDS x y z
SIZE 4 4 4
TYPE F F F
COUNT 1 1 1
WIDTH 1586
HEIGHT 1
VIEWPOINT 0 0 0 1 0 0 0
POINTS 1586
DATA ascii
-18.693375 -22.073692 0.504898
-0.822549 -0.970947 -0.293786
-18.760933 -22.137796 1.520778
-5.606454 -6.615585 -1.685607
-6.693626 -7.892854 -1.639121
-7.097958 -8.363706 -1.346900
-7.007141 -8.253774 1.714835
-17.076220 -20.114231 -2.308407
-6.968113 -8.204900 2.092412
-7.216989 -8.494944 -0.584174
-6.949730 -8.177463 2.477611
-6.954906 -8.177772 2.876515
-0.634198 -0.743863 -0.261925
-18.835188 -22.084383 0.506643
-0.836052 -0.979930 -0.297385
-18.869211 -22.108633 1.523291
-5.629513 -6.595974 -1.685607
-6.728835 -7.878453 -1.640998
-19.756088 -23.123238 3.734321
-7.152907 -8.369058 -1.351775
-7.046179 -8.241275 1.717338
-7.205264 -8.427342 -0.970043
-6.999264 -8.183510 2.093175
-7.220631 -8.439346 -0.582081
-6.998505 -8.176844 2.484809
-6.987182 -8.157845 2.878068
-0.646858 -0.753371 -0.266066
-0.836928 -0.974050 -0.296485
-18.980116 -22.082016 1.526012
-5.658901 -6.583729 -1.687515
-6.764024 -7.863903 -1.642875
-19.629520 -22.813379 3.695323
-7.187254 -8.350057 -1.352750
-7.103260 -8.249561 1.724221
-7.186537 -8.346276 -0.963594
-7.048285 -8.182831 2.099281
-7.145746 -8.293047 -0.573707
-7.049907 -8.178934 2.492908
-7.205678 -8.356698 -0.192605
-7.021923 -8.140719 2.880656
-0.654538 -0.756954 -0.268137
-7.227952 -8.355956 0.192849
-0.832672 -0.962281 -0.293786
-7.303101 -8.436883 0.584802
-5.683132 -6.565420 -1.687896
-6.801777 -7.852190 -1.645378
-7.231961 -8.342918 -1.355675
-7.142364 -8.236656 1.726724
-7.239120 -8.348237 -0.966731
-7.084527 -8.167073 2.101570
-7.227011 -8.328393 -0.577894
-7.096298 -8.174877 2.499206
-7.250537 -8.349615 -0.193024
-7.076901 -8.146787 2.891527
-0.657177 -0.754664 -0.268137
-7.257075 -8.330677 0.192849
-0.846268 -0.971121 -0.297385
-7.268200 -8.337566 0.579673
-5.721498 -6.563299 -1.692476
-6.826549 -7.825423 -1.644752
-7.274091 -8.332578 -1.358112
-7.191862 -8.235481 1.731730
-7.287875 -8.345428 -0.969346
-7.131075 -8.162993 2.106913
-7.266552 -8.315145 -0.578731
-7.138900 -8.166196 2.504155
-7.284904 -8.330276 -0.193163
-7.135823 -8.156929 2.903950
-0.657259 -0.749461 -0.267101
-7.307211 -8.329346 0.193408
-0.853509 -0.972555 -0.298735
-7.313071 -8.330158 0.580929
-5.740486 -6.538862 -1.691331
-6.869470 -7.819352 -1.648507
-7.318862 -8.325027 -1.361037
-7.233613 -8.225159 1.734858
-7.324859 -8.328912 -0.970392
-7.185462 -8.167532 2.114545
-7.327200 -8.325716 -0.581243
-7.178951 -8.154390 2.508204
-7.328475 -8.321303 -0.193547
-7.180852 -8.150816 2.910679
-0.667544 -0.755850 -0.270207
-7.344185 -8.312779 0.193617
-0.868513 -0.982712 -0.302784
-7.360624 -8.325528 0.582395
-5.764577 -6.520255 -1.691713
-6.899341 -7.798285 -1.649132
-19.369892 -21.885988 3.588565
-9.824368 -11.096619 -1.819753
-7.285855 -8.226476 1.740490
-7.356529 -8.306274 -0.970741
-7.234756 -8.165913 2.120651
-7.380064 -8.326990 -0.583127
-7.219007 -8.142405 2.512253
-7.361457 -8.300161 -0.193652
-7.209263 -8.125699 2.910679
-0.659908 -0.741967 -0.266066
-7.375816 -8.290081 0.193687
-0.874529 -0.982586 -0.303684
-7.397610 -8.308734 0.583023
-5.793829 -6.507424 -1.693621
-7.408849 -8.318430 0.974575
-6.934403 -7.783005 -1.651010
-9.294987 -10.425132 -1.714946
-7.343451 -8.233427 1.747373
-17.599689 -19.732651 -2.313288
-7.271059 -8.149399 2.122941
-19.522165 -21.872734 -1.536479
-7.269448 -8.141870 2.519902
-7.470313 -8.363898 -0.195746
-7.254316 -8.119212 2.917408
-0.667649 -0.745415 -0.268137
-7.455418 -8.320879 0.195013
-0.870150 -0.970820 -0.300985
-7.443899 -8.302194 0.584383
-5.836167 -6.509087 -1.699345
-7.443161 -8.298452 0.975273
-6.966805 -7.764632 -1.652261
-7.450611 -8.300923 1.369568
-9.344581 -10.407396 -1.717383
-7.401187 -8.240075 1.754256
-17.673788 -19.677025 -2.313985
-7.320459 -8.147333 2.129047
-19.582371 -21.786636 -1.535223
-7.333004 -8.155571 2.532049
-7.301995 -8.115384 2.925173
-0.672835 -0.745949 -0.269172
-0.881368 -0.976457 -0.303684
-19.682617 -21.798477 1.539201
-5.856223 -6.485760 -1.698582
-7.004461 -7.751991 -1.654764
-7.527460 -8.327883 1.378342
-9.316946 -10.304037 -1.705683
-7.427255 -8.211260 1.753631
-17.790482 -19.668406 -2.320260
-7.369927 -8.145022 2.135153
-19.698509 -21.762569 -1.538363
-7.371894 -8.141479 2.535648
-7.366599 -8.129930 2.939667
-0.675435 -0.743596 -0.269172
-0.887393 -0.976258 -0.304584
-19.790838 -21.765104 1.541713
-5.876185 -6.462373 -1.697819
-26.428150 -29.054344 3.436202
-7.036796 -7.733338 -1.656015
-19.785828 -21.736719 3.609039
-10.010418 -10.993594 -1.825603
-7.469175 -8.199886 1.756759
-17.901962 -19.653318 -2.325838
-7.408893 -8.130857 2.138206
-19.790501 -21.711388 -1.539619
-7.406831 -8.122898 2.537898
-7.410559 -8.121290 2.945879
-0.672811 -0.735532 -0.267101
-0.896058 -0.978904 -0.306383
-19.896364 -21.728292 1.544016
-5.902685 -6.446166 -1.698963
-7.077094 -7.723292 -1.659144
-19.883045 -21.690933 3.612939
-10.083614 -10.996625 -1.831940
-7.495082 -8.170854 1.756134
-17.992004 -19.614201 -2.328627
-7.453158 -8.122304 2.142785
-19.909388 -21.689259 -1.542969
-7.456229 -8.119959 2.545096
-7.450626 -8.108175 2.950537
-0.677992 -0.736020 -0.268137
-20.007854 -21.712694 0.515370
-0.912678 -0.990099 -0.310882
-20.009995 -21.699825 1.546946
-5.939789 -6.441400 -1.703161
-7.106689 -7.701444 -1.659770
-19.990952 -21.656408 3.618789
-10.216209 -11.063448 -1.849002
-7.512835 -8.133033 1.753631
-18.106329 -19.601036 -2.334554
-7.505446 -8.122194 2.149654
-20.041920 -21.681225 -1.547365
-7.503051 -8.113914 2.551395
-7.489380 -8.093461 2.954678
-0.691067 -0.744980 -0.272278
-20.113451 -21.674971 0.516137
-0.908173 -0.978338 -0.308183
-20.100870 -21.653845 1.548412
-5.962238 -6.420627 -1.703161
-7.141595 -7.685274 -1.661647
-20.088055 -21.609753 3.622689
-9.414882 -10.128072 -1.697884
-7.542454 -8.110968 1.754256
-18.196344 -19.561058 -2.337343
-7.547129 -8.110315 2.153470
-20.131088 -21.625753 -1.548412
-7.545849 -8.106103 2.556794
-7.542514 -8.096851 2.965031
-0.696171 -0.745508 -0.273313
-20.223438 -21.649069 0.517115
-0.919396 -0.983864 -0.310882
-20.202568 -21.619169 1.550714
-6.007629 -6.426635 -1.710030
-7.177838 -7.673090 -1.664150
-20.240980 -21.629990 3.637313
-9.893299 -10.572213 -1.777830
-7.599010 -8.117637 1.761139
-18.266562 -19.506428 -2.338040
-7.603509 -8.116767 2.161866
-20.230005 -21.588024 -1.550505
-7.604670 -8.115163 2.567591
-7.590467 -8.094343 2.973313
-0.690700 -0.734750 -0.270207
-20.306068 -21.593550 0.517394
-0.913307 -0.970874 -0.307733
-20.338135 -21.612516 1.555320
-6.018144 -6.395239 -1.706977
-7.215431 -7.662187 -1.666966
-20.358877 -21.611876 3.645600
-9.823956 -10.424926 -1.758819
-7.632717 -8.096813 1.762391
-18.399481 -19.518232 -2.346756
-7.643853 -8.105791 2.165682
-20.389196 -21.613800 -1.557204
-7.654348 -8.111247 2.574790
-7.646529 -8.097293 2.984184
-0.690605 -0.729529 -0.269172
-20.425325 -21.568993 0.518511
-0.915350 -0.966265 -0.307283
-20.440928 -21.570387 1.557414
-6.049884 -6.384169 -1.709649
-7.257085 -7.652721 -1.670407
-20.442389 -21.549318 3.647062
-9.860284 -10.390573 -1.758819
-7.688134 -8.098774 1.768648
-18.530600 -19.520357 -2.354774
-7.693733 -8.101835 2.171788
-20.489273 -21.568565 -1.559088
-7.693355 -8.095780 2.578389
-7.684064 -8.080354 2.987807
-0.703811 -0.738300 -0.273313
-20.530851 -21.529400 0.519279
-0.934859 -0.979985 -0.312682
-20.585043 -21.571146 1.562647
-6.080265 -6.371533 -1.711938
-7.281026 -7.624486 -1.669782
-20.572336 -21.535244 3.656812
-9.888266 -10.347480 -1.757356
-7.751848 -8.109013 1.776783
-8.944798 -9.356928 -1.132502
-7.724679 -8.077769 2.172551
-20.586529 -21.520004 -1.560763
-7.733694 -8.081547 2.582438
-34.209473 -35.735683 -0.863510
-7.728257 -8.070226 2.994019
-0.706384 -0.735838 -0.273313
-20.644661 -21.497990 0.520256
-0.943674 -0.982337 -0.314482
-20.685125 -21.525080 1.564531
-6.113351 -6.361595 -1.714991
-7.325395 -7.617535 -1.673849
-20.716194 -21.534834 3.668999
-10.736440 -11.156812 -1.901162
-7.791067 -8.093289 1.779286
-7.793683 -8.093180 2.184000
-20.683693 -21.471027 -1.562438
-7.786197 -8.079760 2.590536
-7.775155 -8.062667 3.001266
-0.703577 -0.727812 -0.271242
-20.772398 -21.480423 0.521583
-0.949807 -0.981838 -0.315381
-20.776804 -21.469969 1.565787
-6.136886 -6.341628 -1.715373
-7.354691 -7.594755 -1.674475
-20.791239 -21.462387 3.668999
-10.697955 -11.039439 -1.887513
-7.838519 -8.085900 1.783666
-18.850487 -19.445402 -2.369416
-7.843755 -8.088476 2.190106
-20.830826 -21.473246 -1.567881
-7.827925 -8.066517 2.595035
-7.830171 -8.063193 3.011619
-0.719589 -0.739195 -0.276419
-20.908636 -21.470818 0.523118
-0.955948 -0.981308 -0.316281
-20.879496 -21.425924 1.567881
-6.161724 -6.322980 -1.716136
-25.978165 -26.648712 3.255964
-7.382536 -7.570449 -1.674788
-20.882660 -21.406738 3.671924
-10.667107 -10.930989 -1.875326
-7.880496 -8.072624 1.786795
-18.918251 -19.379482 -2.369416
-7.893886 -8.083522 2.196212
-20.939154 -21.434685 -1.570393
-7.894172 -8.078168 2.607633
-7.883930 -8.062057 3.021454
-0.708641 -0.722883 -0.271242
-21.022665 -21.437674 0.524096
-5.255368 -5.357247 -1.732573
-20.996124 -21.395676 1.571021
-6.182382 -6.300032 -1.715755
-7.428291 -7.564367 -1.679168
-21.037943 -21.415850 3.686061
-10.680155 -10.868203 -1.870938
-7.925242 -8.061974 1.790549
-19.055614 -19.384375 -2.378132
-7.949588 -8.083912 2.203844
-21.083881 -21.432653 -1.575626
-7.951024 -8.079733 2.617081
-7.933712 -8.056510 3.029736
-0.719303 -0.728654 -0.274348
-5.257603 -5.322233 -1.727174
-6.218137 -6.292376 -1.719571
-7.451873 -7.535582 -1.678542
-21.143288 -21.373323 3.691423
-10.949810 -11.065084 -1.911399
-7.983910 -8.065145 1.797432
-19.139984 -19.334730 -2.380223
-7.997098 -8.075644 2.209187
-21.228842 -21.429876 -1.580860
-7.991524 -8.064386 2.621130
-7.982191 -8.049344 3.037501
-0.721842 -0.726139 -0.274348
-5.288519 -5.316283 -1.731223
-6.248372 -6.278983 -1.721860
-7.486496 -7.517922 -1.680419
-21.256989 -21.338772 3.698247
-11.226575 -11.265834 -1.952834
-8.042697 -8.068002 1.804315
-19.311453 -19.372213 -2.393122
-8.039100 -8.061583 2.213003
-21.334551 -21.386751 -1.583163
-8.037521 -8.054372 2.626978
-8.017063 -8.028268 3.040089
-0.732573 -0.731806 -0.277454
-5.300148 -5.290906 -1.728974
-6.274421 -6.261294 -1.723005
-7.521085 -7.500113 -1.682297
-21.365086 -21.298075 3.704097
-11.333326 -11.293837 -1.964534
-8.093203 -8.062184 1.809321
-19.328142 -19.254065 -2.386847
-8.078320 -8.044554 2.216056
-21.445877 -21.348783 -1.585884
-8.069733 -8.030391 2.628328
-12.976163 -12.908401 -0.319484
-8.076547 -8.031563 3.051994
-0.735123 -0.729245 -0.277454
-12.576130 -12.471216 0.309152
-5.329656 -5.283348 -1.732573
-6.289266 -6.232445 -1.721097
-12.952831 -12.831326 1.595124
-7.559853 -7.486322 -1.685112
-21.484447 -21.268057 3.711897
-11.443233 -11.324020 -1.976721
-8.140954 -8.053335 1.813701
-19.492079 -19.275562 -2.398352
-8.153814 -8.063242 2.229031
-21.562883 -21.315912 -1.589024
-8.133753 -8.037789 2.640026
-21.812870 -21.547995 -0.535196
-8.138898 -8.037257 3.064935
-0.735038 -0.723834 -0.276419
-12.568294 -12.376726 0.307895
-5.346677 -5.263344 -1.732123
-21.676672 -21.331383 1.593839
-6.320465 -6.217612 -1.723387
-7.605551 -7.476569 -1.689180
-21.584030 -21.217987 3.716284
-11.474194 -11.275661 -1.975258
-8.188745 -8.044250 1.818082
-19.607582 -19.254860 -2.404278
-8.183312 -8.033302 2.229031
-21.669373 -21.264719 -1.591118
-8.195155 -8.039309 2.650373
-21.890812 -21.474516 -0.535265
-8.186212 -8.027736 3.072182
-0.734798 -0.718563 -0.275383
-13.354284 -13.054676 0.325976
-5.378477 -5.255970 -1.736172
-12.745373 -12.450723 0.933778
-6.354769 -6.207858 -1.726821
-7.630192 -7.448593 -1.688867
-21.721329 -21.196957 3.726521
-11.532493 -11.250165 -1.978183
-8.237973 -8.033489 1.822462
-19.706553 -19.210686 -2.407764
-8.236609 -8.029355 2.235900
-21.855038 -21.297674 -1.599282
-8.253876 -8.040570 2.660271
-12.525477 -12.197521 -0.305173
-8.226656 -8.008456 3.076323
-0.745743 -0.723939 -0.278489
-12.647927 -12.278119 0.307686
-5.391197 -5.231736 -1.734373
-13.086934 -12.695419 0.955550
-6.388752 -6.195461 -1.729874
-7.665953 -7.428824 -1.690744
-21.812294 -21.137583 3.729446
-11.603065 -11.240225 -1.983546
-8.300022 -8.037665 1.829971
-19.804983 -19.172268 -2.411599
-8.294199 -8.026418 2.243532
-21.892759 -21.178545 -1.596352
-8.298700 -8.025167 2.665220
-8.269838 -7.994463 3.082017
-0.742327 -0.716357 -0.276419
-5.413216 -5.220185 -1.736172
-13.204403 -12.729092 0.961202
-6.405358 -6.172635 -1.729111
-7.705031 -7.422493 -1.694498
-21.978685 -21.165340 3.746508
-11.664062 -11.228497 -1.987933
-8.345158 -8.030728 1.834351
-19.890963 -19.134815 -2.414737
-8.339186 -8.019373 2.248875
-22.016775 -21.165033 -1.600538
-8.328094 -8.005913 2.667020
-8.321383 -7.993870 3.091852
-0.750528 -0.718977 -0.278489
-5.435128 -5.203004 -1.737072
-13.106667 -12.542524 0.950735
-6.430777 -6.151829 -1.729874
-7.745035 -7.406489 -1.697314
-22.127853 -21.153233 3.758695
-11.725230 -11.204872 -1.991345
-8.388822 -8.013731 1.837479
-20.018595 -19.116827 -2.421709
-8.391245 -8.010445 2.254981
-8.382758 -7.999548 2.675118
-13.428854 -12.810495 -0.323952
-8.395364 -8.005980 3.108417
-0.750359 -0.713558 -0.277454
-13.106255 -12.459128 0.315644
-5.452749 -5.181706 -1.736622
-13.043234 -12.394887 0.942989
-6.453636 -6.130695 -1.730256
-7.786454 -7.391654 -1.700443
-22.297398 -21.159435 3.774294
-11.772912 -11.172073 -1.992808
-8.436805 -8.003433 1.841860
-20.137255 -19.096184 -2.427985
-8.459049 -8.018924 2.265666
-13.095318 -12.409634 -0.945501
-8.444577 -8.002411 2.685915
-12.672138 -12.004409 -0.304684
-8.440091 -7.992567 3.114629
-0.744294 -0.703107 -0.274348
-5.481239 -5.174297 -1.740221
-12.468465 -11.770249 0.898608
-6.485354 -6.120040 -1.733309
-7.800863 -7.356305 -1.698253
-11.818561 -11.141141 -1.994270
-8.483427 -7.994379 1.846240
-8.499887 -8.004288 2.269482
-13.171302 -12.398996 -0.948014
-8.512217 -8.013100 2.698963
-13.128371 -12.354262 -0.314667
-8.472178 -7.969828 3.116699
-0.760709 -0.713854 -0.279525
-5.494103 -5.152093 -1.738872
-12.678500 -11.885107 0.910750
-6.525299 -6.114818 -1.738270
-7.835307 -7.339850 -1.700443
-22.541563 -21.108788 3.791843
-11.874766 -11.116099 -1.997195
-8.548781 -7.999810 1.854374
-8.553585 -7.998707 2.276351
-13.284536 -12.418411 -0.953038
-8.551525 -7.993983 2.702562
-8.526768 -7.965264 3.126534
-0.768975 -0.716328 -0.281595
-5.518655 -5.137233 -1.740671
-12.991012 -12.088905 0.930010
-6.553417 -6.096209 -1.739796
-27.103054 -25.212172 3.238533
-7.878068 -7.325879 -1.703884
-13.336893 -12.397745 2.235815
-11.924155 -11.080610 -1.998657
-8.601202 -7.989934 1.859380
-13.442073 -12.482406 -1.604886
-8.597235 -7.980660 2.280168
-8.587910 -7.969214 2.704811
-13.105021 -12.156645 -0.312014
-8.594153 -7.969423 3.140511
-0.768758 -0.710882 -0.280560
-13.137967 -12.144610 0.312293
-5.548897 -5.127551 -1.744270
-13.068336 -12.076015 0.932522
-6.568889 -6.067967 -1.738270
-13.260241 -12.244771 1.579088
-7.917929 -7.309014 -1.706700
-22.733624 -20.977985 3.798180
-8.875786 -8.190340 -1.482906
-8.655175 -7.983971 1.865012
-13.523645 -12.470525 -1.609418
-8.653910 -7.977214 2.287800
-13.158621 -12.125430 -0.937756
-8.634305 -7.956356 2.710660
-8.651761 -7.966857 3.151381
-0.762575 -0.700487 -0.277454
-12.506519 -11.484228 0.296377
-5.568741 -5.111758 -1.745170
-6.596206 -6.052789 -1.740178
-13.124585 -12.039114 1.558170
-7.950859 -7.290728 -1.708578
-13.393853 -12.277512 2.230941
-8.897041 -8.155498 -1.481931
-8.704906 -7.976577 1.870018
-8.891469 -8.144676 -1.054933
-8.709274 -7.974989 2.295432
-8.914577 -8.160122 -0.633370
-8.710954 -7.973732 2.726407
-8.906222 -8.149619 -0.210720
-8.693812 -7.952466 3.157075
-0.770602 -0.703163 -0.279525
-8.924922 -8.141010 0.210860
-5.597182 -5.103767 -1.748769
-12.917011 -11.774201 0.915984
-6.622046 -6.036171 -1.741705
-7.966230 -7.256339 -1.706700
-13.590076 -12.374698 2.256777
-8.904905 -8.105681 -1.478519
-8.761917 -7.972731 1.876275
-8.921317 -8.114932 -1.055107
-8.770527 -7.977771 2.304591
-8.934198 -8.123796 -0.632846
-8.764690 -7.966870 2.734505
-8.950894 -8.133275 -0.211104
-8.737248 -7.936358 3.162769
-0.781765 -0.708116 -0.282630
-8.962180 -8.117860 0.211069
-5.610629 -5.080276 -1.747420
-8.983703 -8.131653 0.635045
-6.663051 -6.028982 -1.746666
-8.979405 -8.122063 1.059291
-8.001562 -7.235044 -1.708578
-8.974435 -8.114719 1.485587
-9.053904 -8.183700 -1.498506
-8.813144 -7.963290 1.881281
-8.920020 -8.057029 -1.051621
-8.811366 -7.956095 2.307644
-8.928329 -8.058880 -0.630334
-8.815536 -7.954275 2.741254
-8.958447 -8.083224 -0.210616
-8.792154 -7.930396 3.172604
-0.778487 -0.700215 -0.280560
-8.966592 -8.062229 0.210476
-5.629213 -5.059676 -1.747420
-9.001562 -8.087993 0.634207
-6.686975 -6.008313 -1.747429
-9.028454 -8.109307 1.061731
-8.047349 -7.225543 -1.712958
-9.041049 -8.114921 1.491681
-9.069061 -8.137206 -1.496068
-8.874625 -7.959949 1.888164
-8.965888 -8.041806 -1.053713
-8.871242 -7.954125 2.316040
-8.966817 -8.036997 -0.631067
-8.863565 -7.941659 2.747552
-8.979074 -8.042333 -0.210406
-8.862901 -7.935488 3.187616
-0.801098 -0.715510 -0.287807
-8.994679 -8.030881 0.210476
-5.649746 -5.042593 -1.748320
-9.001423 -8.031257 0.632218
-6.702047 -5.979706 -1.745902
-9.018049 -8.043261 1.057199
-8.065147 -7.190838 -1.711393
-9.048574 -8.064820 1.488269
-9.121125 -8.126625 -1.499968
-8.923006 -7.947318 1.892544
-9.023660 -8.036965 -1.057199
-8.916548 -7.938775 2.320619
-9.020182 -8.028219 -0.632846
-8.917439 -7.933990 2.755651
-9.017552 -8.020244 -0.210651
-8.919421 -7.930175 3.197968
-0.783356 -0.694763 -0.280560
-9.042110 -8.016681 0.210930
-5.678981 -5.033180 -1.751919
-9.035480 -8.007985 0.632742
-6.731697 -5.964087 -1.748192
-9.040103 -8.006451 1.056502
-8.106469 -7.177045 -1.714835
-9.064778 -8.022661 1.486319
-9.194038 -8.134199 -1.507280
-8.984819 -7.949099 1.900053
-9.078524 -8.029177 -1.060337
-8.970683 -7.931007 2.327488
-9.070598 -8.016526 -0.634417
-8.983049 -7.936360 2.767348
-9.065079 -8.008831 -0.211139
-8.961597 -7.914619 3.203662
-0.797374 -0.702239 -0.284701
-9.086651 -8.002513 0.211349
-5.705879 -5.023335 -1.755068
-9.085869 -7.996191 0.634312
-6.771637 -5.957410 -1.753153
-9.103903 -8.006424 1.060685
-8.131708 -7.151427 -1.715148
-9.104751 -8.004353 1.488512
-9.255258 -8.133805 -1.512886
-9.042193 -7.943762 1.906311
-9.127453 -8.015843 -1.062777
-9.035286 -7.934901 2.337410
-9.127150 -8.012754 -0.636510
-9.043007 -7.936092 2.777696
-9.117032 -7.998239 -0.211698
-9.006599 -7.898574 3.209874
-0.802607 -0.702135 -0.285736
-9.141627 -7.994439 0.211977
-5.717511 -4.998256 -1.753268
-9.154329 -7.999913 0.637138
-6.789876 -5.933631 -1.752772
-9.152910 -7.995852 1.063300
-8.167036 -7.132094 -1.717338
-9.150579 -7.988190 1.491437
-9.301541 -8.117111 -1.515811
-9.096661 -7.935524 1.911942
-9.179407 -8.004883 -1.065566
-9.074768 -7.913633 2.340463
-9.177647 -8.000533 -0.638080
-9.083877 -7.915999 2.781745
-9.188624 -8.004456 -0.212710
-9.073450 -7.901344 3.223850
-0.793506 -0.689055 -0.281595
-9.213264 -8.000502 0.212989
-5.740808 -4.983378 -1.755068
-9.200302 -7.983615 0.638394
-6.818994 -5.915135 -1.754680
-9.216774 -7.992275 1.067309
-8.425976 -7.303958 -1.766145
-9.211410 -7.984803 1.496799
-9.340321 -8.093693 -1.517517
-9.145207 -7.921831 1.916322
-9.235909 -7.997575 -1.068878
-9.142304 -7.913729 2.350385
-9.240134 -7.995595 -0.640383
-9.142306 -7.908150 2.790743
-9.243731 -7.995883 -0.213338
-9.137508 -7.901212 3.236791
-0.823704 -0.710250 -0.291430
-9.274331 -7.994099 0.213722
-5.764941 -4.967391 -1.756868
-9.253713 -7.970698 0.640069
-6.841088 -5.892580 -1.755061
-9.268776 -7.980852 1.070098
-8.590654 -7.394347 -1.795242
-9.263182 -7.970410 1.500455
-9.383468 -8.071055 -1.519711
-9.195153 -7.906288 1.920703
-9.304560 -8.000360 -1.073584
-9.214537 -7.920161 2.361834
-9.302832 -7.993227 -0.642790
-9.209769 -7.910472 2.802890
-9.295732 -7.981488 -0.213862
-9.192794 -7.890317 3.246109
-0.804167 -0.688524 -0.283666
-9.323451 -7.979879 0.214211
-5.797052 -4.959907 -1.761367
-9.317907 -7.969504 0.642581
-6.875043 -5.880149 -1.758496
-9.317780 -7.966576 1.072539
-8.641938 -7.386134 -1.800561
-9.333207 -7.974133 1.507280
-9.455359 -8.075639 -1.526779
-9.252739 -7.899796 1.926960
-9.350611 -7.983357 -1.075676
-9.271995 -7.913435 2.369466
-9.361066 -7.986632 -0.644884
-9.265497 -7.902302 2.811438
-9.349405 -7.971046 -0.214455
-9.229102 -7.865698 3.249214
-0.824227 -0.700729 -0.289877
-9.371057 -7.964122 0.214665
-5.820271 -4.944688 -1.763166
-9.385252 -7.970542 0.645302
-6.897024 -5.857383 -1.758877
-9.383500 -7.966240 1.076896
-8.670682 -7.358480 -1.801187
-9.389748 -7.965902 1.511911
-9.528909 -8.081101 -1.534091
-9.331490 -7.910882 1.937598
-9.407295 -7.975148 -1.078988
-9.326522 -7.903869 2.376335
-9.420889 -7.981017 -0.647082
-9.316818 -7.890064 2.818637
-9.406171 -7.962911 -0.215118
-9.303693 -7.873369 3.265779
-0.822240 -0.694109 -0.288324
-9.438535 -7.964893 0.215572
-5.834517 -4.921828 -1.762267
-9.440498 -7.960910 0.647186
-6.930934 -5.844665 -1.762312
-9.437147 -7.955266 1.079860
-8.702357 -7.333260 -1.802438
-9.444825 -7.956098 1.516299
-9.587426 -8.073365 -1.538966
-9.377183 -7.893524 1.941352
-9.464040 -7.966638 -1.082300
-9.372081 -7.886434 2.380915
-9.470086 -7.966085 -0.648547
-9.374134 -7.882576 2.827635
-9.470648 -7.960911 -0.215956
-9.369572 -7.873160 3.279238
-0.830580 -0.696198 -0.290395
-9.496934 -7.957583 0.216270
-5.854649 -4.903934 -1.763166
-9.489669 -7.945859 0.648652
-6.951294 -5.820436 -1.762312
-9.501528 -7.952968 1.084043
-8.738509 -7.311709 -1.804628
-9.499947 -7.946008 1.520686
-9.639916 -8.060224 -1.542866
-9.431962 -7.883546 1.946984
-9.531538 -7.966774 -1.086832
-9.423656 -7.873814 2.387021
-9.528493 -7.958586 -0.650641
-9.425527 -7.869789 2.834833
-9.533688 -7.957277 -0.216759
-9.414799 -7.855255 3.285449
-0.841914 -0.700710 -0.293501
-9.553860 -7.948687 0.216933
-5.880721 -4.890944 -1.765866
-9.540384 -7.931838 0.650222
-6.973079 -5.797390 -1.762694
-9.556813 -7.942673 1.087181
-8.747263 -7.267279 -1.801187
-9.555113 -7.935627 1.525073
-9.674104 -8.031594 -1.543841
-9.492864 -7.878330 1.953867
-9.594551 -7.962723 -1.090841
-9.496412 -7.878478 2.398469
-9.596189 -7.958425 -0.653362
-9.500946 -7.876641 2.849230
-9.581422 -7.940538 -0.217213
-9.471914 -7.846992 3.295802
-0.833930 -0.689152 -0.289877
-9.609300 -7.938211 0.217562
-5.906774 -4.877832 -1.768565
-9.611138 -7.934091 0.653153
-6.996300 -5.775516 -1.763457
-9.613677 -7.933362 1.090493
-8.763435 -7.229158 -1.799309
-9.619510 -7.932537 1.530923
-9.744968 -8.033133 -1.550666
-9.544697 -7.865245 1.958873
-9.651502 -7.953257 -1.094153
-9.542042 -7.860258 2.403049
-9.653204 -7.949003 -0.655351
-9.558474 -7.868199 2.858228
-9.639965 -7.932453 -0.217911
-9.546988 -7.853155 3.312366
-0.840811 -0.689914 -0.291430
-9.667873 -7.929984 0.218260
-5.935819 -4.867070 -1.772164
-9.672760 -7.928346 0.655456
-7.025530 -5.758524 -1.765747
-9.676757 -7.928798 1.094502
-8.764165 -7.178496 -1.794304
-9.680934 -7.926575 1.536285
-9.783703 -8.007869 -1.552372
-9.608786 -7.861901 1.966381
-9.700793 -7.937181 -1.096593
-9.624127 -7.871650 2.416787
-9.710271 -7.939278 -0.657340
-9.603988 -7.849584 2.863627
-9.704759 -7.929121 -0.218748
-9.583321 -7.827114 3.315472
-0.836985 -0.682386 -0.289360
-9.725288 -7.926103 0.218993
-5.946549 -4.844704 -1.770815
-9.734786 -7.928190 0.657968
-7.051196 -5.742625 -1.767655
-9.726337 -7.918487 1.097291
-8.775949 -7.142199 -1.792113
-9.731967 -7.917419 1.540429
-9.870414 -8.027194 -1.562121
-9.670225 -7.861581 1.973890
-9.664046 -7.853757 2.420603
-9.758418 -7.927623 -0.658910
-9.663395 -7.847629 2.873975
-9.760672 -7.923801 -0.219447
-9.652865 -7.833488 3.331001
-0.857502 -0.693896 -0.295571
-9.793316 -7.924811 0.219900
-5.972515 -4.831271 -1.773514
-9.779486 -7.907976 0.659119
-7.079831 -5.722911 -1.769563
-9.801787 -7.920350 1.102520
-8.768259 -7.082679 -1.785230
-9.790426 -7.908349 1.545303
-9.918453 -8.008901 -1.565290
-9.716053 -7.842666 1.977645
-9.847627 -7.946037 -1.107052
-9.738609 -7.855261 2.432051
-9.829389 -7.925654 -0.661736
-9.737607 -7.848848 2.887472
-9.830305 -7.923566 -0.220389
-9.713245 -7.826411 3.342389
-0.870461 -0.699368 -0.299195
-9.853477 -7.913909 0.220598
-5.988661 -4.808129 -1.773064
-9.839735 -7.900048 0.661317
-7.101296 -5.699391 -1.769944
-9.858901 -7.909777 1.105832
-8.769816 -7.033489 -1.780537
-9.856521 -7.902211 1.551153
-9.963230 -7.984910 -1.567727
-9.761866 -7.823529 1.981399
-9.865976 -7.904136 -1.106006
-9.784360 -7.835946 2.436631
-9.891294 -7.918757 -0.664039
-9.789291 -7.834290 2.894670
-9.884448 -7.910443 -0.220982
-9.785762 -7.828662 3.357919
-0.859305 -0.685483 -0.294536
-9.914058 -7.908625 0.221366
-6.015239 -4.796748 -1.776214
-9.906298 -7.896775 0.663934
-7.125753 -5.678241 -1.771089
-9.911385 -7.895177 1.108621
-8.805450 -7.014216 -1.783040
-9.907517 -7.889266 1.555053
-10.068863 -8.014878 -1.580158
-9.850945 -7.838605 1.993914
-9.905981 -7.879571 -1.107401
-9.841020 -7.827899 2.444263
-9.950328 -7.912016 -0.666237
-9.847255 -7.827248 2.904118
-9.940183 -7.898283 -0.221611
-9.828154 -7.806473 3.363095
-0.864602 -0.685029 -0.295571
-9.966684 -7.893835 0.221925
-6.042639 -4.784191 -1.779363
-9.969821 -7.890658 0.666341
-7.156859 -5.664327 -1.774142
-9.976575 -7.893172 1.112979
-8.823686 -6.978533 -1.781789
-9.973924 -7.885415 1.561146
-10.134157 -8.009222 -1.586008
-9.927849 -7.843355 2.003926
-9.997718 -7.898554 -1.114722
-9.917585 -7.832439 2.456475
-10.009238 -7.901986 -0.668330
-9.898992 -7.812143 2.911316
-10.003800 -7.892026 -0.222413
-9.876580 -7.788867 3.370342
-0.873061 -0.686785 -0.297642
-10.027188 -7.884954 0.222658
-6.053175 -4.758250 -1.777563
-10.036564 -7.886659 0.668958
-7.184306 -5.645375 -1.776050
-10.033835 -7.881682 1.116291
-8.832454 -6.935493 -1.778660
-10.015443 -7.861583 1.563340
-10.190164 -7.995856 -1.590395
-9.983143 -7.830599 2.009557
-9.972675 -7.819578 2.463344
-10.072918 -7.895336 -0.670738
-9.973752 -7.814802 2.925263
-10.080090 -7.895283 -0.223496
-9.967597 -7.804361 3.392083
-0.883066 -0.689679 -0.300230
-10.098785 -7.884361 0.223635
-6.075893 -4.741887 -1.779363
-10.073482 -7.858947 0.669586
-7.211709 -5.626301 -1.777958
-10.106849 -7.882142 1.121346
-8.859725 -6.907048 -1.779286
-10.083534 -7.858300 1.569677
-10.255596 -7.989516 -1.596245
-10.032236 -7.812696 2.013937
-10.143787 -7.899568 -1.124832
-10.027795 -7.806427 2.470213
-10.131939 -7.884661 -0.672831
-10.044038 -7.813442 2.937861
-10.139160 -7.884600 -0.224194
-10.025281 -7.793235 3.402435
-0.891575 -0.691327 -0.302301
-10.159436 -7.874787 0.224368
-6.104733 -4.730198 -1.782962
-10.149801 -7.861653 0.672831
-7.239063 -5.607105 -1.779866
-10.170535 -7.874869 1.125355
-8.875971 -6.870033 -1.777721
-10.151723 -7.854638 1.576014
-10.344662 -8.001033 -1.605751
-10.078199 -7.792128 2.017692
-10.207554 -7.892141 -1.128841
-10.098478 -7.804992 2.480899
-10.198911 -7.879772 -0.675448
-10.075878 -7.781909 2.939211
-10.191946 -7.868711 -0.224752
-10.073834 -7.774717 3.409682
-0.875613 -0.674069 -0.296089
-10.224896 -7.868545 0.225206
-6.118116 -4.706484 -1.782062
-10.210432 -7.851741 0.675029
-7.264818 -5.586587 -1.781393
-10.226395 -7.861176 1.128493
-8.915560 -6.851047 -1.780850
-10.213713 -7.845757 1.581377
-10.413464 -7.996309 -1.612088
-10.152344 -7.792987 2.027078
-10.263283 -7.875294 -1.131804
-10.163042 -7.798377 2.490057
-10.265973 -7.874512 -0.678065
-10.149374 -7.782263 2.952708
-10.254269 -7.859850 -0.225520
-10.131581 -7.763005 3.420035
-0.884218 -0.675547 -0.298160
-10.282490 -7.855874 0.225869
-6.143800 -4.692196 -1.784762
-10.286990 -7.853623 0.678274
-7.297729 -5.569453 -1.784446
-10.286819 -7.847811 1.131979
-8.943753 -6.820717 -1.781476
-10.283656 -7.842558 1.587958
-10.457098 -7.971947 -1.614525
-10.229764 -7.795813 2.037090
-10.320823 -7.862360 -1.135116
-10.235290 -7.794382 2.500743
-10.340853 -7.871916 -0.681100
-10.230556 -7.785133 2.968004
-10.332564 -7.862758 -0.226637
-10.217043 -7.772039 3.439705
-0.895806 -0.679461 -0.301265
-10.349460 -7.847128 0.226707
-6.167169 -4.674355 -1.786561
-10.352541 -7.846623 0.680786
-7.329645 -5.553430 -1.787499
-10.357034 -7.844335 1.136685
-8.972231 -6.793036 -1.782415
-10.345570 -7.829974 1.593076
-10.456170 -7.910807 -1.609894
-10.291572 -7.786277 2.043973
-10.389520 -7.857535 -1.139648
-10.287493 -7.777547 2.506849
-10.392170 -7.853835 -0.682670
-10.285657 -7.770522 2.976102
-10.395048 -7.853164 -0.227405
-10.268778 -7.754951 3.447987
-0.898172 -0.676330 -0.301265
-10.416959 -7.844039 0.227614
-6.182636 -4.653878 -1.786561
-10.406999 -7.830853 0.682566
-7.352125 -5.530169 -1.788262
-10.430532 -7.842860 1.141740
-8.983656 -6.754934 -1.780224
-10.406388 -7.821863 1.598438
-10.574393 -7.945251 -1.624031
-10.372388 -7.790643 2.054610
-10.459904 -7.853521 -1.144355
-10.350906 -7.771683 2.516008
-10.456494 -7.848104 -0.685182
-10.345661 -7.762100 2.986000
-10.463991 -7.848026 -0.228312
-10.320517 -7.737602 3.456270
-0.915881 -0.684917 -0.306442
-10.479510 -7.833972 0.228382
-6.201966 -4.634601 -1.787461
-10.471072 -7.821969 0.684973
-7.375140 -5.509284 -1.789407
-10.493200 -7.835646 1.145749
-8.996099 -6.715262 -1.778034
-10.470223 -7.812793 1.604044
-10.643432 -7.939153 -1.630368
-10.402687 -7.756751 2.055236
-10.528790 -7.847916 -1.148887
-10.425196 -7.770700 2.527456
-10.525464 -7.842584 -0.687904
-10.403951 -7.749220 2.994998
-10.512176 -7.826974 -0.228766
-10.397053 -7.738438 3.472834
-0.905975 -0.672346 -0.302301
-10.545332 -7.825945 0.229220
-6.230626 -4.622212 -1.791060
-10.543233 -7.818682 0.687904
-7.404747 -5.489232 -1.791697
-10.552263 -7.819672 1.149061
-9.036525 -6.694004 -1.781163
-10.564424 -7.825828 1.614281
-10.688628 -7.914946 -1.633049
-10.470980 -7.750948 2.063371
-10.586549 -7.833636 -1.152199
-10.491487 -7.760460 2.536615
-10.595895 -7.834826 -0.690625
-10.494969 -7.757367 3.012995
-10.579635 -7.819947 -0.229639
-10.467505 -7.734246 3.487328
-0.920759 -0.678346 -0.306442
-10.617417 -7.819261 0.230162
-6.249095 -4.600500 -1.791510
-10.604238 -7.806697 0.690102
-7.436512 -5.472659 -1.794749
-10.616408 -7.809945 1.153070
-9.074160 -6.672951 -1.783979
-10.631422 -7.815272 1.620131
-10.786353 -7.926261 -1.643530
-10.552095 -7.754118 2.074008
-10.655578 -7.827301 -1.156731
-10.546995 -7.744706 2.543484
-10.663429 -7.827337 -0.693242
-10.547120 -7.739133 3.020193
-10.660069 -7.822011 -0.230791
-10.510016 -7.709086 3.492504
-0.920002 -0.672847 -0.305406
-10.673956 -7.806438 0.230826
-6.273756 -4.586653 -1.794210
-10.670124 -7.797917 0.692614
-7.468251 -5.455935 -1.797803
-10.685439 -7.803389 1.157603
-9.110597 -6.653309 -1.786795
-10.670107 -7.789337 1.622081
-10.873508 -7.934919 -1.652792
-10.617398 -7.745180 2.081517
-10.724690 -7.820580 -1.161263
-10.620209 -7.744390 2.554933
-10.721606 -7.815462 -0.695336
-10.604226 -7.727067 3.029191
-10.721252 -7.809478 -0.231524
-10.596210 -7.715561 3.512175
-0.931607 -0.676604 -0.308512
-10.736743 -7.794975 0.231593
-6.288151 -4.563580 -1.793760
-10.742543 -7.793465 0.695545
-7.495837 -5.438056 -1.800092
-10.743517 -7.791306 1.161089
-9.170549 -6.648133 -1.793991
-10.700446 -7.754376 1.622569
-10.902751 -7.898077 -1.653036
-10.682768 -7.735877 2.089026
-10.789295 -7.813018 -1.165447
-10.666260 -7.721088 2.559512
-10.784419 -7.803750 -0.697638
-10.669029 -7.717416 3.039989
-10.792199 -7.803641 -0.232466
-10.657520 -7.703426 3.523562
-0.940231 -0.677867 -0.310583
-10.804445 -7.786678 0.232466
-6.313529 -4.548439 -1.796459
-10.793992 -7.773427 0.697115
-7.509995 -5.408415 -1.798947
-10.820773 -7.789842 1.166492
-9.217749 -6.633390 -1.798684
-10.740342 -7.726249 1.624519
-10.983439 -7.898216 -1.661079
-10.725744 -7.710072 2.092155
-10.860182 -7.806710 -1.170153
-10.756922 -7.729632 2.574777
-10.861880 -7.802178 -0.700883
-10.749723 -7.718772 3.055285
-10.843741 -7.783412 -0.232990
-10.722016 -7.693207 3.535986
-0.930024 -0.665586 -0.306442
-10.881975 -7.784987 0.233548
-6.342048 -4.535441 -1.800058
-10.873056 -7.772867 0.700464
-7.535218 -5.386733 -1.800474
-10.872212 -7.769401 1.169107
-8.935445 -6.383010 -1.739239
-10.802787 -7.714089 1.629881
-11.017405 -7.864441 -1.662054
-10.797615 -7.704711 2.100915
-10.921164 -7.789990 -1.173639
-10.828589 -7.723958 2.585462
-10.941087 -7.801321 -0.704233
-10.805165 -7.701560 3.063384
-10.929474 -7.787287 -0.234246
-10.799159 -7.691596 3.552550
-0.948208 -0.673359 -0.311618
-10.961257 -7.784005 0.234665
-6.362608 -4.516659 -1.801408
-10.942471 -7.764919 0.703186
-7.564517 -5.365895 -1.802764
-10.952626 -7.766376 1.174685
-8.944277 -6.339933 -1.736423
-10.884711 -7.715364 1.638168
-11.069083 -7.843153 -1.665710
-10.898597 -7.719492 2.115307
-10.988940 -7.780603 -1.177997
-10.860031 -7.686489 2.586225
-10.998955 -7.781931 -0.706117
-10.871505 -7.688911 3.074181
-10.990875 -7.773336 -0.234979
-10.860642 -7.678390 3.563938
-0.960027 -0.676723 -0.314724
-11.010966 -7.758749 0.235119
-6.379120 -4.493309 -1.801408
-11.020128 -7.762331 0.706431
-7.596044 -5.348500 -1.805817
-11.035065 -7.767087 1.180612
-8.914654 -6.272301 -1.726411
-10.951884 -7.702828 1.644018
-11.175704 -7.857330 -1.677410
-10.970724 -7.713214 2.124068
-11.061673 -7.774277 -1.182878
-10.951056 -7.693675 2.601490
-11.057108 -7.765300 -0.708106
-10.962074 -7.695706 3.092177
-11.063766 -7.767098 -0.235957
-10.915845 -7.660405 3.573256
-0.962383 -0.673367 -0.314724
-11.089064 -7.758875 0.236236
-6.403567 -4.478831 -1.804107
-11.074983 -7.743270 0.708210
-7.622714 -5.327573 -1.807724
-11.098041 -7.753626 1.184447
-8.943502 -6.248361 -1.727975
-11.022937 -7.698293 1.650842
-11.227742 -7.838408 -1.681310
-11.017017 -7.688439 2.127822
-11.127961 -7.762976 -1.187061
-11.031252 -7.695510 2.614465
-11.127030 -7.759436 -0.710932
-11.013113 -7.677143 3.099376
-11.140032 -7.762728 -0.237004
-11.005927 -7.666423 3.593961
-0.970957 -0.674582 -0.316795
-11.155498 -7.747500 0.237073
-6.431968 -4.465342 -1.807707
-11.144897 -7.737255 0.711036
-7.633886 -5.297792 -1.806198
-11.169529 -7.748580 1.189327
-9.478208 -6.572818 -1.826842
-11.092161 -7.689169 1.657179
-11.287666 -7.821783 -1.686184
-11.078175 -7.676616 2.134705
-11.210967 -7.765738 -1.193162
-11.090330 -7.679307 2.622097
-11.208240 -7.758062 -0.714386
-11.071895 -7.660829 3.108374
-11.203534 -7.751913 -0.237806
-11.088488 -7.669445 3.612597
-0.963763 -0.664608 -0.313689
-11.232161 -7.745656 0.238156
-6.461181 -4.453942 -1.811756
-11.221174 -7.732305 0.714177
-7.665267 -5.280020 -1.809251
-11.224405 -7.728751 1.192291
-9.477175 -6.525666 -1.822462
-11.173193 -7.690614 1.665467
-11.390405 -7.837193 -1.697640
-11.163496 -7.678198 2.145968
-11.279052 -7.754777 -1.197520
-11.167502 -7.678083 2.634309
-11.276701 -7.750263 -0.717107
-11.164700 -7.670418 3.127270
-11.275034 -7.743320 -0.238749
-11.131116 -7.641627 3.617773
-0.969150 -0.663591 -0.314724
-11.292134 -7.728991 0.238854
-6.479906 -4.433562 -1.812656
-11.292607 -7.723531 0.717003
-7.692456 -5.261223 -1.811541
-11.300960 -7.726346 1.197694
-9.545560 -6.523753 -1.831222
-11.242587 -7.680680 1.671804
-11.476707 -7.837688 -1.706415
-11.232648 -7.668140 2.154103
-11.347488 -7.746538 -1.202052
-11.226668 -7.661187 2.641942
-11.353185 -7.744618 -0.720248
-11.236487 -7.662140 3.139867
-11.344954 -7.733203 -0.239656
-11.212002 -7.639711 3.635372
-0.981047 -0.666719 -0.317830
-11.371976 -7.725484 0.239971
-6.498565 -4.413106 -1.813555
-11.354203 -7.707620 0.719201
-7.714025 -5.236543 -1.812304
-11.377321 -7.720413 1.202924
-9.543752 -6.473762 -1.826529
-11.298903 -7.661442 1.676191
-11.512213 -7.803148 -1.707633
-11.301864 -7.657696 2.162237
-11.414046 -7.733706 -1.206236
-11.311860 -7.661585 2.655680
-11.418187 -7.730695 -0.722655
-11.295443 -7.644715 3.148865
-11.423223 -7.728290 -0.240738
-11.296212 -7.639489 3.654007
-0.988174 -0.666531 -0.319383
-11.443638 -7.715928 0.240913
-6.520395 -4.394751 -1.815355
-11.425761 -7.698070 0.722027
-7.750167 -5.221651 -1.816502
-11.447165 -7.709592 1.207456
-9.517134 -6.407310 -1.817143
-11.368398 -7.650771 1.682528
-11.572320 -7.785078 -1.712508
-11.364590 -7.642447 2.169121
-11.497186 -7.731615 -1.212162
-11.390675 -7.657101 2.667892
-11.488202 -7.719755 -0.725376
-11.373823 -7.640011 3.163262
-11.499936 -7.721811 -0.241786
-11.351680 -7.619391 3.663325
-0.996915 -0.667377 -0.321453
-11.518698 -7.708187 0.241925
-6.551894 -4.382799 -1.819854
-11.510672 -7.697000 0.725690
-7.766715 -5.193476 -1.816120
-11.523700 -7.702801 1.212685
-9.588716 -6.406974 -1.826529
-11.437952 -7.639710 1.688866
-11.675369 -7.795338 -1.723720
-11.453633 -7.644401 2.181010
-11.582106 -7.730146 -1.218263
-11.436930 -7.630371 2.672471
-11.559946 -7.709525 -0.728203
-11.436095 -7.624043 3.173160
-11.558434 -7.702693 -0.242449
-11.442520 -7.622559 3.684030
-1.002457 -0.666031 -0.322489
-11.588846 -7.696693 0.242833
-6.567152 -4.359902 -1.819854
-11.587392 -7.689904 0.728831
-7.796246 -5.173933 -1.818792
-11.597007 -7.693367 1.217566
-9.551754 -6.334164 -1.815266
-11.524114 -7.639223 1.697640
-11.757117 -7.790721 -1.731764
-11.526359 -7.634920 2.189770
-11.633932 -7.706176 -1.220878
-11.515878 -7.625087 2.684683
-11.645079 -7.707708 -0.731866
-11.495141 -7.605587 3.182158
-11.630287 -7.692081 -0.243391
-11.494843 -7.599617 3.692313
-1.004776 -0.662528 -0.322489
-11.667399 -7.690311 0.243915
-6.588840 -4.341241 -1.821654
-11.650860 -7.673578 0.731133
-7.830655 -5.157485 -1.822608
-11.663728 -7.679135 1.221749
-9.623309 -6.333362 -1.824652
-11.593830 -7.627313 1.703977
-11.785897 -7.750726 -1.732007
-11.595856 -7.622851 2.197904
-11.705713 -7.695069 -1.225584
-11.598210 -7.621496 2.697658
-11.728668 -7.704297 -0.735425
-11.580262 -7.603920 3.198354
-11.715578 -7.689843 -0.244613
-11.566525 -7.589124 3.706806
-1.013548 -0.663248 -0.324559
-11.739357 -7.679095 0.244857
-6.603954 -4.318215 -1.821654
-11.727729 -7.665645 0.734274
-7.860113 -5.137639 -1.825279
-11.747171 -7.675427 1.227676
-9.711513 -6.342940 -1.837167
-11.653625 -7.608503 1.708852
-11.930909 -7.786569 -1.749313
-11.652174 -7.601755 2.203536
-11.790582 -7.689118 -1.231511
-11.674077 -7.613140 2.709106
-11.790627 -7.686214 -0.737623
-11.685105 -7.614517 3.219949
-11.787588 -7.678372 -0.245555
-11.657701 -7.590867 3.727512
-1.017593 -0.660580 -0.325077
-11.813054 -7.668556 0.245835
-6.625526 -4.299380 -1.823453
-11.808037 -7.659441 0.737623
-7.887127 -5.114136 -1.827187
-11.822039 -7.662663 1.232556
-9.749616 -6.316970 -1.839982
-11.740089 -7.606637 1.717627
-12.011333 -7.779405 -1.757112
-11.761548 -7.614713 2.219180
-11.875892 -7.685801 -1.237612
-11.744760 -7.598027 2.719028
-11.862324 -7.671147 -0.740345
-11.735846 -7.586452 3.226248
-11.868058 -7.671918 -0.246672
-11.745785 -7.589971 3.747182
-1.031261 -0.664348 -0.328700
-11.894880 -7.659852 0.246952
-6.651071 -4.281395 -1.826153
-11.874659 -7.640972 0.740030
-7.903279 -5.085513 -1.826805
-11.902335 -7.655840 1.238134
-9.788223 -6.293582 -1.843111
-11.817986 -7.595755 1.724939
-12.056467 -7.746059 -1.759550
-11.819297 -7.590767 2.224811
-11.952941 -7.676599 -1.242841
-11.830686 -7.595166 2.732767
-11.949541 -7.668525 -0.744113
-11.795061 -7.566483 3.235246
-11.943233 -7.658589 -0.247650
-11.786535 -7.555208 3.751323
-1.031946 -0.659703 -0.328183
-11.978838 -7.654895 0.248138
-6.679113 -4.266547 -1.829752
-11.965227 -7.640317 0.744008
-7.960697 -5.083251 -1.835964
-11.969295 -7.639974 1.242318
-9.895060 -6.313568 -1.859067
-11.901335 -7.590750 1.733226
-12.065021 -7.692187 -1.756869
-11.882368 -7.572824 2.231694
-12.021667 -7.661601 -1.247199
-11.913423 -7.589688 2.745742
-12.031831 -7.662171 -0.747567
-11.903599 -7.577585 3.257741
-12.023879 -7.651209 -0.248767
-11.887818 -7.561714 3.775135
-1.034242 -0.656097 -0.328183
-12.047704 -7.639810 0.249011
-6.697257 -4.245293 -1.830652
-12.042790 -7.633748 0.747253
-8.051360 -5.101667 -1.852755
-12.058165 -7.637595 1.248767
-9.932060 -6.288496 -1.861883
-11.974725 -7.578885 1.740051
-12.195805 -7.715832 -1.771980
-11.970850 -7.573512 2.243583
-12.105592 -7.655796 -1.253125
-11.963076 -7.562743 2.751084
-12.110842 -7.653203 -0.750812
-11.969517 -7.560968 3.268539
-12.096523 -7.641197 -0.249744
-11.938965 -7.538754 3.783417
-1.046336 -0.658658 -0.331288
-12.118665 -7.628578 0.249953
-6.717896 -4.227212 -1.832451
-12.118393 -7.622499 0.750288
-8.203742 -5.158179 -1.883667
-12.126923 -7.621962 1.253125
-9.924426 -6.237659 -1.856565
-12.046855 -7.568702 1.746875
-12.307059 -7.729189 -1.784411
-12.040713 -7.558986 2.251718
-12.172745 -7.638909 -1.257309
-12.051281 -7.562685 2.765586
-12.175069 -7.637411 -0.753219
-12.037451 -7.548151 3.280236
-12.177342 -7.632910 -0.250861
-12.043785 -7.546268 3.808264
-1.051791 -0.657232 -0.332324
-12.216454 -7.630724 0.251419
-6.735918 -4.205799 -1.833351
-12.195756 -7.611880 0.753429
-8.254111 -5.151736 -1.891299
-12.212986 -7.619673 1.259400
-9.931055 -6.193567 -1.853749
-12.113630 -7.551812 1.752725
-12.298584 -7.664135 -1.779293
-12.137447 -7.560774 2.264858
-12.262273 -7.638531 -1.263933
-12.134268 -7.555858 2.778561
-12.252523 -7.626527 -0.756359
-12.133219 -7.549325 3.299132
-12.268437 -7.630489 -0.252187
-12.112709 -7.530704 3.821722
-1.068855 -0.662718 -0.336982
-12.292305 -7.618583 0.252432
-6.755527 -4.185341 -1.834701
-12.271495 -7.599758 0.756464
-8.300419 -5.140463 -1.897786
-12.300494 -7.614748 1.265676
-9.989569 -6.181734 -1.860632
-12.204070 -7.549164 1.761987
-12.379292 -7.654562 -1.787092
-12.204093 -7.543286 2.272367
-12.348179 -7.632345 -1.270033
-12.197314 -7.536158 2.786956
-12.338547 -7.620440 -0.760023
-12.199293 -7.531495 3.309930
-12.335839 -7.612825 -0.253025
-12.175096 -7.510688 3.833110
-1.071162 -0.658983 -0.336982
-12.356298 -7.598674 0.253200
-6.786696 -4.171939 -1.839200
-12.355803 -7.592427 0.760023
-8.325003 -5.115570 -1.899313
-12.364351 -7.594707 1.269511
-10.048120 -6.169565 -1.867515
-12.291253 -7.543899 1.770762
-12.527763 -7.686046 -1.804641
-12.284234 -7.533690 2.282379
-12.420601 -7.617321 -1.274740
-12.290497 -7.534579 2.802221
-12.429784 -7.616980 -0.764000
-12.272037 -7.517370 3.322527
-12.411796 -7.599998 -0.254037
-12.257260 -7.502432 3.850710
-1.076753 -0.657254 -0.338018
-12.442494 -7.591951 0.254421
-6.804545 -4.150253 -1.840100
-12.429979 -7.578366 0.762954
-8.361247 -5.097723 -1.903511
-12.452034 -7.588828 1.275786
-10.135387 -6.174534 -1.879717
-12.371768 -7.533985 1.778561
-12.547732 -7.638143 -1.803666
-12.354332 -7.517461 2.290514
-12.499880 -7.606025 -1.280143
-12.377108 -7.528356 2.815959
-12.510905 -7.606752 -0.767350
-12.368145 -7.516996 3.341423
-12.504900 -7.597119 -0.255399
-12.332910 -7.489687 3.866239
-1.092261 -0.661497 -0.342159
-12.525372 -7.582647 0.255573
-6.808987 -4.120423 -1.837400
-12.521683 -7.577432 0.767036
-8.394110 -5.077649 -1.906945
-12.539826 -7.582429 1.282061
-10.134901 -6.125835 -1.875649
-12.431971 -7.511288 1.783436
-12.708557 -7.675371 -1.822922
-12.467121 -7.529555 2.306783
-12.586049 -7.598390 -1.286244
-12.467184 -7.523655 2.830461
-12.581847 -7.589856 -0.770071
-12.461063 -7.514026 3.359419
-12.586535 -7.589686 -0.256550
-12.420550 -7.486645 3.885909
-1.106155 -0.664645 -0.345782
-12.612153 -7.578146 0.256830
-6.829296 -4.101835 -1.839200
-12.597716 -7.563487 0.770071
-8.405050 -5.044276 -1.905419
-12.624306 -7.573461 1.287988
-10.414330 -6.247673 -1.923518
-12.531719 -7.514940 1.794161
-12.711806 -7.619917 -1.819753
-12.540773 -7.514420 2.315543
-12.672322 -7.590238 -1.292345
-12.512277 -7.494377 2.835040
-12.666923 -7.584001 -0.773735
-12.519354 -7.492680 3.368417
-12.676445 -7.583693 -0.257842
-12.522876 -7.488853 3.909721
-1.111671 -0.662952 -0.346818
-12.695210 -7.567867 0.257981
-6.858639 -4.086949 -1.843249
-12.677235 -7.551151 0.773316
-8.411612 -5.010347 -1.903129
-12.700708 -7.562135 1.293217
-10.471723 -6.232498 -1.930089
-12.612466 -7.503628 1.801960
-12.799749 -7.612026 -1.828528
-12.580511 -7.478673 2.318046
-12.755262 -7.579544 -1.298098
-12.636250 -7.508823 2.857174
-12.758572 -7.578498 -0.777712
-12.599052 -7.480770 3.382814
-12.756147 -7.571035 -0.258924
-12.578848 -7.462836 3.919038
-1.105779 -0.653956 -0.344229
-12.790400 -7.564224 0.259378
-6.884607 -4.069922 -1.846398
-12.774014 -7.548516 0.777608
-8.421465 -4.974493 -1.901221
-12.793535 -7.554024 1.299841
-10.511510 -6.204114 -1.933217
-12.676193 -7.481755 1.807323
-12.952759 -7.641946 -1.846564
-12.705229 -7.492915 2.336193
-12.841715 -7.570387 -1.304199
-12.714427 -7.492363 2.868623
-12.841331 -7.564122 -0.781062
-12.680122 -7.466183 3.397211
-12.834192 -7.556901 -0.259971
-12.664757 -7.454158 3.937673
-1.106389 -0.649115 -0.343712
-12.852538 -7.537522 0.260076
-6.912926 -4.052548 -1.849997
-12.868798 -7.541027 0.781690
-8.435390 -4.943080 -1.900458
-12.861087 -7.533489 1.304024
-10.410365 -6.095521 -1.910691
-12.789189 -7.485380 1.819509
-13.073207 -7.648549 -1.859726
-12.776938 -7.472227 2.344327
-12.764233 -7.461803 2.873965
-12.783510 -7.467092 3.417907
-12.942968 -7.557200 -0.261612
-12.755395 -7.444694 3.957343
-1.138702 -0.662740 -0.353029
-12.940994 -7.528817 0.261332
-6.925345 -4.027412 -1.849548
-12.941666 -7.523159 0.784516
-8.418649 -4.893870 -1.892825
-12.968269 -7.535600 1.312217
-10.472574 -6.082957 -1.918200
-12.863310 -7.468601 1.826334
-13.171932 -7.644722 -1.869963
-12.847369 -7.453355 2.352462
-12.878516 -7.468417 2.893809
-12.870199 -7.457592 3.434103
-12.841488 -7.434973 3.975978
-1.130970 -0.652966 -0.349923
-6.946115 -4.007107 -1.851347
-13.123566 -7.567736 0.793937
-8.435679 -4.864455 -1.892825
-13.027291 -7.509190 1.315529
-10.493745 -6.046361 -1.918200
-12.947786 -7.457342 1.834621
-13.222622 -7.612563 -1.873376
-12.948643 -7.451814 2.366228
-20.589226 -11.848892 -2.078316
-12.965770 -7.458663 2.907548
-12.923185 -7.428159 3.441301
-12.934371 -7.428587 3.996684
-1.139948 -0.652854 -0.351994
-32.298267 -18.489920 0.649613
-6.968516 -3.987677 -1.853597
-32.202953 -18.420422 1.944281
-8.476467 -4.848627 -1.898168
-32.307526 -18.472757 3.255964
-10.591962 -6.053806 -1.932279
-13.035788 -7.447550 1.843396
-13.256010 -7.570299 -1.874351
-13.029470 -7.437910 2.376240
-20.582006 -11.749296 -2.073435
-13.039472 -7.440601 2.918233
-13.026908 -7.427406 3.461997
-13.003869 -7.408253 4.010142
-1.133709 -0.644298 -0.349406
-6.993563 -3.971282 -1.856746
-8.482255 -4.814676 -1.895878
-32.455250 -18.414679 3.264680
-10.596515 -6.009877 -1.929463
-13.108767 -7.431693 1.850221
-13.305221 -7.539999 -1.877763
-13.115940 -7.429712 2.387503
-13.139243 -7.439883 2.935024
-13.109135 -7.416793 3.477293
-15.677747 -8.866433 -0.314388
-13.085540 -7.397416 4.027742
-1.137634 -0.641285 -0.349923
-7.020967 -3.954497 -1.860345
-8.500720 -4.786001 -1.896260
-32.606148 -18.350143 3.273395
-10.646698 -5.989316 -1.934782
-13.224604 -7.436484 1.862895
-13.372991 -7.516854 -1.883613
-13.214126 -7.424522 2.400644
-13.230181 -7.430506 2.949526
-13.206321 -7.411043 3.496189
-13.185425 -7.393266 4.050518
-1.146610 -0.641082 -0.351994
-7.031326 -3.928064 -1.859445
-40.925041 -22.853498 2.456545
-8.496805 -4.744814 -1.891680
-10.677888 -5.957891 -1.936659
-13.305957 -7.421220 1.870695
-13.485839 -7.518458 -1.895800
-13.305532 -7.414892 2.412533
-13.283477 -7.399567 2.955631
-13.290003 -7.397121 3.511486
-16.343882 -9.093153 -0.326465
-6.017900 -3.337150 -1.843827
-7.055221 -3.909165 -1.862145
-8.497859 -4.706564 -1.888246
-10.748742 -5.948322 -1.945732
-13.369998 -7.395865 1.876057
-13.581491 -7.509761 -1.905549
-13.390114 -7.400894 2.423170
-13.405459 -7.406318 2.977002
-13.366923 -7.378942 3.524983
-42.350853 -23.369286 -0.844313
-6.043055 -3.323570 -1.847968
-7.075655 -3.888267 -1.863944
-8.491867 -4.664583 -1.883285
-10.807537 -5.931674 -1.952615
-13.461867 -7.385432 1.885319
-13.722496 -7.525307 -1.921636
-13.485154 -7.392089 2.435685
-13.493213 -7.393440 2.990740
-13.460975 -7.369668 3.542979
-6.035963 -3.292281 -1.842274
-7.096030 -3.867273 -1.865744
-8.501201 -4.631157 -1.881758
-10.845530 -5.903354 -1.955744
-13.578237 -7.387733 1.897993
-13.804485 -7.507710 -1.929436
-13.562943 -7.373274 2.445071
-13.594838 -7.387544 3.007532
-21.276579 -11.557053 -1.268938
