# This PCD file was generated using the MATLAB® pcwrite function
# from Computer Vision Toolbox®.
# .PCD v.7 - Point Cloud Data file format
VERSION .7
FIELDS x y z
SIZE 4 4 4
TYPE F F F
COUNT 1 1 1
WIDTH 1572
HEIGHT 1
VIEWPOINT 0 0 0 1 0 0 0
POINTS 1572
DATA ascii
-11.780714 -7.609623 1.722014
-12.042195 -7.775549 -1.760037
-11.778809 -7.602567 2.220431
-11.896992 -7.678848 -1.238832
-11.780430 -7.600700 2.725134
-11.905256 -7.678299 -0.742438
-11.774587 -7.591112 3.234346
-11.887164 -7.660754 -0.246847
-11.756371 -7.573564 3.747182
-1.022320 -0.656822 -0.325594
-11.929469 -7.661524 0.247475
-6.662856 -4.277478 -1.827952
-11.917603 -7.648030 0.742124
-7.927662 -5.087516 -1.831003
-11.926772 -7.650976 1.239703
-9.830826 -6.304009 -1.849681
-11.847312 -7.594166 1.727864
-12.044193 -7.717402 -1.756381
-11.851851 -7.591236 2.229192
-11.969024 -7.666286 -1.243538
-11.856490 -7.591294 2.736583
-11.980769 -7.667918 -0.745473
-11.850261 -7.581471 3.247843
-11.982902 -7.663388 -0.248278
-11.828313 -7.561612 3.761676
-1.042525 -0.664673 -0.331288
-11.996611 -7.645632 0.248313
-6.681034 -4.256289 -1.828852
-12.003192 -7.643933 0.745787
-7.988428 -5.087231 -1.840925
-12.010554 -7.645671 1.245630
-9.911100 -6.306775 -1.860632
-11.923999 -7.584728 1.735176
-12.074410 -7.677440 -1.756869
-11.928288 -7.581610 2.238577
-12.066332 -7.669350 -1.250859
-11.932629 -7.581445 2.748031
-12.051300 -7.653887 -0.748195
-11.939169 -7.579752 3.264940
-12.053478 -7.649372 -0.249185
-11.906838 -7.553392 3.778240
-1.046471 -0.662063 -0.331806
-12.077310 -7.637909 0.249430
-6.699145 -4.235024 -1.829752
-12.063566 -7.623328 0.747881
-8.140567 -5.144268 -1.871836
-12.086018 -7.634560 1.250685
-9.934725 -6.273194 -1.860945
-12.000761 -7.574846 1.742488
-12.267341 -7.740117 -1.780999
-12.001464 -7.569433 2.247338
-12.136844 -7.654818 -1.255391
-11.998880 -7.564872 2.757190
-12.130322 -7.644789 -0.751440
-11.988638 -7.552573 3.271238
-12.134256 -7.641347 -0.250302
-11.965827 -7.532369 3.788593
-1.056956 -0.663542 -0.334394
-12.164874 -7.633970 0.250686
-6.723791 -4.217829 -1.832451
-12.149690 -7.621490 0.751649
-8.233324 -5.162753 -1.889009
-12.166615 -7.626186 1.256263
-9.956561 -6.238477 -1.860945
-12.084330 -7.568735 1.750775
-12.321205 -7.714103 -1.784899
-12.086775 -7.567329 2.258601
-12.215847 -7.645172 -1.260795
-12.091787 -7.564594 2.772455
-12.209430 -7.635227 -0.754685
-12.074416 -7.547864 3.287435
-12.203613 -7.628627 -0.251210
-12.079208 -7.547928 3.816546
-1.059266 -0.659848 -0.334394
-12.244437 -7.627421 0.251803
-6.739396 -4.196538 -1.832901
-12.223697 -7.608584 0.754580
-8.261298 -5.140204 -1.891299
-12.240532 -7.613133 1.261144
-9.948678 -6.187689 -1.855626
-12.153192 -7.555873 1.757112
-12.358520 -7.680536 -1.786605
-12.173522 -7.562618 2.269864
-12.293237 -7.634017 -1.266024
-12.160170 -7.551383 2.782377
-12.297467 -7.633670 -0.758557
-12.165614 -7.548881 3.305431
-12.291346 -7.623928 -0.252466
-12.128469 -7.519970 3.823793
-1.064735 -0.658364 -0.335429
-12.316914 -7.613020 0.252746
-6.773897 -4.185279 -1.838300
-12.309659 -7.602599 0.758243
-8.306693 -5.130318 -1.897786
-12.325049 -7.609133 1.267244
-10.000476 -6.171601 -1.861258
-12.250453 -7.557175 1.767349
-12.466359 -7.687362 -1.798304
-12.233477 -7.540813 2.276122
-12.367669 -7.623530 -1.271079
-12.233255 -7.537726 2.793062
-12.380157 -7.625263 -0.762012
-12.228396 -7.528850 3.315329
-12.368973 -7.612420 -0.253514
-12.207297 -7.509980 3.840357
-1.071966 -0.657674 -0.336982
-12.389438 -7.598209 0.253688
-6.780159 -4.156516 -1.836051
-12.392320 -7.594022 0.761698
-8.347987 -5.115653 -1.903129
-12.407599 -7.600411 1.272997
-10.107876 -6.189261 -1.877214
-12.314006 -7.537166 1.772712
-12.513434 -7.656234 -1.801229
-12.293430 -7.518674 2.282379
-12.448597 -7.613575 -1.276657
-12.319794 -7.531844 2.806801
-12.454416 -7.611166 -0.764942
-12.311147 -7.520656 3.330625
-12.460322 -7.608799 -0.254840
-12.299394 -7.507586 3.861063
-1.087457 -0.661964 -0.341124
-12.482509 -7.595455 0.255049
-6.799622 -4.135859 -1.837400
-12.456295 -7.573548 0.764000
-8.380890 -5.095662 -1.906564
-12.488537 -7.590167 1.278575
-10.131107 -6.154965 -1.877527
-12.391141 -7.525051 1.780024
-12.628325 -7.666073 -1.813903
-12.400661 -7.524905 2.297397
-12.542852 -7.608198 -1.283455
-12.426579 -7.537670 2.825118
-12.533854 -7.599743 -0.768187
-12.400652 -7.516018 3.347722
-12.550086 -7.603600 -0.256132
-12.365185 -7.488622 3.873486
-1.096491 -0.661968 -0.343194
-12.565437 -7.585946 0.256201
-6.829033 -4.121162 -1.841449
-12.547644 -7.569223 0.767978
-8.392786 -5.060853 -1.905037
-12.584528 -7.585485 1.285547
-10.241579 -6.170806 -1.893796
-12.461541 -7.508388 1.786361
-12.689017 -7.642426 -1.818778
-12.487776 -7.518254 2.308660
-12.632498 -7.602381 -1.289905
-12.497866 -7.518383 2.835040
-12.614682 -7.585664 -0.771432
-12.454838 -7.486583 3.354920
-12.624539 -7.588591 -0.257109
-12.490605 -7.505112 3.904544
-1.098795 -0.658136 -0.343194
-12.646345 -7.571681 0.257283
-6.844092 -4.096105 -1.841449
-12.637399 -7.563328 0.771851
-8.393552 -5.021449 -1.901221
-12.641708 -7.559916 1.288685
-10.452958 -6.248536 -1.928837
-12.567364 -7.509503 1.797573
-12.744209 -7.612156 -1.822678
-12.551253 -7.496903 2.315543
-12.694884 -7.579685 -1.293566
-12.567863 -7.500874 2.844962
-12.706263 -7.580468 -0.775410
-12.584668 -7.504943 3.382814
-12.699045 -7.573153 -0.258086
-12.533319 -7.471361 3.909721
-1.099425 -0.653310 -0.342676
-12.726396 -7.562391 0.258400
-6.864339 -4.077367 -1.843249
-12.720395 -7.552818 0.775305
-8.421159 -4.998131 -1.903511
-12.736562 -7.556406 1.295657
-10.470222 -6.211821 -1.928211
-12.640005 -7.496138 1.804398
-12.854762 -7.620467 -1.834865
-12.655519 -7.499369 2.329935
-12.793260 -7.577975 -1.300887
-12.653478 -7.495176 2.858701
-12.796638 -7.576958 -0.779387
-12.649733 -7.486994 3.393611
-12.785637 -7.564419 -0.259308
-12.609208 -7.457067 3.925250
-1.119890 -0.660455 -0.348370
-12.806119 -7.549402 0.259482
-6.883566 -4.056351 -1.844599
-12.805193 -7.542835 0.778864
-8.429230 -4.965196 -1.901603
-12.830225 -7.554564 1.302630
-10.507165 -6.184254 -1.931027
-12.686626 -7.464050 1.807323
-12.915506 -7.595675 -1.839740
-12.749735 -7.495190 2.342450
-12.869847 -7.565800 -1.306116
-12.720187 -7.474833 2.867859
-12.879838 -7.565625 -0.782841
-12.726204 -7.472394 3.407109
-12.877499 -7.558207 -0.260634
-12.711808 -7.457975 3.949061
-1.123856 -0.657518 -0.348888
-12.903164 -7.546046 0.260913
-6.907779 -4.038197 -1.847298
-12.890075 -7.532351 0.782423
-8.429559 -4.925836 -1.897786
-12.915009 -7.543902 1.308556
-10.453629 -6.103714 -1.917261
-12.801755 -7.471752 1.819997
-13.133977 -7.662586 -1.867038
-12.813362 -7.472532 2.349333
-12.817439 -7.471912 2.883887
-15.929516 -9.282370 -0.966227
-12.802728 -7.457350 3.420606
-12.969472 -7.551445 -0.261961
-12.774499 -7.434934 3.960449
-1.136169 -0.659409 -0.351994
-13.008991 -7.547119 0.262519
-6.928576 -4.017970 -1.849098
-12.971581 -7.519366 0.785772
-8.428018 -4.885553 -1.893589
-13.006773 -7.536729 1.315180
-10.459487 -6.058275 -1.914445
-12.910215 -7.474766 1.831696
-13.195008 -7.636576 -1.871913
-12.873566 -7.447543 2.355590
-20.600227 -11.917528 -2.082151
-12.914822 -7.468407 2.899915
-12.889424 -7.447714 3.436802
-32.085049 -18.531790 -0.646751
-12.880678 -7.436664 3.985296
-1.133441 -0.652548 -0.350441
-32.169582 -18.513271 0.647868
-6.952693 -3.999592 -1.851797
-32.161076 -18.493444 1.944281
-8.445021 -4.856103 -1.893589
-32.265533 -18.546009 3.255964
-10.545655 -6.059125 -1.926334
-12.987871 -7.459314 1.839009
-13.238801 -7.600354 -1.874351
-12.998854 -7.459589 2.373737
-20.565666 -11.801919 -2.074481
-12.978279 -7.444767 2.908311
-13.003259 -7.453070 3.460197
-12.966908 -7.426219 4.003931
-1.125646 -0.642839 -0.347335
-32.320839 -18.450439 0.649613
-6.980153 -3.983025 -1.855396
-8.458509 -4.824647 -1.892825
-10.582188 -6.031081 -1.929150
-13.058678 -7.439477 1.845346
-13.289399 -7.567851 -1.877763
-13.059148 -7.433713 2.379994
-13.069030 -7.436315 2.922812
-13.080018 -7.436528 3.473694
-15.631327 -8.883438 -0.313829
-13.053223 -7.415262 4.022566
-1.151416 -0.652236 -0.354582
-6.997406 -3.960555 -1.856296
-8.490678 -4.803795 -1.896260
-32.567646 -18.418390 3.273395
-10.637568 -6.013547 -1.935407
-13.146782 -7.429009 1.854120
-13.329562 -7.529226 -1.879713
-13.160706 -7.430813 2.393760
-13.170135 -7.433111 2.939604
-13.146637 -7.413795 3.484492
-15.895668 -8.960402 -0.318506
-13.136250 -7.401899 4.040165
-1.138528 -0.639696 -0.349923
-32.623211 -18.322271 0.653104
-7.016286 -3.938967 -1.857646
-8.498834 -4.769324 -1.894352
-10.655049 -5.974446 -1.934782
-13.231510 -7.416071 1.862407
-13.421573 -7.519521 -1.888975
-13.241716 -7.415716 2.403772
-13.240541 -7.412027 2.949526
-13.237066 -7.404010 3.501588
-13.371118 -7.472864 4.104352
-6.019334 -3.354448 -1.846415
-7.043613 -3.922035 -1.861245
-8.489698 -4.725306 -1.888628
-10.717271 -5.960258 -1.942291
-13.330188 -7.410349 1.872645
-13.503266 -7.503476 -1.896775
-13.319324 -7.398226 2.413158
-13.328126 -7.400071 2.963264
-13.320766 -7.389903 3.516885
-6.014098 -3.324072 -1.841239
-7.065790 -3.902135 -1.863495
-8.482078 -4.682361 -1.883285
-10.781255 -5.946663 -1.950112
-13.408123 -7.392529 1.879957
-13.640641 -7.517619 -1.912374
-13.448881 -7.408876 2.431931
-13.436425 -7.398954 2.981581
-13.407946 -7.377179 3.533081
-6.025665 -3.303059 -1.841239
-7.093041 -3.884938 -1.867094
-8.500094 -4.653665 -1.883667
-10.815808 -5.916579 -1.952615
-13.517450 -7.391391 1.891656
-13.750411 -7.515658 -1.924073
-13.519732 -7.386514 2.440065
-13.513861 -7.380240 2.993030
-13.495199 -7.363935 3.549278
-6.050737 -3.289385 -1.845380
-7.101421 -3.857364 -1.865744
-8.511109 -4.621155 -1.882522
-10.852023 -5.887267 -1.955431
-13.602501 -7.376336 1.899943
-13.846370 -7.505454 -1.933823
-13.635749 -7.388207 2.456334
-13.629310 -7.381642 3.012874
-21.299725 -11.531136 -1.269356
-13.589376 -7.353881 3.567274
-6.070684 -3.272829 -1.847968
-7.128569 -3.839943 -1.869343
-8.570403 -4.614688 -1.892062
-14.016049 -7.543713 1.392574
-10.895123 -5.861514 -1.959498
-13.694602 -7.364536 1.909205
-13.931931 -7.489034 -1.942110
-13.696258 -7.359264 2.462592
-13.703422 -7.360032 3.023560
-21.403191 -11.490729 -1.273125
-13.697386 -7.350631 3.588869
-6.087183 -3.254351 -1.849521
-7.148805 -3.818711 -1.871143
-8.584728 -4.583819 -1.891680
-14.073936 -7.511624 1.395712
-10.887631 -5.808570 -1.954492
-13.772772 -7.344714 1.916517
-14.000032 -7.462764 -1.947960
-13.770677 -7.337420 2.471352
-13.777545 -7.337997 3.034245
-21.538376 -11.466626 -1.278777
-13.795214 -7.341223 3.607765
-6.091678 -3.229463 -1.847450
-7.162091 -3.793734 -1.871143
-8.605881 -4.556581 -1.892825
-14.138814 -7.482955 1.399547
-10.920063 -5.776998 -1.956682
-13.886068 -7.342991 1.928705
-14.096197 -7.450955 -1.957709
-13.890518 -7.339141 2.488247
-13.900294 -7.341199 3.055615
-13.879353 -7.323949 3.623062
-6.108043 -3.210878 -1.849003
-7.185641 -3.774147 -1.873842
-8.639118 -4.535636 -1.896641
-14.157789 -7.429855 1.398850
-10.973399 -5.756279 -1.962627
-14.006553 -7.344250 1.941866
-14.185414 -7.434883 -1.966484
-13.995263 -7.335221 2.502639
-13.978013 -7.319957 3.067064
-13.973901 -7.311594 3.641058
-6.120928 -3.190428 -1.849521
-7.192933 -3.747596 -1.872493
-8.637482 -4.496389 -1.892825
-14.197777 -7.387747 1.400244
-10.983665 -5.715299 -1.961063
-14.080140 -7.323412 1.948691
-14.347371 -7.459225 -1.985496
-14.076872 -7.315472 2.512650
-14.489362 -7.526618 -1.428483
-14.075383 -7.311574 3.083092
-14.515454 -7.536960 -0.857158
-14.074175 -7.304713 3.660853
-14.549996 -7.548445 -0.286115
-6.140055 -3.174549 -1.852109
-14.590258 -7.540270 0.286673
-7.212895 -3.726044 -1.874292
-8.622690 -4.452409 -1.886338
-14.293017 -7.377177 1.407217
-11.024614 -5.687792 -1.964817
-14.151489 -7.297875 1.955028
-14.429784 -7.438202 -1.993295
-14.186610 -7.309719 2.527668
-14.469961 -7.455717 -1.424125
-14.191577 -7.309144 3.102936
-14.502609 -7.466134 -0.854856
-14.161967 -7.287641 3.677050
-14.522909 -7.470173 -0.285068
-6.159695 -3.157503 -1.854697
-14.545303 -7.452820 0.285277
-7.234529 -3.705285 -1.876542
-14.604847 -7.476894 0.859880
-8.618957 -4.412441 -1.882140
-14.403817 -7.370806 1.415583
-11.112989 -5.684357 -1.977019
-14.286461 -7.304460 1.970140
-14.473337 -7.396821 -1.995733
-14.250742 -7.279924 2.534552
-14.481706 -7.397911 -1.422730
-14.269460 -7.286346 3.114385
-14.500118 -7.400937 -0.853181
-14.260226 -7.275357 3.695946
-14.522174 -7.405805 -0.284544
-6.165512 -3.133356 -1.853144
-14.542702 -7.387514 0.284719
-7.259583 -3.686183 -1.879691
-14.589895 -7.405078 0.857472
-8.627304 -4.378774 -1.880614
-14.461437 -7.336710 1.418721
-11.185619 -5.672333 -1.986405
-14.393321 -7.295832 1.981352
-14.573440 -7.383940 -2.005970
-14.364178 -7.274759 2.550195
-14.528770 -7.358117 -1.424822
-14.389392 -7.284373 3.134992
-14.532994 -7.353883 -0.853600
-14.379439 -7.273031 3.720240
-14.542583 -7.352361 -0.284439
-6.183312 -3.115294 -1.855215
-14.554114 -7.329510 0.284439
-7.291554 -3.670458 -1.884640
-14.592460 -7.342437 0.856112
-8.640781 -4.347752 -1.880232
-14.586640 -7.336315 1.428483
-11.212411 -5.636802 -1.987656
-14.471911 -7.272288 1.988664
-14.694918 -7.381135 -2.019131
-14.481283 -7.270664 2.566464
-14.634492 -7.347586 -1.432666
-14.460354 -7.257000 3.144914
-14.653193 -7.350572 -0.859147
-14.439581 -7.240263 3.729239
-14.632516 -7.333813 -0.285696
-6.206246 -3.099733 -1.858838
-14.676224 -7.326890 0.286324
-7.300833 -3.643245 -1.883740
-14.659107 -7.311959 0.858519
-8.641850 -4.310553 -1.877179
-14.715576 -7.336914 1.438593
-11.265608 -5.614373 -1.993601
-14.568280 -7.257132 1.998414
-14.749025 -7.343952 -2.023031
-14.577310 -7.255280 2.578979
-14.736747 -7.334633 -1.440161
-14.580516 -7.253696 3.165521
-14.732409 -7.326056 -0.862287
-14.597389 -7.255740 3.763431
-14.729663 -7.318277 -0.287092
-6.229149 -3.084049 -1.862462
-14.771607 -7.310211 0.287685
-7.315254 -3.618602 -1.884190
-14.752579 -7.294380 0.862497
-8.642767 -4.273397 -1.874126
-14.794682 -7.311989 1.443822
-11.318788 -5.591637 -1.999546
-14.671842 -7.244903 2.009138
-14.835091 -7.322299 -2.031318
-14.684038 -7.244556 2.593371
-14.837305 -7.320172 -1.447483
-14.672658 -7.235753 3.180023
-14.838508 -7.314326 -0.866997
-14.657589 -7.221967 3.772429
-14.857371 -7.317176 -0.289082
-6.243344 -3.063990 -1.863497
-14.883207 -7.300875 0.289361
-7.348837 -3.603340 -1.889589
-14.853272 -7.279760 0.866893
-8.641765 -4.235428 -1.870692
-14.852322 -7.276079 1.446960
-11.355980 -5.560778 -2.002674
-14.750531 -7.219829 2.016450
-14.960415 -7.319323 -2.044968
-14.783770 -7.229698 2.606511
-14.952258 -7.312094 -1.456198
-14.786016 -7.227604 3.199104
-14.953674 -7.306325 -0.872231
-14.798281 -7.227197 3.802123
-14.951107 -7.298607 -0.290408
-6.252264 -3.041333 -1.862980
-14.976942 -7.282106 0.290687
-7.373639 -3.583628 -1.892738
-14.970214 -7.272376 0.872231
-8.638836 -4.196658 -1.866875
-14.895553 -7.232893 1.448703
-11.405530 -5.535769 -2.007993
-14.868515 -7.213352 2.029125
-15.064463 -7.305168 -2.055692
-14.897793 -7.221133 2.622155
-15.036856 -7.288538 -1.461950
-14.910095 -7.223883 3.220474
-15.052790 -7.289770 -0.876523
-14.869021 -7.197576 3.813820
-15.052097 -7.282954 -0.291874
-6.264583 -3.020329 -1.863497
-15.095942 -7.274929 0.292502
-7.396638 -3.562942 -1.895438
-15.083687 -7.262531 0.877360
-8.678198 -4.178401 -1.872218
-14.996111 -7.217142 1.456024
-11.458608 -5.512193 -2.013937
-15.000944 -7.213020 2.043749
-15.168596 -7.290374 -2.066417
-14.983447 -7.198169 2.632792
-15.152000 -7.279143 -1.470666
-14.974156 -7.190489 3.228870
-15.166372 -7.279533 -0.881652
-15.013532 -7.202950 3.844413
-15.167583 -7.273602 -0.293619
-6.287289 -3.004274 -1.867121
-15.182597 -7.251488 0.293689
-7.405511 -3.535421 -1.894538
-15.177441 -7.242524 0.881338
-8.662609 -4.133711 -1.865731
-15.103933 -7.204207 1.464042
-11.488478 -5.477262 -2.015815
-15.097712 -7.194776 2.053499
-15.240549 -7.259577 -2.072754
-15.133331 -7.205265 2.654693
-15.258269 -7.264750 -1.478510
-15.098439 -7.185416 3.250241
-15.262032 -7.260008 -0.885734
-15.077301 -7.168907 3.854311
-15.270543 -7.257518 -0.295120
-6.304721 -2.985615 -1.869191
-15.299996 -7.242078 0.295469
-7.424853 -3.512885 -1.896337
-15.288033 -7.233154 0.886362
-8.650364 -4.090855 -1.860006
-15.193835 -7.182093 1.470317
-11.505740 -5.436285 -2.015502
-15.194533 -7.175935 2.063248
-15.355553 -7.248703 -2.084941
-15.207159 -7.178652 2.663454
-15.373626 -7.253958 -1.487226
-15.226418 -7.181246 3.272375
-15.373996 -7.247568 -0.890758
-15.246785 -7.184351 3.891203
-15.379542 -7.246907 -0.296761
-6.322101 -2.966872 -1.871262
-15.418063 -7.235477 0.297284
-7.454105 -3.496520 -1.900836
-15.394565 -7.217898 0.891072
-8.652146 -4.054802 -1.857335
-15.359543 -7.194940 1.483914
-11.536226 -5.403966 -2.017692
-15.340496 -7.182748 2.079822
-15.411870 -7.212888 -2.089328
-15.332322 -7.172402 2.680974
-15.490902 -7.243286 -1.496115
-15.317730 -7.162313 3.286876
-15.490224 -7.239674 -0.896096
-15.288182 -7.141999 3.895702
-15.486281 -7.231246 -0.298331
-6.331904 -2.945890 -1.871262
-15.521193 -7.217875 0.298785
-7.473333 -3.473764 -1.902636
-15.499365 -7.201141 0.895678
-8.702934 -4.043460 -1.865349
-15.419457 -7.160748 1.487400
-11.590854 -5.380298 -2.023949
-15.426700 -7.157563 2.088109
-15.292884 -7.092237 -2.069829
-15.411031 -7.143761 2.690360
-15.583524 -7.223720 -1.502739
-15.445953 -7.156670 3.309010
-15.589704 -7.219975 -0.900388
-15.426202 -7.140979 3.924496
-15.598541 -7.217451 -0.300007
-15.526431 -7.180797 4.583685
-6.342149 -2.923771 -1.871262
-15.640735 -7.207170 0.300600
-7.499573 -3.454178 -1.906235
-15.616934 -7.189595 0.901016
-8.765146 -4.035226 -1.875653
-15.545719 -7.153522 1.497161
-11.611361 -5.340628 -2.024262
-15.530948 -7.140157 2.098834
-15.422165 -7.086885 -2.083966
-15.522039 -7.129495 2.705378
-15.708228 -7.215014 -1.512326
-15.527936 -7.128922 3.321221
-15.701944 -7.205496 -0.905412
-15.553768 -7.134210 3.950590
-15.712711 -7.203794 -0.301717
-6.364616 -2.907233 -1.874885
-15.733102 -7.183258 0.301892
-7.500948 -3.423124 -1.903536
-15.734608 -7.177310 0.906354
-8.889923 -4.055120 -1.899313
-15.650360 -7.135581 1.504831
-11.617348 -5.294332 -2.022072
-15.646102 -7.127044 2.111021
-15.663607 -7.131717 -2.113214
-15.654708 -7.124363 2.724150
-15.813107 -7.196449 -1.519996
-15.642077 -7.115324 3.340302
-15.823363 -7.194451 -0.910960
-15.826973 -7.189432 -0.303428
-6.388805 -2.891371 -1.879026
-15.856465 -7.172801 0.303777
-7.527057 -3.403343 -1.907135
-15.834188 -7.156066 0.910646
-8.982741 -4.059640 -1.916104
-15.798642 -7.136682 1.516684
-11.702372 -5.283824 -2.033648
-15.757735 -7.111582 2.122720
-15.778882 -7.117806 -2.125401
-15.780324 -7.115147 2.741671
-15.952557 -7.192805 -1.530978
-15.784951 -7.113919 3.365489
-15.941254 -7.181010 -0.916298
-15.946797 -7.176816 -0.305243
-6.397096 -2.868263 -1.878509
-15.976298 -7.159933 0.305592
-7.546004 -3.380234 -1.908935
-15.957504 -7.144828 0.916298
-9.029109 -4.042702 -1.922973
-15.921659 -7.125439 1.526097
-11.691893 -5.230037 -2.028642
-15.869451 -7.095421 2.134420
-15.818129 -7.069167 -2.127352
-15.895246 -7.100303 2.757314
-16.055790 -7.172017 -1.538473
-15.917251 -7.106796 3.388386
-16.057417 -7.166021 -0.921532
-16.050287 -7.156118 -0.306743
-6.405304 -2.845130 -1.877991
-16.105371 -7.150373 0.307581
-7.575570 -3.361779 -1.913434
-16.075460 -7.130378 0.921636
-9.048552 -4.013546 -1.924118
-16.015650 -7.100504 1.532721
-11.733555 -5.199600 -2.032710
-16.028431 -7.099477 2.152457
-15.842708 -7.013908 -2.127352
-16.013866 -7.086346 2.773583
-16.179113 -7.159470 -1.547886
-16.013779 -7.082961 3.403651
-16.182800 -7.154343 -0.927289
-16.173943 -7.143679 -0.308628
-6.432879 -2.830534 -1.883168
-16.201620 -7.125513 0.308943
-7.594394 -3.338451 -1.915233
-16.211792 -7.123230 0.928021
-9.051722 -3.977197 -1.921828
-16.124250 -7.081412 1.540739
-11.795046 -5.177663 -2.040219
-16.118557 -7.072197 2.161231
-15.848917 -6.950591 -2.124914
-16.128965 -7.070051 2.789227
-16.286121 -7.138940 -1.555730
-16.130114 -7.067199 3.423114
-16.306469 -7.141075 -0.932941
-16.294048 -7.128858 -0.310443
-6.444491 -2.808835 -1.883685
-16.327225 -7.112840 0.310862
-7.598855 -3.308808 -1.913434
-16.326292 -7.105655 0.933150
-9.070950 -3.947928 -1.922973
-16.273108 -7.079130 1.552592
-11.836597 -5.146699 -2.044286
-16.226892 -7.052286 2.172443
-15.698292 -6.819301 -2.101515
-16.280384 -7.068779 2.811128
-16.429735 -7.133626 -1.567060
-16.241133 -7.048368 3.441431
-16.415583 -7.120672 -0.937756
-16.432590 -7.121236 -0.312607
-6.463125 -2.790151 -1.886273
-16.449266 -7.097789 0.312712
-7.619307 -3.286121 -1.915683
-16.444534 -7.088944 0.938488
-9.118930 -3.931007 -1.930224
-16.367250 -7.052238 1.559216
-11.885333 -5.118632 -2.049605
-16.357162 -7.041127 2.186580
-16.199751 -6.970012 -2.165375
-16.348513 -7.030636 2.818637
-16.542389 -7.114012 -1.575427
-16.409929 -7.053659 3.471961
-16.541269 -7.106690 -0.943513
-16.554739 -7.105638 -0.314457
-6.474601 -2.768333 -1.886791
-16.582434 -7.086691 0.314772
-7.639690 -3.263334 -1.917933
-16.564697 -7.072280 0.943931
-9.156068 -3.909173 -1.935185
-16.509050 -7.045111 1.570372
-11.921297 -5.084867 -2.052733
-16.494860 -7.032250 2.201692
-16.315290 -6.952330 -2.177562
-16.471090 -7.015328 2.835531
-16.677103 -7.103073 -1.585886
-16.492258 -7.020939 3.484172
-16.661539 -7.089570 -0.948956
-16.660418 -7.082224 -0.315993
-6.480668 -2.744207 -1.885756
-16.700987 -7.068519 0.316552
-7.665393 -3.242721 -1.921532
-16.686781 -7.055634 0.949479
-9.175085 -3.879481 -1.936330
-16.599606 -7.015365 1.576647
-11.953532 -5.049371 -2.055236
-16.610744 -7.013235 2.213879
-16.273621 -6.867556 -2.168787
-16.622887 -7.011530 2.857432
-16.800928 -7.086628 -1.595299
-16.650536 -7.019766 3.512412
-16.794775 -7.077129 -0.955131
-16.782721 -7.065148 -0.317843
-6.490207 -2.721570 -1.885756
-16.826992 -7.052692 0.318472
-7.685652 -3.219710 -1.923781
-16.821844 -7.043632 0.955759
-9.195812 -3.850465 -1.937856
-16.763676 -7.015837 1.589895
-11.971087 -5.007612 -2.055236
-16.770651 -7.011878 2.231915
-16.411051 -6.858163 -2.183899
-16.756626 -6.999140 2.876204
-16.910133 -7.063259 -1.603317
-16.725664 -6.982784 3.523098
-16.928125 -7.063840 -0.961307
-16.919867 -7.053461 -0.319972
-6.521078 -2.707788 -1.891967
-16.954937 -7.036837 0.320426
-7.704045 -3.195847 -1.925581
-16.953337 -7.029237 0.961830
-9.216452 -3.821349 -1.939383
-16.850645 -6.983212 1.595822
-12.006742 -4.973356 -2.058365
-16.824369 -6.965444 2.235815
-16.489920 -6.823607 -2.191211
-16.883177 -6.982889 2.893725
-17.054356 -7.053689 -1.614647
-16.866055 -6.972360 3.547521
-17.061590 -7.049702 -0.967483
-17.049744 -7.037846 -0.321962
-6.537636 -2.687947 -1.894038
-17.092222 -7.023975 0.322555
-7.763824 -3.188926 -1.937728
-17.073845 -7.009459 0.967273
-9.289668 -3.813760 -1.951976
-17.011318 -6.980319 1.608721
-12.020373 -4.929915 -2.057739
-17.002871 -6.969920 2.256289
-16.333622 -6.692248 -2.167325
-17.009819 -6.965834 2.911246
-17.176596 -7.034132 -1.623886
-17.010206 -6.962527 3.572708
-17.172976 -7.025652 -0.972402
-17.112333 -6.997356 4.268221
-17.187122 -7.024437 -0.324091
-6.550558 -2.666568 -1.895073
-17.227774 -7.009487 0.324650
-7.856142 -3.194841 -1.957974
-17.194420 -6.988927 0.972716
-9.352030 -3.801271 -1.962280
-17.194326 -6.985388 1.623711
-12.037509 -4.887926 -2.057739
-17.122742 -6.949344 2.268964
-16.397352 -6.651608 -2.172687
-17.129223 -6.945012 2.927515
-17.315521 -7.020546 -1.634693
-17.154497 -6.951774 3.597895
-17.343637 -7.024898 -0.980671
-17.313492 -7.005654 -0.326011
-6.549076 -2.639352 -1.891967
-17.365282 -6.994884 0.326779
-7.916053 -3.187051 -1.970121
-17.341003 -6.978071 0.979625
-9.374350 -3.772266 -1.964188
-17.277756 -6.949116 1.629289
-11.999513 -4.823776 -2.048353
-17.253731 -6.932458 2.283101
-16.273104 -6.535148 -2.153188
-17.267021 -6.930803 2.946913
-17.424976 -6.994205 -1.642711
-17.291628 -6.937172 3.621555
-17.460743 -7.001481 -0.985905
-17.430655 -6.982355 -0.327756
-6.565426 -2.619339 -1.894038
-17.489893 -6.974226 0.328664
-7.936182 -3.163006 -1.972371
-17.472874 -6.960365 0.985696
-9.392931 -3.741699 -1.965333
-17.412971 -6.932987 1.639748
-12.049316 -4.795005 -2.053985
-17.432768 -6.933816 2.303575
-16.590961 -6.595642 -2.192186
-17.408598 -6.917166 2.966937
-17.578896 -6.984833 -1.654913
-17.366829 -6.897060 3.632240
-17.603882 -6.987651 -0.992604
-17.592482 -6.976014 -0.330339
-6.588903 -2.602083 -1.898179
-17.622015 -6.955714 0.330688
-7.963490 -3.141719 -1.976420
-17.608541 -6.943294 0.991976
-9.400455 -3.706731 -1.964188
-17.511209 -6.901383 1.646721
-12.077007 -4.757258 -2.055862
-17.497499 -6.888925 2.308937
-16.613882 -6.537688 -2.192186
-17.564997 -6.908413 2.989463
-17.732958 -6.974474 -1.667115
-17.551584 -6.899607 3.665823
-17.717396 -6.961213 -0.997628
-17.735855 -6.961325 -0.332573
-6.599745 -2.579771 -1.898697
-17.770983 -6.942910 0.333027
-7.983483 -3.117448 -1.978670
-17.744308 -6.925355 0.998256
-9.444427 -3.686028 -1.970675
-17.724525 -6.914066 1.664500
-12.099060 -4.717228 -2.056801
-17.684206 -6.891232 2.330386
-16.695795 -6.502704 -2.199986
-17.688406 -6.885758 3.006358
-17.866739 -6.955179 -1.677399
-17.689001 -6.882434 3.689483
-17.855137 -6.943481 -1.004013
-15.266035 -5.930506 -0.285870
-6.617718 -2.560203 -1.901285
-17.929398 -6.932765 0.335540
-7.994317 -3.089561 -1.978670
-17.880159 -6.906553 1.004536
-9.462731 -3.655161 -1.971820
-17.867506 -6.898082 1.675656
-12.054635 -4.651498 -2.046476
-17.830397 -6.876600 2.346473
-16.807299 -6.478661 -2.211685
-17.815561 -6.863741 3.023879
-18.009897 -6.938612 -1.688555
-17.830173 -6.865792 3.713907
-14.429042 -5.553245 -0.810265
-18.041599 -6.936361 -0.337390
-6.623007 -2.535705 -1.900250
-18.069281 -6.914447 0.337704
-8.021434 -3.067902 -1.982719
-18.038483 -6.895443 1.012073
-9.482769 -3.624911 -1.973347
-17.954756 -6.859847 1.681583
-12.083717 -4.614325 -2.048666
-17.947018 -6.849713 2.358659
-16.933676 -6.459572 -2.225334
-17.972305 -6.852179 3.046405
-18.160599 -6.923968 -1.700408
-17.997126 -6.858044 3.743673
-18.171946 -6.921030 -1.019086
-18.177843 -6.916007 -0.339484
-6.631818 -2.512571 -1.900250
-18.183071 -6.885321 0.339379
-8.039384 -3.042644 -1.984518
-18.170790 -6.873420 1.018144
-9.532090 -3.605680 -1.980979
-18.127684 -6.853498 1.695528
-12.086815 -4.567227 -2.046476
-18.149099 -6.854355 2.382058
-16.952408 -6.399021 -2.224847
-18.110706 -6.832628 3.065803
-18.290916 -6.900616 -1.710344
-18.090761 -6.821502 3.758174
-18.323082 -6.905451 -1.026204
-18.306673 -6.891971 -0.341439
-6.660446 -2.496866 -1.905944
-12.263458 -4.594883 0.228592
-8.062732 -3.019345 -1.987668
-18.333092 -6.861757 1.025890
-9.566682 -3.580642 -1.985558
-18.263462 -6.832067 1.705986
-12.102684 -4.525009 -2.046476
-18.206385 -6.803467 2.386446
-17.037867 -6.363425 -2.233134
-18.241783 -6.809440 3.083949
-18.445555 -6.885506 -1.722546
-18.248741 -6.808409 3.786032
-18.442518 -6.877034 -1.031542
-18.461794 -6.876887 -0.343882
-6.665498 -2.472259 -1.904908
-18.504450 -6.859693 0.344476
-8.084187 -2.995244 -1.990367
-18.465563 -6.837952 1.031960
-9.595691 -3.553365 -1.988993
-18.365677 -6.797315 1.713308
-12.131375 -4.487532 -2.048666
-18.412489 -6.807339 2.410332
-16.862602 -6.230976 -2.207298
-18.413685 -6.800470 3.108979
-18.604044 -6.870773 -1.735096
-18.605070 -6.863774 -1.039288
-18.605772 -6.856656 -0.346116
-6.684969 -2.452970 -1.908014
-11.795844 -4.326006 0.219307
-8.111059 -2.973044 -1.994416
-18.630657 -6.828919 1.039916
-18.561419 -6.796187 1.729344
-8.846804 -3.237473 -1.492072
-18.566643 -6.790752 2.427394
-8.855462 -3.238887 -1.157759
-18.551165 -6.781420 3.128377
-18.734581 -6.844768 -1.745032
-18.786369 -6.859968 3.887542
-18.730232 -6.835764 -1.044940
-12.861040 -4.691207 -0.238958
-6.682172 -2.426831 -1.904908
-11.851479 -4.301875 0.220075
-8.150185 -2.956764 -2.001615
-18.777117 -6.812055 1.046824
-8.805714 -3.192841 -1.820700
-18.651287 -6.759035 1.735619
-8.824060 -3.196009 -1.486441
-18.678654 -6.761582 2.439093
-8.836289 -3.198694 -1.153859
-18.681286 -6.758842 3.146523
-8.823050 -3.190416 -0.820833
-8.860758 -3.200555 -0.493737
-8.877769 -3.204948 -0.164751
-6.693819 -2.405965 -1.905944
-8.820687 -3.168689 0.163599
-8.170949 -2.933671 -2.004314
-8.923839 -3.202228 0.496878
-8.831036 -3.168927 -1.823753
-8.958901 -3.213045 0.832686
-8.834611 -3.166729 -1.486441
-8.945893 -3.204857 1.166777
-8.843663 -3.166489 -1.153372
-8.836008 -3.160271 -0.821007
-8.854397 -3.165103 -0.492795
-6.715334 -2.385942 -1.909567
-8.177466 -2.903827 -2.003414
-8.906729 -3.161038 0.495308
-8.883298 -3.150975 -1.832148
-8.936815 -3.168205 0.829548
-8.868501 -3.142244 -1.490195
-8.927089 -3.163002 1.162877
-8.907057 -3.154153 -1.160196
-8.947809 -3.166829 1.503335
-8.867647 -3.136717 -0.822924
-8.968038 -3.170464 1.848939
-8.879120 -3.137289 -0.493528
-8.965310 -3.165980 2.195072
-9.001108 -3.176855 2.557650
-6.734558 -2.366329 -1.912673
-8.204605 -2.879642 -2.007463
-8.908831 -3.125067 0.494784
-9.700115 -3.402636 -1.998152
-8.944059 -3.135671 0.829200
-12.274212 -4.300771 -2.059929
-8.949863 -3.134199 1.164340
-17.331230 -6.065917 -2.254583
-8.970545 -3.137924 1.505213
-8.956809 -3.131367 1.844360
-14.361667 -5.018133 -0.797286
-8.967109 -3.131454 2.192823
-8.963441 -3.126665 2.543674
-6.755960 -2.346067 -1.916296
-8.236697 -2.858654 -2.012862
-8.942329 -3.101804 0.496040
-9.703246 -3.363847 -1.996244
-12.155495 -4.209219 -2.037403
-9.002017 -3.117229 1.169702
-17.367308 -6.010572 -2.256533
-9.063583 -3.135005 1.518979
-9.042452 -3.124160 1.859625
-12.344831 -4.262722 -0.684450
-8.991420 -3.103019 2.195972
-8.958104 -3.091521 -0.165414
-8.994390 -3.102285 2.549368
-6.756395 -2.321140 -1.914226
-8.270588 -2.838108 -2.018711
-9.727348 -3.336110 -1.998915
-19.576847 -6.710289 1.810573
-12.240399 -4.193213 -2.049292
-12.167994 -4.166036 1.579183
-17.433256 -5.965340 -2.262383
-19.500301 -6.668843 3.264162
-14.874194 -5.086776 -1.375318
-9.038866 -3.084123 -0.166705
-6.760798 -2.296299 -1.913190
-9.051274 -3.072493 0.166845
-8.289672 -2.812351 -2.020960
-15.156500 -5.139042 0.838736
-9.774261 -3.314112 -2.006166
-11.633286 -3.942177 1.074630
-12.342898 -4.180242 -2.063997
-12.174942 -4.120991 1.578208
-17.435171 -5.898088 -2.259945
-19.635742 -6.638694 3.282934
-14.625731 -4.944848 -1.350740
-6.783424 -2.277603 -1.917332
-8.304980 -2.785258 -2.022310
-11.658926 -3.910077 0.644465
-9.796939 -3.283715 -2.008456
-11.733880 -3.930656 1.082649
-12.378020 -4.144033 -2.067438
-19.817184 -6.630737 2.565837
-17.478245 -5.844747 -2.262870
-19.833750 -6.632431 3.312344
-6.798667 -2.256344 -1.919402
-8.323420 -2.760770 -2.024559
-20.442524 -6.776553 1.128677
-9.830705 -3.256905 -2.013035
-20.024326 -6.630172 1.845436
-12.492957 -4.136491 -2.084333
-12.183865 -4.031786 1.575771
-17.493761 -5.785507 -2.262383
-19.973063 -6.601597 3.331742
-12.044150 -3.971565 -0.221366
-20.140417 -6.637417 5.682113
-6.813454 -2.236196 -1.921473
-8.345968 -2.735948 -2.027709
-11.708717 -3.836046 0.645721
-9.833989 -3.221842 -2.011509
-12.520463 -4.097158 -2.086523
-12.394086 -4.053405 1.601120
-17.536491 -5.731812 -2.265308
-20.153717 -6.583356 3.358023
-14.612313 -4.770395 -1.344813
-15.750137 -5.138816 -0.868254
-11.247993 -3.665550 -0.206497
-6.814253 -2.208827 -1.919402
-15.067757 -4.884185 0.276481
-8.374008 -2.712802 -2.032208
-12.706313 -4.113827 0.699941
-9.845731 -3.185780 -2.011509
-12.606822 -4.074325 -2.098412
-20.356634 -6.578941 2.626772
-17.514833 -5.657140 -2.259945
-20.323204 -6.560297 3.382427
-11.720166 -3.780996 -1.077419
-12.039087 -3.879239 -0.662887
-15.273159 -4.918385 -0.280076
-20.278212 -6.526241 5.707995
-6.851358 -2.194456 -1.927684
-15.413132 -4.933784 0.282485
-8.385750 -2.682687 -2.032658
-11.484750 -3.671879 0.631904
-9.890451 -3.162153 -2.018378
-11.844550 -3.784636 1.087878
-12.553225 -4.008661 -2.087149
-20.512991 -6.546528 2.643834
-17.508972 -5.584461 -2.256533
-20.493912 -6.532564 3.406830
-15.286881 -4.872790 -1.403730
-12.362766 -3.935956 -0.679949
-11.241539 -3.574665 -0.205903
-20.482426 -6.509218 5.758724
-6.945542 -2.197920 -1.952013
-11.674221 -3.692072 0.213722
-8.402495 -2.655748 -2.034457
-11.177541 -3.530701 0.614320
-9.935126 -3.138254 -2.025247
-11.838691 -3.737269 1.086135
-12.591631 -3.972543 -2.091216
-12.110905 -3.818555 1.559196
-17.513212 -5.518537 -2.254583
-20.723848 -6.526255 3.441246
-20.917536 -6.587250 -1.918647
-12.999558 -4.083786 -0.237841
-20.689337 -6.495547 5.810488
-7.039833 -2.200754 -1.976342
-11.370193 -3.552309 0.207928
-8.421016 -2.629305 -2.036707
-11.475786 -3.580902 0.630020
-9.964763 -3.109403 -2.029063
-11.910627 -3.714309 1.091538
-12.658226 -3.945023 -2.099977
-20.861441 -6.497616 2.682832
-17.676420 -5.502209 -2.273107
-20.878538 -6.494948 3.463146
-11.800972 -3.671076 -1.081254
-12.143898 -3.773106 -0.666446
-12.360564 -3.835694 -0.225904
-7.136074 -2.203526 -2.001189
-21.184832 -6.537552 0.386990
-8.428280 -2.599319 -2.036257
-11.243908 -3.465523 0.616622
-9.981184 -3.076335 -2.030208
-11.818794 -3.640455 1.081951
-12.679472 -3.903138 -2.101228
-21.107880 -6.493632 2.711593
-17.794184 -5.470808 -2.285782
-21.021931 -6.459159 3.483170
-12.236518 -3.759770 -1.119951
-15.788629 -4.845154 -0.865532
-11.586173 -3.551096 -0.211523
-7.217635 -2.201145 -2.021894
-21.375849 -6.514860 0.390061
-8.454080 -2.574994 -2.040306
-11.871181 -3.613534 0.650327
-9.971200 -3.035188 -2.026010
-11.564570 -3.517995 1.057548
-12.687350 -3.857130 -2.100289
-21.248175 -6.455695 2.726705
-15.343870 -4.658899 -1.968921
-21.259842 -6.451129 3.518837
-12.081791 -3.666123 -1.104612
-21.551142 -6.531308 -1.180176
-12.075071 -3.654877 -0.220214
-7.338111 -2.209919 -2.053470
-12.672485 -3.813984 0.231000
-8.472347 -2.548276 -2.042556
-15.625001 -4.696647 0.855065
-10.023098 -3.012797 -2.034406
-11.767595 -3.534925 1.074979
-12.721547 -3.819070 -2.103731
-21.483538 -6.445369 2.754004
-15.445604 -4.630965 -1.979890
-21.471455 -6.433581 3.550124
-12.086880 -3.621642 -1.103915
-12.081333 -3.615382 -0.660899
-11.604934 -3.468405 -0.211418
-7.425406 -2.207965 -2.075729
-11.637202 -3.458147 0.211907
-8.484927 -2.519796 -2.043455
-12.194816 -3.619214 0.666655
-10.090017 -2.994546 -2.045854
-12.261219 -3.636597 1.118905
-12.763209 -3.783060 -2.108424
-12.750513 -3.776873 1.632806
-15.461675 -4.577025 -1.979890
-21.645319 -6.403423 3.575154
-12.086074 -3.575472 -1.102694
-12.419497 -3.669397 -0.678693
-11.452027 -3.379205 -0.208417
-7.516480 -2.206521 -2.099023
-11.392080 -3.342073 0.207230
-8.499282 -2.491805 -2.044805
-11.065028 -3.241932 0.604271
-10.128670 -2.967590 -2.051579
-11.837876 -3.466125 1.079162
-12.782025 -3.740146 -2.109363
-12.039603 -3.520628 1.540185
-15.519477 -4.535275 -1.985252
-21.785105 -6.362155 3.594552
-15.420498 -4.503426 -1.405474
-11.682539 -3.407365 -0.637766
-12.289312 -3.579681 -0.223426
-21.748260 -6.330810 6.069307
-7.587224 -2.198550 -2.116622
-11.242332 -3.255564 0.204298
-8.509799 -2.462665 -2.045255
-11.106977 -3.212166 0.605946
-10.138968 -2.932215 -2.051579
-12.198261 -3.525462 1.110887
-12.846244 -3.710308 -2.117810
-11.998418 -3.463167 1.533360
-18.157795 -5.237544 -2.320393
-22.057728 -6.358294 3.635850
-15.139385 -4.364033 -1.378455
-11.694364 -3.366561 -0.637766
-12.270983 -3.527923 -0.222867
-21.955904 -6.308197 6.121071
-7.592995 -2.171521 -2.116105
-11.338226 -3.240480 0.205834
-8.508975 -2.430270 -2.043005
-12.737153 -3.635486 0.694184
-10.177459 -2.904888 -2.057303
-12.210493 -3.482860 1.110887
-12.855316 -3.664360 -2.117184
-11.968432 -3.409299 1.527998
-18.233244 -5.190434 -2.327705
-12.360481 -3.516313 -1.124309
-11.709886 -3.326811 -0.637975
-11.606059 -3.292936 -0.210581
-7.619121 -2.150252 -2.121281
-11.599669 -3.271446 0.210371
-8.419872 -2.373064 -2.019611
-13.170136 -3.711882 0.717107
-10.178087 -2.866686 -2.055395
-11.723931 -3.299865 1.065566
-12.852817 -3.615185 -2.114681
-11.269357 -3.167671 1.437327
-18.292400 -5.141758 -2.333067
-12.334315 -3.462376 -1.120823
-12.492599 -3.502104 -0.679949
-11.478273 -3.215594 -0.208068
-7.622488 -2.123937 -2.120246
-15.401623 -4.288622 0.279064
-8.378882 -2.331546 -2.007913
-12.530086 -3.486679 0.681624
-10.208344 -2.838703 -2.059592
-12.283828 -3.413535 1.115419
-12.468838 -3.462603 -2.049605
-18.336126 -5.088510 -2.336479
-12.558851 -3.480518 -1.140171
-15.816894 -4.377497 -0.860089
-11.504293 -3.181776 -0.208347
-7.636940 -2.100698 -2.122316
-12.060734 -3.315289 0.218330
-8.379050 -2.301682 -2.006114
-12.195498 -3.347755 0.662783
-10.242313 -2.811592 -2.064553
-12.026085 -3.298990 1.091016
-12.438340 -3.409746 -2.042722
-12.262709 -3.359302 1.561146
-12.627078 -3.456747 -1.607457
-12.421070 -3.398021 2.039593
-12.474831 -3.410388 -1.131456
-15.723430 -4.295546 -0.854228
-12.190546 -3.325811 -0.220564
-7.637131 -2.070668 -2.120246
-12.454376 -3.376777 0.225241
-8.398319 -2.275480 -2.008813
-12.074088 -3.269148 0.655560
-10.271501 -2.779158 -2.068370
-11.622655 -3.142565 1.053364
-12.753964 -3.446063 -2.092468
-12.577147 -3.398288 1.599657
-12.535579 -3.384706 -1.594295
-12.257397 -3.307300 2.010809
-12.492431 -3.368378 -1.131979
-12.446999 -3.351468 -0.675553
-11.719327 -3.153342 -0.211837
-7.638713 -2.042502 -2.118693
-12.518830 -3.345047 0.226183
-8.417900 -2.247697 -2.011512
-12.525388 -3.344454 0.679425
-10.305799 -2.749866 -2.073331
-11.691308 -3.117375 1.058594
-13.086593 -3.486964 -2.145030
-12.328636 -3.282700 1.566509
-18.416119 -4.900154 -2.339892
-12.559027 -3.341701 2.058365
-12.563803 -3.340621 -1.137382
-12.271375 -3.258284 -0.665399
-12.410614 -3.292933 -0.224124
-7.660740 -2.019765 -2.122834
-12.562726 -3.312181 0.226777
-8.429076 -2.220765 -2.012412
-11.772135 -3.099343 0.637975
-10.364698 -2.726865 -2.083253
-12.337998 -3.243721 1.116116
-13.077067 -3.438026 -2.141588
-11.513880 -3.024905 1.461701
-18.520588 -4.862244 -2.351104
-12.230508 -3.208613 2.002674
-18.796589 -4.927685 -1.700060
-11.772048 -3.083950 -0.637766
-14.975698 -3.917628 -0.270198
-7.674874 -1.996295 -2.124904
-12.856777 -3.341753 0.231873
-8.517882 -2.212392 -2.031758
-13.135530 -3.411757 0.711246
-10.411692 -2.702343 -2.090885
-11.646686 -3.020715 1.052667
-13.094728 -3.393841 -2.142527
-12.719659 -3.294266 1.613307
-18.579727 -4.808507 -2.356466
-12.382596 -3.204665 2.025827
-12.264119 -3.171716 -1.108272
-12.047674 -3.111256 -0.652106
-23.818636 -6.146613 5.679114
-12.138430 -3.132431 -0.218818
-7.685539 -1.970452 -2.125940
-12.507499 -3.206727 0.225380
-8.630886 -2.211221 -2.056952
-15.465319 -3.959313 0.836643
-10.441982 -2.671335 -2.095083
-11.776838 -3.010634 1.063474
-11.532741 -2.948233 -1.885348
-18.645578 -4.759632 -2.362803
-12.389879 -3.160442 2.025201
-12.269324 -3.127413 -1.107749
-16.321747 -4.157330 -0.882698
-12.025257 -3.058497 -0.216584
-7.702074 -1.944634 -2.128528
-11.920587 -3.007519 0.214595
-8.769696 -2.210936 -2.087996
-11.664504 -2.940748 0.630439
-10.478356 -2.639760 -2.100425
-11.981004 -3.016091 1.080905
-11.591867 -2.915979 -1.893170
-11.572383 -2.908930 1.465113
-18.656017 -4.686069 -2.361828
-12.531657 -3.147736 2.046476
-12.487477 -3.134319 -1.126401
-11.575608 -2.901151 -0.625415
-12.515514 -3.134391 -0.225206
-7.703191 -1.916338 -2.126975
-8.920710 -2.217569 -2.122188
-11.701837 -2.906751 0.631904
-10.537048 -2.615464 -2.110348
-11.883166 -2.947391 1.071144
-11.747188 -2.913664 -1.916948
-12.398928 -3.073019 1.568459
-18.683014 -4.627040 -2.363290
-12.565580 -3.109668 2.050231
-12.171473 -3.009881 -1.096942
-16.079626 -3.973350 -0.868044
-15.914248 -3.926591 -0.286115
-7.718885 -1.893083 -2.129563
-11.989338 -2.938208 0.215467
-9.055216 -2.217474 -2.152332
-12.037836 -2.945639 0.649489
-10.576176 -2.587974 -2.116454
-11.916100 -2.913647 1.073236
-13.330810 -3.257100 -2.173501
-12.463575 -3.042902 1.575283
-18.749193 -4.574028 -2.369628
-12.319187 -3.003095 2.008306
-12.206552 -2.975637 -1.099208
-11.703760 -2.848742 -0.631276
-15.811270 -3.842681 -0.284020
-7.731080 -1.867488 -2.131116
-12.092827 -2.918863 0.217143
-9.172776 -2.212350 -2.178426
-12.494628 -3.011229 0.673564
-10.608047 -2.556560 -2.121033
-12.259364 -2.952269 1.103217
-13.384350 -3.220711 -2.180384
-12.362177 -2.972460 1.561146
-18.772766 -4.510413 -2.370603
-12.425635 -2.983131 2.023949
-25.408211 -6.099972 -2.286095
-12.136082 -2.911376 2.425946
-15.846713 -3.798614 -0.854018
-12.337616 -2.952892 -0.221436
-7.735672 -1.840045 -2.130599
-12.811104 -3.044950 0.229848
-9.269556 -2.201481 -2.199572
-12.260208 -2.909492 0.660375
-10.643649 -2.525863 -2.126375
-12.843431 -3.045527 1.154814
-13.407043 -3.176703 -2.182261
-12.291346 -2.910084 1.550909
-18.850214 -4.459475 -2.378402
-12.482111 -2.950646 2.031458
-25.704679 -6.076328 -2.310847
-12.218777 -2.886148 2.440447
-18.464636 -4.358050 -0.994279
-12.585306 -2.965768 -0.225695
-7.768381 -1.819198 -2.137845
-11.610559 -2.716818 0.208137
-9.298057 -2.173993 -2.204520
-12.110808 -2.829418 0.651792
-10.673431 -2.493608 -2.130573
-12.008045 -2.803197 1.078814
-13.425746 -3.131683 -2.183513
-12.502490 -2.914024 1.576258
-18.962332 -4.416161 -2.390589
-12.257609 -2.852437 1.993288
-26.012930 -6.053404 -2.336645
-12.213478 -2.839918 2.437394
-17.903887 -4.159777 -0.963296
-12.490392 -2.897414 -0.223810
-7.752094 -1.786862 -2.131634
-14.808010 -3.410534 0.265242
-9.311285 -2.142835 -2.205870
-11.197538 -2.576924 0.602178
-10.693551 -2.458972 -2.132863
-11.959503 -2.747882 1.073584
-13.426969 -3.082588 -2.181948
-11.730912 -2.691046 1.477788
-12.557590 -2.878381 -1.581864
-12.297809 -2.818835 1.998294
-26.278608 -6.018610 -2.358609
-12.230973 -2.799019 2.438921
-12.038339 -2.752728 -0.647186
-12.632494 -2.886270 -0.226183
-7.756400 -1.759364 -2.131116
-12.615561 -2.861555 0.225799
-9.327844 -2.114099 -2.208120
-11.183091 -2.532528 0.600922
-10.679090 -2.416433 -2.128284
-11.677521 -2.640212 1.047438
-13.487212 -3.049371 -2.190083
-11.732026 -2.650383 1.476813
-12.679375 -2.862073 -1.596001
-26.653200 -6.006555 -2.390333
-12.187691 -2.744381 -0.654723
-15.670447 -3.522866 -0.280355
-7.762192 -1.733633 -2.131116
-12.535696 -2.797466 0.224194
-9.338970 -2.082374 -2.209019
-12.416126 -2.766234 0.666655
-10.621892 -2.366490 -2.115309
-12.040163 -2.680266 1.079162
-13.418716 -2.984689 -2.177255
-11.741206 -2.609414 1.476813
-12.863699 -2.856526 -1.617938
-26.915207 -5.966961 -2.411948
-26.970331 -5.974244 -1.447717
-18.505995 -4.092518 -0.330828
-7.777928 -1.707242 -2.133704
-12.287562 -2.697100 0.219586
-9.355700 -2.051851 -2.211269
-12.962222 -2.840444 0.695440
-10.622823 -2.325863 -2.113782
-11.929232 -2.609719 1.068355
-13.545355 -2.960796 -2.196027
-12.409607 -2.712540 1.559684
-19.098995 -4.171240 -2.400339
-27.239548 -5.939184 -2.439141
-12.451439 -2.712577 2.477082
-12.489995 -2.718691 -0.669900
-11.681109 -2.540489 -0.208661
-7.776286 -1.678453 -2.131634
-12.397058 -2.673545 0.221366
-9.370777 -2.019187 -2.213068
-10.630877 -2.288770 -2.113782
-11.794129 -2.537056 1.055456
-13.605821 -2.924288 -2.204162
-16.016451 -3.436554 -2.011332
-16.070084 -3.445128 -1.437895
-12.433956 -2.663337 2.471740
-12.112744 -2.587902 -0.216200
-7.755641 -1.645685 -2.124387
-12.764301 -2.706151 0.227754
-9.379674 -1.986870 -2.213518
-12.104880 -2.561933 0.648443
-10.654168 -2.254897 -2.116835
-12.769757 -2.700322 1.141914
-13.724176 -2.899647 -2.221683
-11.399287 -2.406363 1.430503
-16.005041 -3.375709 -2.008407
-16.015724 -3.375047 -1.431969
-12.981094 -2.733180 2.578593
-16.036505 -3.373576 -0.858833
-27.501856 -5.780520 6.488038
-16.157055 -3.393048 -0.288174
-7.780251 -1.622544 -2.129563
-12.002356 -2.500867 0.214001
-9.382737 -1.953322 -2.212619
-12.727284 -2.649599 0.681310
-10.742702 -2.234485 -2.132863
-11.823257 -2.457091 1.056502
-13.780633 -2.861361 -2.229192
-13.618105 -2.822656 -1.707633
-16.153801 -3.339416 -0.864485
-12.200580 -2.519958 -0.217457
-7.778296 -1.593827 -2.127493
-11.967484 -2.452220 0.213234
-9.394890 -1.923369 -2.213968
-12.757981 -2.609555 0.682461
-10.954328 -2.238642 -2.173315
-16.239635 -3.315802 1.450097
-13.890690 -2.836195 -2.245461
-16.258535 -3.316702 2.037412
-13.676017 -2.787391 -1.713727
-28.768494 -5.853015 -2.568480
-20.466787 -4.160295 -1.094554
-16.238567 -3.294920 -0.289221
-7.791114 -1.569550 -2.129563
-13.367842 -2.690576 0.238016
-9.401546 -1.890563 -2.213968
-11.919141 -2.394664 0.637138
-11.177268 -2.245615 -2.216056
-11.937379 -2.396161 1.065217
-14.001221 -2.807885 -2.261730
-12.022955 -2.408973 1.505574
-13.508535 -2.704178 -1.691547
-16.288366 -3.257692 2.630915
-29.183409 -5.831419 -2.603691
-20.065958 -4.005936 -1.072364
-12.319854 -2.455042 -0.219272
-7.796815 -1.540983 -2.129563
-12.102017 -2.391875 0.215328
-9.434855 -1.863019 -2.220267
-12.346758 -2.435769 0.659538
-11.420420 -2.250950 -2.262613
-12.110289 -2.384727 1.079860
-13.647031 -2.684864 -2.202910
-12.650677 -2.488845 1.583083
-19.267864 -3.787192 -2.411063
-19.826843 -3.889875 -1.767693
-20.029547 -3.922379 -1.069642
-29.664965 -5.803912 -0.527621
-7.785078 -1.510448 -2.124904
-12.043956 -2.334565 0.214141
-9.445446 -1.829167 -2.221167
-12.496788 -2.417812 0.667074
-11.615176 -2.247242 -2.299630
-13.625286 -2.631217 -2.197904
-12.024291 -2.319865 1.503624
-19.285515 -3.717298 -2.411551
-30.052940 -5.787288 -2.677599
-30.136261 -5.792425 -1.608284
-30.012043 -5.757680 -0.533415
-7.784610 -1.482178 -2.123352
-12.091321 -2.299982 0.214839
-9.436458 -1.793277 -2.217567
-13.262564 -2.517977 0.707478
-11.686600 -2.218771 -2.312224
-13.646032 -2.585850 -2.199782
-12.812495 -2.425580 1.601120
-19.349087 -3.659547 -2.417888
-30.523241 -5.767422 -2.717690
-19.883724 -3.749883 -1.060431
-12.380666 -2.330402 -0.219900
-7.804928 -1.457833 -2.127493
-12.122865 -2.262166 0.215258
-9.436913 -1.759252 -2.216218
-11.709715 -2.180839 -2.315277
-14.323063 -2.662381 -2.307409
-12.949698 -2.404761 1.617206
-19.404682 -3.599950 -2.423250
-30.934992 -5.733464 -2.752553
-12.235341 -2.258854 -0.217178
-7.802369 -1.429189 -2.125422
-12.189699 -2.230634 0.216305
-9.431495 -1.724198 -2.213518
-11.748156 -2.145597 -2.321382
-12.820577 -2.339141 1.140171
-14.382797 -2.621578 -2.315543
-12.891612 -2.347452 1.608919
-19.464003 -3.540719 -2.429100
-20.298723 -3.688904 -1.804995
-31.869616 -5.780201 -1.697465
-12.550116 -2.271694 -0.222623
-7.814915 -1.403310 -2.127493
-20.684622 -3.710569 0.366815
-9.456637 -1.694702 -2.218017
-11.755573 -2.104575 -2.321382
-12.828664 -2.294374 1.140171
-14.389916 -2.571008 -2.315230
-12.884094 -2.299650 1.606969
-19.527056 -3.481815 -2.435437
-20.295782 -3.615230 -1.803601
-29.207384 -5.192111 -1.554692
-12.573720 -2.230666 -0.222902
-7.819766 -1.376023 -2.127493
-12.925810 -2.272190 0.229080
-9.462495 -1.661684 -2.218017
-11.762849 -2.063524 -2.321382
-12.926868 -2.265399 1.148190
-14.416313 -2.523831 -2.318046
-12.966349 -2.267654 1.616231
-18.815565 -3.287225 -2.345254
-20.033499 -3.496410 -1.779197
-19.351721 -3.370456 -1.029448
-13.211882 -2.296339 -0.234072
-7.813099 -1.346747 -2.124387
-9.460555 -1.627322 -2.216218
-11.914791 -2.047334 0.633579
-11.769979 -2.022451 -2.321382
-14.401671 -2.469487 -2.314292
-18.873884 -3.229566 -2.351104
-20.281250 -3.466737 -1.800115
-20.639944 -3.513222 -0.365453
-7.829182 -1.321397 -2.127493
-12.298530 -2.073519 0.217701
-9.456570 -1.592668 -2.213968
-11.878533 -1.998444 0.631276
-11.792457 -1.983962 -2.324435
-14.382932 -2.414618 -2.309911
-19.010342 -3.184654 -2.366703
-20.316809 -3.399866 -1.802206
-20.450886 -3.407634 -0.361893
-7.837332 -1.296057 -2.128528
-12.376365 -2.044456 0.218958
-9.459877 -1.560985 -2.213518
-11.814468 -1.947400 -2.327488
-14.394757 -2.367550 -2.310537
-19.087402 -3.132526 -2.374990
-20.331903 -3.333118 -1.802555
-20.434444 -3.335287 -0.361404
-7.834181 -1.267457 -2.126457
-12.300514 -1.987843 0.217492
-9.476810 -1.529817 -2.216218
-20.670267 -3.333046 1.097276
-11.828946 -1.907398 -2.329015
-14.371730 -2.312271 -2.305532
-19.027658 -3.054552 -2.366215
-20.060129 -3.216705 -1.777454
-20.350887 -3.256039 -1.080110
-20.355127 -3.249436 -0.359799
-7.838558 -1.240103 -2.126457
-20.618956 -3.258349 0.364371
-9.482094 -1.496727 -2.216218
-11.854925 -1.869153 -2.332831
-14.485088 -2.278666 -2.322426
-19.085272 -2.995501 -2.372065
