# This PCD file was generated using the MATLAB® pcwrite function
# from Computer Vision Toolbox®.
# .PCD v.7 - Point Cloud Data file format
VERSION .7
FIELDS x y z
SIZE 4 4 4
TYPE F F F
COUNT 1 1 1
WIDTH 1700
HEIGHT 1
VIEWPOINT 0 0 0 1 0 0 0
POINTS 1700
DATA ascii
-1.228536 7.926722 0.701778
-1.183133 7.642563 -1.224882
-1.350510 8.733833 1.085125
-1.204751 7.800238 -0.969105
-1.182445 7.664656 1.228324
-1.179566 7.645996 -0.676851
-1.185819 7.695439 1.513497
-1.177947 7.653253 -0.405813
-1.179420 7.671702 1.791960
-1.173678 7.643234 -0.134977
-1.179720 7.691553 2.085046
-0.901276 5.924441 -1.605713
-1.044504 6.882089 -1.607050
-3.289149 21.671740 1.148774
-1.165832 7.690550 -1.511971
-1.200566 7.928990 0.701604
-1.154674 7.634927 -1.223005
-1.317345 8.720830 1.082931
-1.177397 7.794376 -0.967886
-1.157612 7.672442 1.228949
-1.153164 7.652038 -0.677026
-1.157194 7.687884 1.511207
-1.148558 7.639542 -0.404871
-1.154264 7.677498 1.792410
-1.147135 7.639174 -0.134837
-1.155355 7.703064 2.087117
-0.881055 5.923576 -1.604678
-1.021106 6.881659 -1.606151
-3.292315 22.188290 1.175570
-1.140033 7.692432 -1.511589
-1.174848 7.936872 0.701952
-1.129351 7.638714 -1.223005
-1.288706 8.727114 1.083175
-1.152121 7.802166 -0.968374
-1.131008 7.668422 1.227698
-1.127204 7.651877 -0.676677
-1.132549 7.697506 1.512352
-1.122635 7.639356 -0.404662
-1.126813 7.667787 1.789261
-1.124121 7.658764 -0.135117
-1.126440 7.683917 2.080905
-0.860855 5.922641 -1.603643
-0.998557 6.886935 -1.606600
-3.294425 22.749151 1.204669
-1.114523 7.696169 -1.511589
-1.147668 7.934807 0.701429
-1.102317 7.630687 -1.221128
-1.260611 8.737233 1.083906
-1.123186 7.794351 -0.966911
-1.102543 7.660592 1.225821
-1.101253 7.651629 -0.676329
-1.105622 7.691503 1.510444
-1.098433 7.650945 -0.405080
-1.098379 7.660100 1.786561
-1.094827 7.644826 -0.134802
-1.099616 7.687800 2.080905
-0.838005 5.910308 -1.599502
-0.973967 6.886520 -1.605701
-2.725855 19.297688 1.021389
-1.085727 7.686406 -1.508918
-1.118013 7.924955 0.700209
-1.076227 7.638401 -1.221753
-1.228723 8.731751 1.082687
-1.099009 7.819847 -0.969593
-1.075797 7.664393 1.225821
-1.096417 7.811297 -0.690099
-1.080131 7.705037 1.512352
-1.072825 7.662644 -0.405499
-1.072981 7.673537 1.788811
-1.067583 7.644639 -0.134733
-1.071171 7.680113 2.077800
-0.817896 5.917025 -1.600537
-0.949392 6.886016 -1.604801
-2.658745 19.309065 1.021493
-1.060227 7.699873 -1.510826
-1.089259 7.920914 0.699512
-1.047678 7.628411 -1.219563
-1.199313 8.743855 1.083662
-1.074671 7.845270 -0.972274
-1.047968 7.660274 1.224569
-1.051052 7.682819 -0.678420
-1.049240 7.679583 1.506628
-1.044992 7.658427 -0.405080
-1.045668 7.673374 1.787911
-1.041969 7.656246 -0.134872
-1.044097 7.681890 2.077282
-0.796723 5.916015 -1.599502
-0.924310 6.881563 -1.603001
-3.284902 24.488756 1.294896
-1.032823 7.699636 -1.510062
-1.061601 7.924668 0.699512
-1.020779 7.630064 -1.219250
-1.167997 8.742085 1.082931
-1.040189 7.795846 -0.965693
-1.021742 7.667801 1.225195
-1.019752 7.652867 -0.675457
-1.022688 7.685143 1.507010
-1.016146 7.646189 -0.404243
-1.017849 7.669250 1.786111
-1.013925 7.649924 -0.134698
-1.018288 7.693149 2.079352
-0.776068 5.918759 -1.599502
-1.036435 7.915216 0.139340
-0.898516 6.871222 -1.599852
-1.005433 7.699300 -1.509299
-1.033414 7.924375 0.699163
-0.995672 7.645334 -1.221128
-1.140036 8.765793 1.085368
-1.007087 7.754154 -0.960087
-0.994972 7.671320 1.225195
-0.992206 7.660505 -0.675806
-0.995853 7.688667 1.507010
-0.988935 7.645729 -0.404034
-0.989576 7.661160 1.783412
-0.987725 7.657384 -0.134767
-0.989698 7.683245 2.075729
-0.753880 5.917732 -1.598466
-1.010823 7.934655 0.139619
-0.874524 6.874317 -1.599852
-1.007080 7.927321 0.418792
-0.976711 7.699038 -1.508536
-1.004866 7.932063 0.699512
-0.966650 7.641093 -1.219876
-1.111671 8.787445 1.087562
-0.981260 7.767469 -0.961305
-0.967197 7.666908 1.223943
-0.963220 7.646131 -0.674237
-0.968648 7.700057 1.508536
-0.961405 7.653265 -0.404243
-0.961245 7.662802 1.782962
-0.959249 7.646895 -0.134523
-0.962874 7.686653 2.075729
-0.732033 5.910741 -1.595878
-0.849801 6.881343 -1.600752
-0.947906 7.686813 -1.505483
-0.975225 7.919702 0.698117
-0.939973 7.644421 -1.219876
-1.083566 8.824955 1.091706
-0.952786 7.771013 -0.961305
-0.938131 7.662559 1.222692
-0.935671 7.653565 -0.674585
-0.940094 7.689750 1.505865
-0.934682 7.656575 -0.404243
-0.934964 7.669979 1.783862
-0.931214 7.650361 -0.134523
-0.932362 7.670952 2.070552
-0.709901 5.909548 -1.594843
-0.825077 6.878463 -1.599402
-2.068585 17.270691 0.911588
-0.919961 7.692184 -1.505865
-0.947134 7.931137 0.698815
-0.910547 7.636045 -1.217999
-1.053701 8.836568 1.092681
-0.927530 7.790061 -0.963255
-0.912076 7.671671 1.223631
-0.907075 7.640957 -0.673191
-0.911905 7.693144 1.505865
-0.907319 7.665899 -0.404557
-0.906161 7.667549 1.782512
-0.904509 7.653563 -0.134523
-0.905128 7.670323 2.069517
-0.693040 5.917385 -1.596396
-0.802109 6.869409 -1.596703
-2.017079 17.300909 0.912844
-0.896246 7.698937 -1.506628
-0.923139 7.929953 0.698466
-0.886972 7.630865 -1.216747
-1.026157 8.841807 1.092924
-0.896655 7.737723 -0.956431
-0.887290 7.668612 1.222692
-0.882832 7.641790 -0.673017
-0.887059 7.690119 1.504720
-0.881633 7.654822 -0.403824
-0.884074 7.676011 1.783862
-0.881596 7.666301 -0.134698
-0.882791 7.688482 2.073658
-0.670692 5.914126 -1.594843
-0.776052 6.864556 -1.594903
-1.975164 17.498713 0.922892
-0.868899 7.709974 -1.508154
-0.894512 7.937244 0.698815
-0.859441 7.637990 -1.217373
-0.992415 8.833672 1.091462
-0.872049 7.774494 -0.960574
-0.859179 7.671812 1.222692
-0.855926 7.654874 -0.673888
-0.859301 7.697222 1.505483
-0.852688 7.650062 -0.403406
-0.854209 7.663706 1.780263
-0.851945 7.655570 -0.134453
-0.854817 7.693587 2.074176
-0.648170 5.908864 -1.592772
-0.750465 6.863480 -1.594003
-1.979643 18.105097 0.954503
-0.840278 7.697347 -1.505101
-0.865201 7.938488 0.698640
-0.831435 7.641090 -1.217373
-0.961106 8.847117 1.092681
-0.844478 7.773543 -0.960087
-0.830901 7.661017 1.220502
-0.828340 7.649892 -0.673191
-0.832218 7.698223 1.505101
-0.826191 7.654978 -0.403510
-0.827868 7.670516 1.781162
-0.824787 7.654520 -0.134384
-0.827338 7.690761 2.072623
-0.626939 5.895612 -1.588631
-0.727288 6.862055 -1.593103
-1.980635 18.687544 0.984858
-0.814337 7.696187 -1.504338
-0.837404 7.927444 0.697420
-0.805682 7.639875 -1.216747
-0.932180 8.854204 1.093168
-0.823685 7.823682 -0.965937
-0.805283 7.661767 1.220189
-0.801517 7.638726 -0.671971
-0.807096 7.704844 1.505865
-0.800177 7.651717 -0.403196
-0.802425 7.673220 1.781162
-0.798985 7.653235 -0.134314
-0.801030 7.685777 2.070552
-0.607185 5.895737 -1.588114
-0.703734 6.856675 -1.591304
-1.987857 19.401665 1.022121
-0.788264 7.706794 -1.505865
-0.810909 7.928195 0.697246
-0.779141 7.630714 -1.214870
-0.902006 8.849348 1.092193
-0.790541 7.769237 -0.958868
-0.779733 7.676322 1.222066
-0.775449 7.647424 -0.672494
-0.779601 7.701755 1.504720
-0.773865 7.658437 -0.403406
-0.775050 7.670157 1.779813
-0.771866 7.651998 -0.134244
-0.773614 7.682760 2.069000
-0.586337 5.905612 -1.590184
-0.677826 6.851451 -1.589504
-1.986223 20.112427 1.059175
-0.759629 7.705724 -1.505101
-0.781457 7.927148 0.696897
-0.751162 7.633519 -1.214870
-0.868597 8.842716 1.090974
-0.764192 7.793815 -0.961549
-0.750436 7.667333 1.220189
-0.748191 7.658147 -0.673191
-0.749844 7.688929 1.501667
-0.744628 7.649295 -0.402778
-0.747119 7.674886 1.780263
-0.743816 7.654776 -0.134244
-0.746198 7.693235 2.071070
-0.563767 5.898107 -1.587596
-0.651603 6.842250 -1.586805
-1.986058 20.854897 1.097904
-0.732724 7.708329 -1.505101
-0.752959 7.935911 0.697420
-0.723925 7.644086 -1.216122
-0.835805 8.841887 1.090487
-0.728200 7.703549 -0.950094
-0.724226 7.675805 1.221128
-0.720332 7.648810 -0.672145
-0.725019 7.713001 1.505865
-0.717924 7.651848 -0.402778
-0.719415 7.667746 1.778013
-0.717835 7.665289 -0.134384
-0.717719 7.678482 2.066411
-0.544384 5.901867 -1.588114
-0.628911 6.844373 -1.586805
-1.991457 21.672829 1.140610
-0.706084 7.698986 -1.502812
-0.726277 7.934395 0.697072
-0.698933 7.650380 -1.216747
-0.806657 8.846587 1.090731
-0.705172 7.733598 -0.953506
-0.697516 7.664393 1.218938
-0.695866 7.661078 -0.673017
-0.698195 7.701677 1.503193
-0.692547 7.654187 -0.402778
-0.693459 7.664267 1.776663
-0.691515 7.657670 -0.134209
-0.693117 7.690441 2.069000
-0.523785 5.892095 -1.585008
-0.605865 6.842538 -1.585905
-1.997373 22.602783 1.189178
-0.679860 7.693462 -1.501285
-0.700660 7.944699 0.697769
-0.672519 7.640849 -1.214870
-0.684935 7.813135 -0.963012
-0.670412 7.662847 1.218312
-0.669240 7.649449 -0.671796
-0.672657 7.703949 1.503193
-0.666812 7.652462 -0.402568
-0.666868 7.668583 1.777113
-0.664605 7.658044 -0.134174
-0.664436 7.671642 2.063306
-0.502555 5.886188 -1.582937
-0.581978 6.844611 -1.585905
-2.002888 23.604670 1.241514
-0.653330 7.699701 -1.502048
-0.672589 7.943126 0.697420
-0.645512 7.639213 -1.214244
-0.669698 7.941960 0.978611
-0.656827 7.805587 -0.961793
-0.643826 7.667109 1.218625
-0.642369 7.649754 -0.671622
-0.645267 7.700381 1.502048
-0.639765 7.650762 -0.402359
-0.639611 7.665037 1.775764
-0.637373 7.654340 -0.134069
-0.637975 7.677764 2.064341
-0.482162 5.889832 -1.583455
-0.556180 6.823294 -1.580506
-1.997937 24.510958 1.288825
-0.627084 7.709763 -1.503575
-0.646471 7.965283 0.699163
-0.618202 7.633544 -1.212993
-0.639731 7.916549 0.975199
-0.623994 7.738579 -0.953262
-0.618876 7.675108 1.219563
-0.616140 7.657907 -0.672145
-0.618068 7.698673 1.501285
-0.612418 7.644985 -0.401940
-0.613315 7.673052 1.777113
-0.612622 7.664385 -0.134209
-0.612662 7.681764 2.064858
-0.461600 5.891479 -1.583455
-0.533096 6.819273 -1.579156
-1.911129 24.501852 1.287988
-0.599865 7.707990 -1.502812
-0.617119 7.947628 0.697420
-0.593193 7.639491 -1.213619
-0.613783 7.922585 0.975686
-0.603528 7.807899 -0.961549
-0.591927 7.675252 1.219250
-0.589101 7.656038 -0.671796
-0.593289 7.710467 1.503193
-0.586908 7.644982 -0.401836
-0.587273 7.667270 1.775314
-0.585863 7.666476 -0.134209
-0.586140 7.687708 2.065894
-0.441918 5.891050 -1.582937
-0.509871 6.828865 -1.580956
-1.825150 24.502399 1.287674
-0.573427 7.698189 -1.500522
-1.382766 18.607420 1.632427
-0.567108 7.649395 -1.214870
-0.587151 7.938536 0.977392
-0.568525 7.705033 -0.948631
-0.563534 7.655602 1.215809
-0.563854 7.659937 -0.671971
-0.565941 7.706617 1.502048
-0.560654 7.652960 -0.402150
-0.560646 7.671217 1.775764
-0.557940 7.652519 -0.133930
-0.559299 7.689707 2.065894
-0.419972 5.873288 -1.577761
-0.485476 6.822828 -1.579156
-1.739320 24.504637 1.287465
-0.546550 7.700144 -1.500522
-1.312472 18.536612 1.625803
-0.540123 7.647387 -1.214244
-0.559295 7.938558 0.977149
-0.547059 7.784198 -0.958137
-0.537362 7.665403 1.217060
-0.536417 7.651921 -0.671099
-0.539445 7.714421 1.503193
-0.534220 7.658855 -0.402359
-0.533731 7.671184 1.775314
-0.531223 7.654420 -0.133930
-0.531651 7.680049 2.062788
-0.399076 5.868936 -1.576208
-0.461523 6.822536 -1.578707
-1.654315 24.518530 1.287883
-0.520199 7.709840 -1.502048
-1.247219 18.533129 1.625106
-0.513423 7.649226 -1.214244
-0.532246 7.950365 0.978367
-0.520411 7.793983 -0.959112
-0.510599 7.667233 1.217060
-0.507841 7.645883 -0.670402
-0.511214 7.696667 1.499377
-0.507613 7.662666 -0.402464
-0.506949 7.673000 1.775314
-0.504897 7.662214 -0.134034
-0.504971 7.683786 2.063306
-0.377313 5.866504 -1.575173
-0.437211 6.816327 -1.576907
-1.568585 24.522163 1.287779
-0.491935 7.711695 -1.502048
-1.182323 18.585295 1.629289
-0.484635 7.639228 -1.212367
-0.503860 7.942269 0.977149
-0.492447 7.783866 -0.957649
-0.484087 7.672911 1.217686
-0.481647 7.655563 -0.671099
-0.483491 7.706327 1.500904
-0.478403 7.646535 -0.401522
-0.478824 7.674807 1.775314
-0.478270 7.665926 -0.134069
-0.478385 7.689358 2.064341
-0.357186 5.873569 -1.576726
-0.411750 6.810103 -1.575107
-1.482127 24.513533 1.287046
-0.465015 7.713365 -1.502048
-1.120305 18.637041 1.633473
-0.458201 7.644817 -1.212993
-0.473801 7.928210 0.975199
-0.463916 7.785619 -0.957649
-0.457768 7.682442 1.218938
-0.454210 7.645265 -0.670053
-0.456706 7.709928 1.501285
-0.452060 7.654140 -0.401836
-0.451342 7.664760 1.772614
-0.451388 7.665552 -0.134034
-0.451656 7.692909 2.064858
-0.336569 5.872852 -1.576208
-0.388835 6.805594 -1.573758
-1.395999 24.508585 1.286523
-0.437751 7.709061 -1.500904
-1.056148 18.656752 1.634867
-0.432629 7.642350 -1.212367
-0.448292 7.943611 0.976905
-0.437425 7.775222 -0.956187
-0.430062 7.668215 1.216435
-0.428638 7.666696 -0.671796
-0.431138 7.711400 1.501285
-0.426674 7.655597 -0.401836
-0.426140 7.670105 1.773514
-0.424301 7.661091 -0.133930
-0.425117 7.700226 2.066411
-0.316260 5.858504 -1.572067
-0.364867 6.803018 -1.572858
-1.310326 24.511318 1.286418
-0.411872 7.704589 -1.499759
-0.995753 18.688007 1.637308
-0.405948 7.643813 -1.212367
-0.419930 7.933233 0.975442
-0.411956 7.808419 -0.960087
-0.402983 7.663751 1.215496
-0.401142 7.654218 -0.670576
-0.404215 7.712858 1.501285
-0.400471 7.667012 -0.402359
-0.399669 7.677384 1.774864
-0.397554 7.662526 -0.133930
-0.397635 7.690088 2.063306
-0.294787 5.859623 -1.572067
-0.341506 6.812036 -1.574657
-1.224564 24.511749 1.286209
-0.383632 7.706047 -1.499759
-0.620632 12.510768 1.095896
-0.377345 7.633412 -1.210490
-0.392629 7.942581 0.976417
-0.379913 7.712658 -0.948144
-0.376517 7.671031 1.216435
-0.374034 7.647612 -0.669879
-0.375081 7.696640 1.497851
-0.372365 7.668428 -0.402359
-0.371623 7.680744 1.775314
-0.370517 7.657874 -0.133825
-0.370977 7.695288 2.064341
-0.274149 5.856757 -1.571032
-0.315724 6.795722 -1.570608
-1.138710 24.509892 1.285895
-0.356910 7.711261 -1.500522
-0.577144 12.516840 1.096245
-0.351058 7.642576 -1.211741
-0.363150 7.936035 0.975442
-0.356707 7.795241 -0.958137
-0.349470 7.666378 1.215496
-0.347515 7.652852 -0.670228
-0.348569 7.705747 1.499377
-0.344697 7.649729 -0.401312
-0.346061 7.679987 1.774864
-0.344230 7.669110 -0.134000
-0.344201 7.698465 2.064858
-0.254643 5.855704 -1.570514
-0.292768 6.786997 -1.568359
-1.057259 24.509542 1.285685
-0.331503 7.716325 -1.501285
-0.536147 12.530626 1.097291
-0.325714 7.643698 -1.211741
-0.336324 7.925296 0.973980
-0.331863 7.820181 -0.961062
-0.324464 7.677362 1.217060
-0.322049 7.651971 -0.670053
-0.322601 7.697053 1.497469
-0.319330 7.650830 -0.401312
-0.320268 7.673305 1.773064
-0.318711 7.668211 -0.133965
-0.318828 7.703425 2.065894
-0.235225 5.856516 -1.570514
-0.270258 6.787930 -1.568359
-0.975810 24.508919 1.285476
-0.305296 7.701688 -1.498232
-0.502759 12.739383 1.115419
-0.300828 7.656579 -1.213619
-0.310046 7.926368 0.973980
-0.305701 7.815288 -0.960331
-0.298693 7.670501 1.215809
-0.297214 7.666933 -0.671273
-0.297531 7.709851 1.499759
-0.294415 7.663822 -0.401940
-0.294669 7.670430 1.772164
-0.292823 7.657236 -0.133755
-0.293429 7.708301 2.066929
-0.215089 5.837959 -1.565338
-0.395767 10.793101 0.188521
-0.247606 6.784894 -1.567459
-0.895264 24.531981 1.286523
-0.279895 7.706582 -1.498996
-0.488724 13.521488 1.183749
-0.275150 7.649639 -1.212367
-0.284113 7.937272 0.975199
-0.278077 7.768646 -0.954481
-0.272835 7.659605 1.213932
-0.271151 7.649957 -0.669705
-0.271687 7.702947 1.498232
-0.268860 7.660764 -0.401731
-0.269438 7.677207 1.773514
-0.267497 7.660164 -0.133790
-0.267465 7.697648 2.063823
-0.193625 5.836777 -1.564820
-1.368047 41.457123 0.724031
-0.222607 6.781861 -1.566559
-0.601101 18.410912 0.965389
-0.251774 7.711481 -1.499759
-0.523105 16.107948 1.410006
-0.246730 7.638750 -1.210490
-0.255272 7.946196 0.976174
-0.249578 7.811323 -0.959599
-0.243734 7.670467 1.215496
-0.242859 7.642934 -0.669007
-0.243202 7.696042 1.496706
-0.240782 7.661698 -0.401731
-0.239712 7.670394 1.771715
-0.238208 7.665132 -0.133860
-0.237908 7.698618 2.063823
-0.173308 5.839348 -1.565338
-1.212817 41.105850 0.717817
-0.198474 6.767014 -1.562960
-0.540793 18.548653 0.972507
-0.224856 7.712313 -1.499759
-0.540747 18.658865 1.633124
-0.220290 7.647462 -1.211741
-0.226967 7.927196 0.973736
-0.221066 7.768492 -0.954237
-0.217012 7.673246 1.215809
-0.216459 7.653693 -0.669879
-0.216449 7.700769 1.497469
-0.213867 7.656502 -0.401417
-0.213204 7.680923 1.773964
-0.211563 7.669914 -0.133930
-0.211243 7.707126 2.065894
-0.152923 5.839918 -1.565338
-1.068396 41.073849 0.717189
-0.175007 6.773510 -1.564310
-0.198032 7.716976 -1.500522
-0.483019 18.951431 1.658574
-0.193499 7.644235 -1.211116
-0.199292 7.927939 0.973736
-0.192459 7.709682 -0.946925
-0.190280 7.675931 1.216122
-0.189845 7.658385 -0.670228
-0.189613 7.703441 1.497851
-0.186796 7.643226 -0.400684
-0.186066 7.667984 1.770815
-0.184738 7.668607 -0.133895
-0.184152 7.700091 2.063823
-0.132541 5.840416 -1.565338
-0.923744 41.021355 0.716212
-0.151186 6.766286 -1.562510
-0.543568 24.518318 1.285267
-0.170925 7.709769 -1.498996
-0.417831 18.996824 1.662409
-0.166769 7.642889 -1.210803
-0.171709 7.932556 0.974224
-0.167764 7.813508 -0.959599
-0.163356 7.670625 1.215183
-0.163194 7.662985 -0.670576
-0.162678 7.702093 1.497469
-0.160660 7.669789 -0.402045
-0.159418 7.674432 1.772164
-0.158008 7.671205 -0.133930
-0.157511 7.712276 2.066929
-0.111855 5.825391 -1.561196
-0.781069 41.052319 0.716701
-0.127384 6.757030 -1.560261
-0.462252 24.519985 1.285267
-0.143863 7.702467 -1.497469
-0.351807 19.014103 1.663803
-0.140417 7.661200 -1.213619
-0.144052 7.935092 0.974467
-0.141061 7.770356 -0.954237
-0.137775 7.663224 1.213932
-0.136126 7.645579 -0.669007
-0.135763 7.700650 1.497087
-0.133885 7.670304 -0.402045
-0.134033 7.678815 1.773064
-0.132262 7.653691 -0.133616
-0.131738 7.701166 2.063823
-0.092473 5.821867 -1.560161
-0.644624 41.034687 0.716351
-0.105068 6.763261 -1.561610
-0.380944 24.521385 1.285267
-0.118378 7.706828 -1.498232
-0.289058 19.035086 1.665546
-0.114716 7.641872 -1.210490
-0.117794 7.939496 0.974955
-0.115143 7.760857 -0.953018
-0.112479 7.671539 1.215183
-0.110799 7.647981 -0.669182
-0.110083 7.691243 1.495179
-0.108393 7.666711 -0.401836
-0.108598 7.681166 1.773514
-0.107130 7.672084 -0.133930
-0.106144 7.697697 2.062788
-0.073071 5.814415 -1.558091
-0.508880 41.064594 0.716840
-0.082305 6.736292 -1.555312
-0.295339 24.522564 1.285267
-0.092917 7.715030 -1.499759
-0.226496 19.083755 1.669730
-0.089372 7.642210 -1.210490
-0.091398 7.933888 0.974224
-0.088095 7.765182 -0.953506
-0.085657 7.667934 1.214557
-0.085572 7.660260 -0.670228
-0.084536 7.687640 1.494416
-0.082794 7.651052 -0.400998
-0.081787 7.681499 1.773514
-0.080393 7.676410 -0.134000
-0.079272 7.698021 2.062788
-0.052828 5.820430 -1.559644
-0.058856 6.744333 -1.557111
-0.209709 24.519453 1.285057
-0.066054 7.723160 -1.501285
-0.160318 19.136230 1.674262
-0.062741 7.648402 -1.211429
-0.063621 7.924233 0.973005
-0.060991 7.765442 -0.953506
-0.058964 7.678063 1.216122
-0.058830 7.660512 -0.670228
-0.057772 7.697704 1.496324
-0.056176 7.663277 -0.401626
-0.054915 7.673943 1.771715
-0.053566 7.672645 -0.133930
-0.052480 7.709841 2.065894
-0.032509 5.820579 -1.559644
-0.035295 6.740600 -1.556211
-0.124102 24.518040 1.284953
-0.039013 7.707638 -1.498232
-0.093796 19.192459 1.679142
-0.036035 7.646599 -1.211116
-0.035980 7.928378 0.973492
-0.033955 7.781487 -0.955456
-0.032131 7.670321 1.214870
-0.032149 7.674617 -0.671448
-0.030887 7.693932 1.495561
-0.029466 7.673413 -0.402150
-0.028140 7.677985 1.772614
-0.026757 7.664786 -0.133790
-0.025557 7.706114 2.064858
-0.012170 5.810997 -1.557055
-0.011750 6.732887 -1.554412
-0.038504 24.514326 1.284743
-0.012106 7.707727 -1.498232
-0.026805 19.192669 1.679142
-0.009361 7.662481 -1.213619
-0.008300 7.926470 0.973249
-0.006714 7.690245 -0.944244
-0.005352 7.666436 1.214244
-0.005338 7.646790 -0.669007
-0.004024 7.686140 1.494035
-0.002677 7.659488 -0.401417
-0.001339 7.674139 1.771715
0.000000 7.660833 -0.133720
0.001341 7.702293 2.063823
0.008097 5.799413 -1.553950
0.011754 6.734836 -1.554862
0.042804 24.526304 1.285371
0.014812 7.715576 -1.499759
0.040278 19.232494 1.682629
0.017358 7.650615 -1.211741
0.019391 7.936376 0.974467
0.020288 7.749774 -0.951556
0.020075 7.668386 1.214557
0.021342 7.642777 -0.668659
0.022798 7.684144 1.493653
0.024062 7.659451 -0.401417
0.025453 7.676045 1.772164
0.025436 7.670790 -0.133895
0.026878 7.700315 2.063306
0.028333 5.797418 -1.553432
0.033991 6.715273 -1.550363
0.128432 24.530001 1.285581
0.041704 7.707624 -1.498232
0.107751 19.292007 1.687858
0.042686 7.642614 -1.210490
0.045650 7.926343 0.973249
0.046260 7.795321 -0.957162
0.046868 7.672221 1.215183
0.048266 7.682063 1.493271
0.050988 7.687611 1.774864
0.052197 7.668654 -0.133860
0.053772 7.702105 2.063823
0.047620 5.805019 -1.555503
0.057346 6.705369 -1.548113
0.213907 24.511429 1.284639
0.067364 7.719222 -1.500522
0.171996 19.323420 1.690647
0.069398 7.646369 -1.211116
0.073302 7.924150 0.973005
0.072739 7.717697 -0.947656
0.073742 7.681887 1.216747
0.075160 7.689701 1.494798
0.077702 7.675694 1.772164
0.078967 7.668426 -0.133860
0.080781 7.713461 2.066929
0.067814 5.799023 -1.553950
0.080801 6.709025 -1.549013
0.299535 24.516525 1.284953
0.094116 7.703236 -1.497469
0.240044 19.370516 1.694831
0.096140 7.650030 -1.211741
0.101011 7.927815 0.973492
0.098703 7.641968 -0.938394
0.100507 7.677632 1.216122
0.102000 7.689391 1.494798
0.104470 7.673428 1.771715
0.105654 7.662105 -0.133755
0.107592 7.705405 2.064858
0.087852 5.785229 -1.550326
0.104093 6.700909 -1.547213
0.385212 24.521318 1.285267
0.121130 7.710712 -1.498996
0.307916 19.385498 1.696225
0.122964 7.657548 -1.212993
0.128879 7.939323 0.974955
0.127822 7.790439 -0.956674
0.127236 7.673284 1.215496
0.126647 7.637771 -0.668310
0.128941 7.694877 1.495943
0.129666 7.658391 -0.401417
0.131350 7.678862 1.773064
0.132224 7.651693 -0.133581
0.134457 7.703051 2.064341
0.108047 5.784887 -1.550326
0.127633 6.708298 -1.549013
0.471042 24.531807 1.285895
0.148084 7.712205 -1.499377
0.376504 19.432112 1.700408
0.149387 7.641273 -1.210490
0.156750 7.946764 0.975930
0.155487 7.813762 -0.959599
0.154180 7.680693 1.216747
0.153429 7.643259 -0.668833
0.155564 7.682603 1.493653
0.156560 7.665879 -0.401836
0.158155 7.678356 1.773064
0.159226 7.665179 -0.133825
0.161262 7.698673 2.063306
0.128150 5.780612 -1.549291
0.150568 6.686381 -1.544064
0.175132 7.717529 -1.500522
0.444702 19.446615 1.701803
0.176061 7.640705 -1.210490
0.184253 7.936245 0.974711
0.182206 7.789357 -0.956674
0.181085 7.684058 1.217373
0.180063 7.640685 -0.668659
0.182654 7.693789 1.495943
0.183081 7.655302 -0.401312
0.185099 7.683602 1.774414
0.186024 7.666575 -0.133860
0.188278 7.703856 2.064858
0.148428 5.783992 -1.550326
0.173804 6.681919 -1.543164
0.567833 21.684797 1.136842
0.201970 7.712946 -1.499759
0.505437 19.174074 1.678097
0.202834 7.643993 -1.211116
0.212009 7.937539 0.974955
0.209611 7.796611 -0.957649
0.207905 7.683379 1.217373
0.207055 7.651960 -0.669705
0.209084 7.677405 1.492890
0.209749 7.652620 -0.401207
0.211756 7.677065 1.773064
0.213120 7.677873 -0.134069
0.215116 7.701221 2.064341
0.168391 5.775714 -1.548256
0.196899 6.673480 -1.541365
0.598015 20.149464 1.056454
0.228599 7.702383 -1.497851
0.535974 17.953394 1.571418
0.229873 7.655086 -1.212993
0.239594 7.932782 0.974467
0.236699 7.791863 -0.957162
0.234725 7.682607 1.217373
0.233826 7.653182 -0.669879
0.236302 7.690364 1.495561
0.236455 7.651842 -0.401207
0.238434 7.672383 1.772164
0.239359 7.659094 -0.133755
0.242238 7.708146 2.066411
0.188111 5.761576 -1.544632
0.220063 6.668857 -1.540465
0.643056 19.384720 1.016469
0.255941 7.715272 -1.500522
0.560395 16.804432 1.471014
0.256591 7.654236 -1.212993
0.267820 7.947769 0.976417
0.263495 7.779086 -0.955700
0.261405 7.677792 1.216747
0.260063 7.638381 -0.668659
0.263147 7.689493 1.495561
0.263440 7.658954 -0.401626
0.265482 7.679295 1.773964
0.266369 7.666206 -0.133895
0.268737 7.695671 2.063306
0.208014 5.755092 -1.543079
0.243197 6.664153 -1.539565
0.712332 19.426268 1.018772
0.282873 7.714332 -1.500522
0.585597 15.894462 1.391528
0.283087 7.647372 -1.212054
0.295785 7.952737 0.977149
0.291980 7.813825 -0.960087
0.288795 7.692625 1.219250
0.286723 7.637426 -0.668659
0.290063 7.690489 1.495943
0.290323 7.661979 -0.401836
0.292436 7.682216 1.774864
0.293435 7.673222 -0.134034
0.295745 7.698546 2.064341
0.228253 5.758191 -1.544114
0.265836 6.647686 -1.535966
0.985327 24.532526 1.286732
0.310113 7.721144 -1.502048
0.607672 15.064159 1.319015
0.309702 7.644363 -1.211741
0.323461 7.949673 0.976905
0.318688 7.798874 -0.958381
0.315729 7.693543 1.219563
0.313792 7.646332 -0.669530
0.316500 7.679622 1.494035
0.316738 7.652937 -0.401417
0.319330 7.683095 1.775314
0.320216 7.672151 -0.134034
0.322618 7.697467 2.064341
0.248267 5.755430 -1.543597
0.289207 6.650611 -1.536866
1.070864 24.526943 1.286627
0.336890 7.716092 -1.501285
0.627616 14.317509 1.253822
0.337164 7.660997 -1.214557
0.351473 7.954444 0.977636
0.346263 7.805647 -0.959356
0.342757 7.696341 1.220189
0.341099 7.659123 -0.670751
0.343395 7.680431 1.494416
0.343900 7.661761 -0.401940
0.345882 7.676094 1.773964
0.347358 7.678977 -0.134174
0.349663 7.700153 2.065376
0.268445 5.756457 -1.544114
0.312148 6.643721 -1.535516
1.156373 24.521061 1.286523
0.363636 7.710947 -1.500522
0.647449 13.678379 1.198043
0.363156 7.643988 -1.212054
0.379421 7.957135 0.978123
0.374171 7.818270 -0.961062
0.369243 7.687205 1.218938
0.367930 7.659876 -0.670925
0.370954 7.694875 1.497469
0.372298 7.667053 1.772164
0.373478 7.663736 -0.133930
0.376915 7.706604 2.067447
0.287764 5.740050 -1.539973
2.532447 50.338665 0.879776
0.334844 6.632860 -1.533266
1.238091 24.525070 1.286941
0.390452 7.707670 -1.500140
0.667076 13.122865 1.149584
0.390237 7.650565 -1.213306
0.408414 7.979551 0.981048
0.401054 7.808987 -0.960087
0.395039 7.691857 1.219876
0.407071 7.899305 -0.692017
0.397002 7.677847 1.494416
0.397588 7.663163 -0.402150
0.399868 7.681276 1.775764
0.399200 7.668447 -0.134034
0.402065 7.697595 2.065376
0.307387 5.731294 -1.537903
2.689927 50.154270 0.876704
0.356837 6.631713 -1.533266
1.324344 24.532564 1.287569
0.417994 7.718022 -1.502430
0.713086 13.124435 1.149933
0.415175 7.641339 -1.212054
0.637348 11.692703 1.437815
0.426837 7.805632 -0.959843
0.422097 7.694376 1.220502
0.420959 7.649163 -0.670228
0.422571 7.678449 1.494798
0.423436 7.669779 -0.402568
0.425444 7.681854 1.776214
0.426300 7.672997 -0.134139
0.428934 7.696145 2.065376
0.326497 5.732172 -1.538420
2.866112 50.164539 0.877053
0.379205 6.616808 -1.530117
1.410894 24.543743 1.288407
0.443588 7.716594 -1.502430
0.757984 13.145868 1.152025
0.442076 7.643788 -1.212680
0.648503 11.179112 1.374930
0.454657 7.814003 -0.961062
0.449185 7.696799 1.221128
0.448707 7.665548 -0.671796
0.449144 7.673007 1.494035
0.449268 7.652304 -0.401731
0.452487 7.684213 1.777113
0.453319 7.675454 -0.134209
0.456023 7.698457 2.066411
0.347391 5.729009 -1.537903
0.401825 6.607664 -1.528317
1.495813 24.526709 1.287779
0.472225 7.720795 -1.503575
1.193319 19.454983 1.705289
0.470936 7.655918 -1.214870
0.662650 10.772586 1.325207
0.480587 7.790574 -0.958381
0.476295 7.699128 1.221753
0.475457 7.663935 -0.671796
0.477628 7.677187 1.495179
0.477314 7.650605 -0.401731
0.480160 7.674723 1.775314
0.479979 7.671830 -0.134174
0.483136 7.700675 2.067447
0.368002 5.737401 -1.540491
0.426168 6.608092 -1.528767
1.586208 24.529032 1.288197
0.498407 7.707345 -1.501285
1.265353 19.514322 1.710867
0.497403 7.650285 -1.214244
0.675653 10.364003 1.275241
0.510302 7.806588 -0.960574
0.504121 7.691417 1.220815
0.502860 7.672169 -0.672668
0.504808 7.681351 1.496324
0.504803 7.660851 -0.402359
0.507077 7.674945 1.775764
0.507836 7.666028 -0.134104
0.511100 7.694997 2.066411
0.386594 5.714880 -1.534797
0.448701 6.598786 -1.526968
1.669925 24.495449 1.286732
0.525177 7.703599 -1.500904
1.348141 19.724463 1.729693
0.524643 7.656385 -1.215496
0.687204 10.003123 1.231124
0.537414 7.802779 -0.960331
0.531237 7.693552 1.221440
0.528812 7.658442 -0.671622
0.531887 7.683459 1.497087
0.532373 7.670996 -0.402987
0.534404 7.680904 1.777563
0.535004 7.670194 -0.134209
0.537690 7.689312 2.065376
0.405308 5.696152 -1.530138
0.471734 6.597180 -1.526968
1.748304 24.449936 1.284639
0.553470 7.721300 -1.504720
1.436972 19.997854 1.754097
0.550374 7.640715 -1.213306
0.708538 9.812570 1.207969
0.565219 7.808775 -0.961305
0.557462 7.701599 1.223005
0.555833 7.660523 -0.671971
0.558137 7.673723 1.495561
0.558855 7.665108 -0.402778
0.562067 7.690653 1.780263
0.561022 7.676354 -0.134349
0.563749 7.695193 2.067447
0.426050 5.706262 -1.533244
0.492444 6.580033 -1.523369
1.830957 24.407831 1.282754
0.580270 7.717365 -1.504338
1.512754 20.072187 1.761069
0.576746 7.652636 -1.215496
0.741674 9.818084 1.208944
0.589911 7.791022 -0.959356
0.584789 7.705515 1.223943
0.582420 7.656549 -0.671796
0.583880 7.675745 1.496324
0.583661 7.655246 -0.402359
0.587862 7.692633 1.781162
0.587052 7.664380 -0.134174
0.590309 7.689326 2.066411
0.444522 5.699039 -1.531691
3.274266 41.883816 0.733315
0.514647 6.568560 -1.521119
1.911761 24.345541 1.279824
0.605707 7.713441 -1.503957
1.583064 20.114731 1.765252
0.603454 7.650577 -1.215496
0.776878 9.827309 1.210406
0.617575 7.794852 -0.960087
0.611685 7.703427 1.223943
0.609383 7.674437 -0.673540
0.610980 7.677575 1.497087
0.610858 7.659134 -0.402673
0.614092 7.682764 1.779363
0.615397 7.682217 -0.134523
0.617457 7.691070 2.067447
0.464411 5.697453 -1.531691
0.537415 6.564782 -1.520669
1.986275 24.211323 1.273125
0.631984 7.703453 -1.502430
1.654896 20.128939 1.766995
0.630482 7.652360 -1.216122
0.813298 9.850256 1.213575
0.644943 7.794628 -0.960331
0.638079 7.695339 1.223005
0.635507 7.664321 -0.672842
0.637612 7.673439 1.496706
0.638748 7.670888 -0.403406
0.641066 7.682516 1.779813
0.641041 7.666073 -0.134279
0.645270 7.700418 2.070552
0.483476 5.686173 -1.529103
3.528223 41.409637 0.725427
0.561324 6.574515 -1.523369
1.999946 23.376408 1.229581
0.658367 7.695332 -1.501285
1.730261 20.182592 1.772225
0.657868 7.657986 -1.217373
1.291347 15.001449 1.848758
0.673173 7.804195 -0.961793
0.665960 7.704873 1.224882
0.662602 7.666027 -0.673191
0.665069 7.678990 1.498232
0.666041 7.674581 -0.403720
0.669401 7.697704 1.783862
0.668316 7.669765 -0.134384
0.671472 7.690422 2.068482
0.502472 5.674829 -1.526515
3.666731 41.329342 0.724240
0.583061 6.558928 -1.520219
2.014204 22.613317 1.189806
0.684704 7.687119 -1.500140
1.803176 20.204214 1.774665
0.684242 7.651708 -1.216747
1.344062 15.000803 1.849246
0.701474 7.813661 -0.963255
0.694265 7.718241 1.227385
0.689535 7.665651 -0.673365
0.690991 7.666845 1.496324
0.692465 7.668231 -0.403510
0.696968 7.703084 1.785661
0.695087 7.667386 -0.134384
0.698664 7.691878 2.069517
0.522985 5.680736 -1.528585
3.811701 41.324257 0.724380
0.604698 6.543270 -1.517070
2.029789 21.922016 1.153799
0.711173 7.680772 -1.499377
1.878103 20.245411 1.778849
0.710949 7.649272 -1.216747
1.404151 15.079033 1.859483
0.730955 7.834883 -0.966180
0.720837 7.711837 1.226759
0.723337 7.738579 -0.679989
0.718117 7.668295 1.497087
0.718293 7.655825 -0.402987
0.723489 7.696723 1.784762
0.722599 7.672875 -0.134523
0.725504 7.689393 2.069517
0.542077 5.671183 -1.526515
0.626972 6.535300 -1.515720
2.041326 21.238846 1.118210
0.737790 7.676289 -1.498996
1.936545 20.111803 1.767693
0.738020 7.650678 -1.217373
1.454101 15.046378 1.856070
0.756963 7.818452 -0.964474
0.748707 7.719104 1.228324
0.744577 7.676515 -0.674760
0.746018 7.677466 1.499377
0.746563 7.669174 -0.403824
0.750354 7.694150 1.784762
0.749765 7.674288 -0.134593
0.753284 7.696427 2.072105
0.562443 5.675023 -1.528068
3.944423 39.728592 0.696875
0.649783 6.533072 -1.515720
2.060803 20.683062 1.089321
0.762442 7.652178 -1.494798
1.960032 19.637043 1.726555
0.765903 7.659848 -1.219250
1.510575 15.080715 1.860945
0.786626 7.839465 -0.967399
0.775642 7.716444 1.228324
0.771363 7.673870 -0.674760
0.772814 7.674815 1.499377
0.773127 7.664534 -0.403720
0.776810 7.687607 1.783862
0.775544 7.661675 -0.134418
0.780926 7.701438 2.074176
0.580470 5.655730 -1.523409
3.983695 38.747826 0.679911
0.672186 6.526886 -1.514820
2.128055 20.628063 1.086809
0.788337 7.641658 -1.493271
1.971636 19.079130 1.678097
0.792638 7.657127 -1.219250
1.564016 15.083249 1.861920
0.815219 7.848518 -0.968861
0.802984 7.717619 1.228949
0.797941 7.669148 -0.674585
0.799798 7.674025 1.499759
0.800500 7.667748 -0.404034
0.805668 7.704230 1.788361
0.803320 7.668867 -0.134593
0.806795 7.689059 2.071588
0.599394 5.645984 -1.521338
3.997772 37.594276 0.659910
0.694344 6.518687 -1.513471
2.594578 24.358589 1.283801
0.815633 7.644716 -1.494416
1.985298 18.576855 1.634519
0.818939 7.650385 -1.218625
1.619201 15.101384 1.864845
0.843884 7.857466 -0.970324
0.830262 7.730626 1.231452
0.824491 7.664335 -0.674411
0.826583 7.671186 1.499759
0.828335 7.674836 -0.404557
0.831926 7.695559 1.787011
0.829178 7.670136 -0.134663
0.832495 7.688262 2.072105
0.619519 5.647699 -1.522374
4.134385 37.690147 0.661830
0.714679 6.504726 -1.510771
2.679596 24.349384 1.283801
0.840595 7.626212 -1.491363
1.997209 18.090565 1.592335
0.844303 7.647628 -1.218625
1.671019 15.111714 1.866795
0.870371 7.858571 -0.970811
0.857454 7.729645 1.231765
0.851682 7.665371 -0.674760
0.852019 7.668402 1.499759
0.853337 7.668077 -0.404348
0.858735 7.704379 1.789711
0.856614 7.673158 -0.134767
0.859973 7.691068 2.073658
0.638897 5.651372 -1.523927
4.262783 37.647663 0.661341
0.736503 6.494446 -1.508972
2.765697 24.349806 1.284325
0.866100 7.625333 -1.491745
2.005848 17.632488 1.552592
0.871889 7.652485 -1.219876
1.726456 15.129457 1.869720
0.895542 7.835763 -0.968374
0.884882 7.730529 1.232391
0.877095 7.662505 -0.674760
0.879007 7.667332 1.500140
0.879186 7.657115 -0.403929
0.884734 7.693590 1.787911
0.884311 7.678066 -0.134907
0.887698 7.695697 2.075729
0.657276 5.637594 -1.520821
4.389544 37.592831 0.660643
0.759167 6.491836 -1.508972
2.850440 24.338022 1.284220
0.890198 7.600814 -1.487547
2.018647 17.209827 1.515987
0.900208 7.663128 -1.222066
1.782965 15.154882 1.873619
0.926142 7.860189 -0.971786
0.912091 7.729356 1.232704
0.906170 7.679183 -0.676503
0.907143 7.675916 1.502430
0.907789 7.669866 -0.404766
0.912042 7.694325 1.788811
0.909455 7.661033 -0.134663
0.915927 7.704061 2.078835
0.675340 5.621840 -1.517197
4.523360 37.599121 0.661027
0.779961 6.473669 -1.505373
2.937298 24.343784 1.285057
0.914845 7.582067 -1.484494
2.027556 16.779385 1.478684
0.927428 7.663861 -1.222692
1.838725 15.172215 1.876544
0.954529 7.864791 -0.972761
0.940021 7.733969 1.233955
0.932491 7.672017 -0.676154
0.934882 7.680497 1.503957
0.934796 7.668633 -0.404871
0.939605 7.696898 1.790160
0.936675 7.661781 -0.134733
0.941872 7.693147 2.076764
0.695195 5.621365 -1.517715
4.655799 37.593025 0.661202
0.803034 6.474774 -1.506272
3.023974 24.347258 1.285790
0.940820 7.574931 -1.483731
2.038895 16.392591 1.445217
0.952956 7.650775 -1.221128
1.894620 15.189342 1.879469
0.981979 7.861411 -0.972761
0.968730 7.744360 1.236145
0.959268 7.668715 -0.676154
0.961197 7.673291 1.503193
0.961810 7.667305 -0.404976
0.966711 7.695505 1.790610
0.965160 7.672354 -0.134977
0.967999 7.684062 2.075211
0.714327 5.615071 -1.516680
4.787492 37.580513 0.661272
0.824150 6.460333 -1.503573
3.109456 24.340513 1.285999
0.967756 7.575495 -1.484494
2.050600 16.029640 1.413840
0.979655 7.647402 -1.221128
1.948643 15.190511 1.880444
1.012447 7.881562 -0.975686
0.997268 7.752687 1.238023
0.996706 7.748317 -0.683475
0.988479 7.673783 1.503957
0.986778 7.650035 -0.404243
0.994565 7.699814 1.792410
0.992450 7.672904 -0.135047
0.997295 7.699795 2.080388
0.733922 5.612544 -1.516680
4.923326 37.599262 0.661900
0.844924 6.443892 -1.500424
3.194916 24.333471 1.286209
0.993425 7.566231 -1.483349
2.057193 15.647062 1.380721
1.007892 7.655687 -1.223005
1.987124 15.073405 1.866795
1.037354 7.858301 -0.973249
1.025879 7.760909 1.239900
1.014349 7.673682 -0.677200
1.015262 7.670286 1.503957
1.016885 7.672284 -0.405604
1.021438 7.696295 1.792410
1.020020 7.675340 -0.135151
1.024674 7.700097 2.081423
0.753510 5.609947 -1.516680
5.057485 37.603645 0.662284
0.867668 6.442835 -1.500873
3.275320 24.320768 1.286104
1.017470 7.545207 -1.479915
2.067013 15.308074 1.351437
1.034604 7.652123 -1.223005
2.005377 14.812615 1.835352
1.064246 7.850697 -0.972761
1.050812 7.751593 1.238961
1.043267 7.685890 -0.678595
1.043615 7.678368 1.506246
1.043393 7.666708 -0.405499
1.048292 7.692684 1.792410
1.044111 7.662008 -0.134977
1.050989 7.702399 2.082976
0.770187 5.586231 -1.510986
5.185170 37.608456 0.662668
0.888763 6.437991 -1.500424
3.294021 23.830402 1.260773
1.042997 7.535775 -1.478770
2.073937 14.965266 1.321804
1.062958 7.670173 -1.226446
2.014103 14.514878 1.799279
1.092462 7.862854 -0.974711
1.077862 7.747878 1.238961
1.068443 7.670362 -0.677549
1.069070 7.674865 1.506246
1.070468 7.675074 -0.406127
1.075145 7.698814 1.794659
1.070022 7.652376 -0.134872
1.076799 7.691030 2.080905
0.788977 5.585559 -1.511503
5.319191 37.609928 0.663017
0.911506 6.436779 -1.500873
3.303169 23.296701 1.233140
1.066876 7.524500 -1.477243
2.078743 14.642690 1.293914
1.088060 7.654682 -1.224569
2.020568 14.197244 1.760768
1.119336 7.855063 -0.974224
1.107134 7.759711 1.241464
1.092186 7.654941 -0.676503
1.095856 7.671086 1.506246
1.097247 7.671291 -0.406127
1.103120 7.702731 1.796459
1.098432 7.660470 -0.135082
1.103909 7.689137 2.081423
0.806807 5.571300 -1.508397
1.114767 7.688420 0.135605
0.930045 6.406559 -1.494575
3.317241 22.822533 1.208647
1.092569 7.516844 -1.476480
2.089677 14.359318 1.269511
1.115915 7.658656 -1.225821
2.030278 13.917067 1.726889
1.149046 7.866821 -0.976174
1.135931 7.767528 1.243341
1.121497 7.668825 -0.678072
1.122909 7.669157 1.506628
1.124310 7.669390 -0.406232
1.130569 7.702689 1.797359
1.126908 7.668460 -0.135291
1.132712 7.698616 2.085046
0.827101 5.574183 -1.509950
1.143947 7.700306 0.135884
0.951544 6.397491 -1.493225
3.321206 22.329378 1.183107
1.119960 7.520752 -1.478007
2.098064 14.072109 1.244758
1.143219 7.658621 -1.226446
2.037478 13.633070 1.692522
1.174735 7.850984 -0.974711
1.162847 7.771533 1.244593
1.149435 7.672746 -0.678769
1.152587 7.684606 1.510444
1.152560 7.675294 -0.406755
1.156575 7.692915 1.796009
1.153222 7.670614 -0.135396
1.159963 7.706280 2.088152
0.847131 5.575082 -1.510986
1.167973 7.686586 0.135710
0.974514 6.405859 -1.495924
3.328765 21.855616 1.158613
1.142649 7.493507 -1.473427
2.108689 13.812594 1.222446
1.169507 7.660646 -1.227385
2.044583 13.377028 1.661567
1.201366 7.850970 -0.975199
1.189970 7.767426 1.244593
1.178025 7.680502 -0.679815
1.177467 7.676860 1.509681
1.176791 7.663534 -0.406336
1.182970 7.694815 1.797359
1.180905 7.672471 -0.135500
1.187443 7.706002 2.089187
0.863243 5.556970 -1.506845
1.198179 7.704198 0.136094
0.995671 6.394716 -1.494125
3.368116 21.607056 1.146053
1.166889 7.485797 -1.472664
2.146491 13.754344 1.217914
1.196852 7.660421 -1.228011
2.050154 13.107001 1.628906
1.229991 7.854573 -0.976174
1.218914 7.774933 1.246470
1.205135 7.678312 -0.679989
1.207908 7.695978 1.514260
1.205394 7.671218 -0.406964
1.210430 7.694489 1.798259
1.207367 7.666327 -0.135466
1.214333 7.701810 2.089187
0.882999 5.549953 -1.505809
1.224438 7.696018 0.136024
1.019211 6.398900 -1.495924
3.427798 21.496546 1.140819
1.193391 7.475654 -1.471519
2.200665 13.769993 1.220006
1.225231 7.657933 -1.228324
2.059204 12.870427 1.600388
1.258659 7.858072 -0.977149
1.247608 7.780384 1.248034
1.231301 7.670124 -0.679640
1.231125 7.660484 1.508154
1.234456 7.672664 -0.407278
1.240481 7.701545 1.800958
1.236666 7.677859 -0.135745
1.241212 7.697524 2.089187
0.902365 5.546837 -1.505809
1.254243 7.701347 0.136199
1.040148 6.379735 -1.492325
3.398680 20.845774 1.106906
1.219794 7.473380 -1.471901
3.256927 19.932518 1.766995
1.252595 7.657508 -1.228949
1.299553 7.935908 0.987386
1.286165 7.845570 -0.976174
1.275716 7.781830 1.248973
1.265490 7.710999 -0.683650
1.262312 7.683262 1.513497
1.261229 7.668308 -0.407278
1.269259 7.708705 1.803658
1.262812 7.669549 -0.135675
1.270900 7.710300 2.093846
0.922040 5.545559 -1.506327
1.281744 7.708981 0.136408
1.060017 6.368562 -1.490526
3.416281 20.502806 1.089321
1.246198 7.471013 -1.472282
1.329673 7.962909 0.706310
1.278627 7.657210 -1.229575
1.330119 7.957008 0.990554
1.309884 7.827557 -0.974467
1.305481 7.792915 1.251476
1.287125 7.675095 -0.680861
1.286811 7.673225 1.512352
1.287645 7.669992 -0.407592
1.293198 7.694845 1.801408
1.293555 7.688758 -0.136094
1.298771 7.711532 2.095399
0.938808 5.532948 -1.503739
1.313667 7.734032 0.136932
1.080936 6.357138 -1.488726
1.266023 7.437809 -1.466558
1.359755 7.980060 0.708228
1.306346 7.658542 -1.230514
2.075585 12.155461 1.514105
1.337532 7.824893 -0.974711
1.330653 7.784649 1.250850
1.313576 7.676677 -0.681384
1.314581 7.674492 1.513497
1.316097 7.675294 -0.408116
1.321368 7.697967 1.803208
1.318705 7.682456 -0.136059
1.324661 7.709087 2.095917
0.956795 5.522023 -1.501668
1.337940 7.721753 0.136792
1.102679 6.357358 -1.489626
1.378297 7.938176 0.422247
1.294330 7.446884 -1.469229
1.334108 7.667790 -1.232704
2.085572 11.974457 1.492412
1.366199 7.836059 -0.976661
1.359858 7.791632 1.252727
1.340366 7.672044 -0.681384
1.343066 7.687496 1.516932
1.343605 7.682692 -0.408744
1.347898 7.699300 1.804557
1.346206 7.681745 -0.136129
1.351228 7.702513 2.095399
0.975103 5.518820 -1.501668
1.361405 7.697343 0.136443
1.122823 6.341957 -1.486926
4.353570 24.564960 1.307457
1.317307 7.432885 -1.467321
3.280871 18.493486 1.643234
1.360173 7.659197 -1.232078
2.090874 11.761887 1.466820
1.395632 7.842969 -0.978123
1.388432 7.794618 1.253979
1.367546 7.677366 -0.682255
1.367134 7.667299 1.513879
1.370767 7.679921 -0.408849
1.377509 7.709895 1.808156
1.375123 7.688810 -0.136338
1.378449 7.699651 2.095917
0.995048 5.519185 -1.502703
1.388974 7.696480 0.136513
1.143221 6.328411 -1.484677
4.435034 24.526031 1.306201
1.341849 7.420513 -1.465795
3.291461 18.183922 1.616739
1.387251 7.656346 -1.232391
2.097558 11.565054 1.443177
1.423712 7.841956 -0.978611
1.417749 7.801385 1.255856
1.395048 7.676466 -0.682604
1.397053 7.679863 1.517313
1.396853 7.671159 -0.408639
1.406505 7.716544 1.810856
1.403750 7.693799 -0.136513
1.408443 7.711895 2.100575
1.013256 5.509978 -1.501150
1.416557 7.695518 0.136583
1.164599 6.320549 -1.483777
4.488360 24.335594 1.296885
1.366670 7.409993 -1.464650
3.298491 17.866673 1.589546
1.415765 7.661170 -1.233955
2.103244 11.370273 1.419778
1.453967 7.852554 -0.980561
1.448214 7.813869 1.258672
1.437449 7.755787 -0.690099
1.425996 7.686523 1.519603
1.428361 7.691765 -0.410000
1.431297 7.700091 1.808156
1.431332 7.692783 -0.136583
1.435352 7.706933 2.100575
1.030704 5.496914 -1.498562
1.445626 7.702318 0.136792
1.186654 6.316445 -1.483777
4.577716 24.343332 1.298141
1.389989 7.391670 -1.461979
3.308508 17.577013 1.564794
1.442863 7.658123 -1.234268
2.108343 11.179495 1.396867
1.482107 7.851331 -0.981048
1.473646 7.799061 1.257107
1.451195 7.680243 -0.683824
1.453915 7.687285 1.520748
1.455575 7.688694 -0.410105
1.459617 7.702707 1.809956
1.459289 7.693635 -0.136687
1.462608 7.703773 2.101093
1.048437 5.485693 -1.496492
1.474001 7.705082 0.136932
1.208697 6.312264 -1.483777
4.666052 24.344858 1.299083
1.415784 7.386773 -1.461979
3.312772 17.267941 1.538299
1.473685 7.674378 -1.237710
2.114009 10.998569 1.375174
1.510249 7.850010 -0.981536
1.502730 7.803568 1.258672
1.478960 7.672916 -0.683650
1.482228 7.689875 1.522274
1.482021 7.681606 -0.410000
1.487975 7.705219 1.811756
1.485379 7.684568 -0.136617
1.490219 7.702415 2.102129
1.067795 5.478020 -1.495457
1.499360 7.692039 0.136792
1.231471 6.311831 -1.484677
4.740280 24.273535 1.296152
1.442847 7.381535 -1.461979
3.324025 16.989756 1.514592
1.499524 7.657294 -1.235832
2.120722 10.829432 1.354944
1.538407 7.848586 -0.982023
1.532625 7.811843 1.260862
1.506500 7.671618 -0.683998
1.509265 7.678611 1.521129
1.512870 7.689840 -0.410733
1.517334 7.705450 1.813105
1.514510 7.691108 -0.136827
1.519714 7.710433 2.105752
1.086910 5.474260 -1.495457
1.528320 7.690415 0.136862
1.250414 6.286252 -1.479728
4.747058 23.865063 1.275218
1.467070 7.368752 -1.460452
3.334237 16.731852 1.492629
1.528951 7.665573 -1.238023
2.125815 10.648332 1.333251
1.568717 7.850681 -0.982998
1.560653 7.810321 1.261488
1.536007 7.679988 -0.685218
1.538374 7.684845 1.523419
1.535774 7.664929 -0.409686
1.549205 7.724945 1.818954
1.544495 7.701460 -0.137106
1.546621 7.705081 2.105752
1.106779 5.474219 -1.496492
1.557383 7.702945 0.137176
1.272025 6.285891 -1.480628
4.751033 23.456846 1.254284
1.491224 7.355889 -1.458926
3.341913 16.470177 1.470317
1.555932 7.668205 -1.239274
2.127925 10.477813 1.312777
1.596326 7.853217 -0.983973
1.591453 7.822248 1.264304
1.565587 7.688246 -0.686439
1.566590 7.693169 1.526090
1.563579 7.671536 -0.410314
1.573254 7.712128 1.817155
1.572171 7.699940 -0.137176
1.575826 7.710992 2.108858
1.124147 5.466735 -1.495457
1.584264 7.697461 0.137176
1.292385 6.273777 -1.478828
4.757863 23.076283 1.234815
1.512436 7.335521 -1.455873
3.347391 16.220947 1.449051
1.585884 7.678204 -1.241777
2.132334 10.314801 1.293278
1.626145 7.859260 -0.985436
1.618345 7.814710 1.263991
1.592013 7.680783 -0.686264
1.594234 7.691499 1.526854
1.595219 7.689498 -0.411570
1.600163 7.706589 1.817155
1.599038 7.694405 -0.137176
1.603522 7.709227 2.109893
1.141801 5.451233 -1.492351
1.612761 7.699713 0.137316
1.315078 6.273043 -1.479728
4.769488 22.731144 1.217230
1.538507 7.326086 -1.455109
3.351902 15.947301 1.425694
1.616051 7.682005 -1.243341
2.141358 10.179086 1.277191
1.656021 7.865192 -0.986898
1.645616 7.809012 1.263991
1.616345 7.663482 -0.685218
1.624034 7.693287 1.528380
1.622977 7.681646 -0.411465
1.631626 7.715925 1.820754
1.628781 7.702472 -0.137420
1.628821 7.696023 2.107822
1.160821 5.447214 -1.492351
1.639305 7.685927 0.137176
1.338873 6.271992 -1.480628
4.816053 22.541630 1.208019
1.563662 7.318750 -1.454728
3.342975 15.633507 1.398675
1.644095 7.682112 -1.244280
2.173665 10.147876 1.274266
1.683175 7.851304 -0.985923
1.678783 7.824175 1.267432
1.648607 7.676986 -0.686962
1.650056 7.683733 1.527617
1.653140 7.691555 -0.412303
1.661826 7.725424 1.824353
1.658266 7.702315 -0.137525
1.660275 7.705109 2.111964
1.181189 5.444810 -1.492868
1.667818 7.687975 0.137316
1.355798 6.244427 -1.475229
5.299298 24.386618 1.307876
1.588806 7.305297 -1.453201
3.372705 15.494609 1.387345
1.671401 7.672174 -1.243654
2.208227 10.136347 1.273779
1.713107 7.857018 -0.987386
1.706087 7.818267 1.267432
1.677094 7.678970 -0.687659
1.681979 7.694894 1.531051
1.679611 7.677640 -0.411884
1.690966 7.723088 1.825253
1.687279 7.706247 -0.137699
1.687986 7.703041 2.112999
1.197756 5.443169 -1.493386
1.694541 7.694415 0.137525
1.372891 6.228720 -1.472530
5.372461 24.354240 1.307038
1.613014 7.312053 -1.455491
3.367117 15.251069 1.366428
1.698418 7.686470 -1.246783
2.242207 10.139050 1.274997
1.736064 7.843846 -0.986411
1.732347 7.820583 1.268684
1.701592 7.681742 -0.688356
1.706080 7.695621 1.532196
1.704978 7.684322 -0.412512
1.713872 7.718037 1.825253
1.714085 7.712620 -0.137909
1.713857 7.705242 2.115069
1.213371 5.423873 -1.489245
1.722265 7.692355 0.137595
1.397183 6.235298 -1.475229
5.460920 24.350935 1.307876
1.633797 7.285307 -1.451293
3.374086 15.033155 1.347951
1.726107 7.684349 -1.247409
3.302945 14.692221 1.849002
1.767793 7.857104 -0.988848
1.762242 7.826052 1.270561
1.731900 7.691305 -0.689751
1.733790 7.693450 1.532960
1.733551 7.686117 -0.412931
1.740376 7.710106 1.824803
1.739229 7.698789 -0.137769
1.743297 7.710519 2.118175
1.233155 5.423372 -1.490280
1.750883 7.694096 0.137734
1.418073 6.226583 -1.474329
5.554771 24.370667 1.309969
1.657038 7.269988 -1.449385
3.376917 14.803726 1.328428
1.757315 7.697536 -1.250537
3.312209 14.496755 1.825847
1.796096 7.854754 -0.989335
1.791750 7.829479 1.272125
1.778292 7.770669 -0.697420
1.763705 7.700747 1.535631
1.761711 7.685859 -0.413245
1.770762 7.719180 1.828402
1.766542 7.694619 -0.137804
1.769338 7.700621 2.117140
1.249033 5.405859 -1.486657
1.775923 7.680145 0.137595
1.437165 6.210204 -1.471630
5.642968 24.364748 1.310702
1.683293 7.267984 -1.450148
3.379074 14.578347 1.309253
1.782390 7.683657 -1.249286
3.319701 14.299472 1.802448
1.824397 7.852307 -0.989823
1.821309 7.832797 1.273690
1.786907 7.684848 -0.690273
1.789687 7.690718 1.534868
1.792147 7.695225 -0.414082
1.800353 7.724339 1.831102
