# This PCD file was generated using the MATLAB® pcwrite function
# from Computer Vision Toolbox®.
# .PCD v.7 - Point Cloud Data file format
VERSION .7
FIELDS x y z
SIZE 4 4 4
TYPE F F F
COUNT 1 1 1
WIDTH 1693
HEIGHT 1
VIEWPOINT 0 0 0 1 0 0 0
POINTS 1693
DATA ascii
8.440283 7.785745 1.818707
8.470407 7.810790 -1.008043
8.451816 7.790924 2.234374
8.445369 7.782256 -0.601864
8.469433 7.801691 2.658472
8.439385 7.774012 -0.200284
8.464172 7.794122 3.083053
4.075309 3.742190 -1.482516
8.460423 7.768862 0.200493
4.638463 4.257823 -1.453634
9.363734 8.592321 0.666027
5.342916 4.901028 -1.409315
9.289561 8.518288 1.102694
5.739293 5.262783 -1.233329
9.276043 8.502913 1.545060
6.995835 6.410501 -1.165071
8.496540 7.782923 1.824965
8.531411 7.812128 -1.012052
8.518145 7.799980 2.245059
8.509437 7.789268 -0.604585
8.521130 7.797247 2.666570
8.507779 7.782302 -0.201261
8.526971 7.797118 3.095994
4.076278 3.718241 -1.478374
8.530339 7.778358 0.201505
4.659059 4.246856 -1.455433
9.302138 8.479147 0.659642
5.356236 4.880641 -1.408552
9.288302 8.460600 1.099208
5.754708 5.240056 -1.232704
9.276308 8.443753 1.540185
7.012294 6.380698 -1.164096
8.558830 7.787939 1.832786
8.588223 7.811944 -1.015713
8.567110 7.790008 2.250783
8.574998 7.794446 -0.607306
8.582912 7.798906 2.677367
8.557220 7.775561 -0.201820
8.579948 7.793479 3.105829
4.097822 3.711772 -1.481480
8.581281 7.772851 0.202099
4.655781 4.215687 -1.450034
9.309470 8.426517 0.658072
5.370327 4.859280 -1.407789
9.289701 8.402734 1.095896
5.777912 5.226245 -1.233955
9.263033 8.375666 1.533360
7.033413 6.357411 -1.164096
8.615275 7.784504 1.839044
8.646490 7.809961 -1.019374
8.620579 7.786557 2.258034
8.620068 7.783370 -0.608667
8.646341 7.804347 2.689065
8.621429 7.779131 -0.202692
8.648700 7.801008 3.120840
4.110109 3.698162 -1.481480
8.645532 7.776278 0.202971
4.674814 4.203320 -1.451384
9.316545 8.373944 0.656502
5.393099 4.845752 -1.409315
9.290841 8.347912 1.092759
5.794652 5.204723 -1.233642
9.274486 8.327367 1.530435
7.046701 6.324864 -1.162634
8.683566 7.791319 1.847804
8.713745 7.815653 -1.024080
8.689987 7.791607 2.268719
8.681260 7.781049 -0.610970
8.709807 7.806637 2.700312
8.679805 7.777014 -0.203425
8.707538 7.799124 3.132228
4.132280 3.690795 -1.484586
8.711265 7.777836 0.203844
4.685828 4.182263 -1.450034
9.311404 8.307831 0.653990
5.416684 4.831182 -1.410842
9.299070 8.293912 1.090144
5.801893 5.172934 -1.231139
9.275306 8.266905 1.525561
7.055012 6.285790 -1.160196
8.738619 7.783087 1.853436
8.775071 7.812808 -1.027915
8.756615 7.793643 2.278641
8.735088 7.771746 -0.612749
8.763114 7.796680 2.707961
8.738136 7.771726 -0.204123
8.773601 7.800533 3.145687
4.131325 3.662807 -1.479410
8.781614 7.782995 0.204821
4.702586 4.166353 -1.450484
9.276068 8.218324 0.649489
5.412939 4.794019 -1.405499
9.125034 8.078836 1.066263
5.823773 5.154252 -1.231765
9.281757 8.211805 1.521661
7.073939 6.258493 -1.159709
8.801241 7.783950 1.860945
8.829157 7.805886 -1.031052
8.820544 7.795530 2.288182
8.802571 7.776917 -0.615576
8.829703 7.800887 2.720108
8.801184 7.772948 -0.204961
8.831192 7.796708 3.156557
4.128950 3.636320 -1.474233
8.828390 7.772329 0.205310
4.722227 4.155886 -1.452284
9.168330 8.068765 0.640069
5.431756 4.778635 -1.406262
9.272963 8.155107 1.080383
5.828963 5.124477 -1.229262
9.276135 8.152148 1.516299
7.097638 6.237619 -1.160196
8.870044 7.792528 1.870018
8.895411 7.812064 -1.035759
8.878808 7.794730 2.296577
8.868847 7.783252 -0.618402
8.895072 7.806268 2.732255
8.870502 7.781965 -0.205973
8.893310 7.799221 3.169498
4.155527 3.635327 -1.479410
8.890241 7.774605 0.206148
4.716910 4.123528 -1.446435
9.327281 8.151050 0.649175
5.447572 4.760597 -1.406262
9.298453 8.123003 1.080208
5.854854 5.112915 -1.231139
9.273208 8.095236 1.511424
7.104407 6.199758 -1.157759
8.932919 7.792681 1.877527
8.961808 7.817883 -1.040465
8.934198 7.791052 2.304209
8.912672 7.769549 -0.619658
8.956059 7.804614 2.742603
8.935309 7.783789 -0.206846
8.958353 7.801122 3.182957
4.165274 3.618266 -1.478374
8.964133 7.784167 0.207230
4.729801 4.105764 -1.445985
9.311930 8.080482 0.646140
5.464156 4.741554 -1.406262
9.305682 8.072215 1.077768
5.863712 5.084680 -1.229262
9.274406 8.039414 1.507036
7.123006 6.172319 -1.157271
8.998889 7.795077 1.885661
9.022176 7.815249 -1.044300
8.996958 7.790664 2.313368
8.982023 7.774990 -0.622589
9.011250 7.797530 2.751151
9.004771 7.789184 -0.207823
9.026449 7.805182 3.197451
4.180805 3.606227 -1.479410
9.029110 7.785477 0.208102
4.739676 4.085411 -1.444636
9.317386 8.028370 0.644570
5.462827 4.707071 -1.401683
9.297572 8.008479 1.073584
5.893397 5.074496 -1.231765
9.276839 7.984974 1.502893
7.129459 6.134472 -1.154834
9.058986 7.791963 1.892544
9.082627 7.812298 -1.048135
9.068759 7.797609 2.324817
9.039403 7.769624 -0.624682
9.081271 7.802863 2.764199
9.059213 7.781155 -0.208452
9.080023 7.796276 3.206768
4.184562 3.584074 -1.476304
9.098765 7.790326 0.209080
4.756870 4.071374 -1.445535
9.321065 7.975029 0.642895
5.473254 4.682872 -1.400156
9.298217 7.952662 1.070447
5.917081 5.059027 -1.233017
9.291069 7.940942 1.500699
7.150831 6.109547 -1.154834
9.137202 7.803910 1.903182
9.131054 7.798659 -1.050575
9.137724 7.801605 2.335502
9.109005 7.774330 -0.627613
9.155895 7.811588 2.778595
9.122833 7.780630 -0.209289
9.149814 7.800883 3.221780
4.188219 3.561935 -1.473198
9.163994 7.790896 0.209952
4.765112 4.049698 -1.443736
9.324495 7.921751 0.641220
5.495553 4.668822 -1.401683
9.298588 7.896940 1.067309
5.943739 5.046013 -1.234894
9.294517 7.887908 1.496799
7.166060 6.079410 -1.153859
9.197531 7.800078 1.910065
9.155180 7.764162 -1.050227
9.185868 7.787432 2.340845
9.183324 7.782514 -0.630858
9.233660 7.822411 2.793892
9.198768 7.790094 -0.210406
9.218274 7.803843 3.236274
4.200627 3.547293 -1.473198
9.218632 7.782085 0.210581
4.783689 4.036809 -1.445086
9.323087 7.864683 0.639231
5.502814 4.642013 -1.399393
9.309338 7.850312 1.065392
5.982463 5.043058 -1.239274
9.282528 7.822155 1.490462
7.184200 6.051803 -1.153372
9.282122 7.816273 1.921954
9.170036 7.721889 -1.048832
9.264064 7.798304 2.353820
9.236411 7.772273 -0.632637
9.280297 7.806437 2.799741
9.271821 7.796544 -0.211453
9.291301 7.810155 3.252320
4.210023 3.530126 -1.472163
9.302445 7.797385 0.211872
4.787294 4.011326 -1.441936
9.322921 7.809009 0.637347
5.528014 4.630342 -1.401683
9.325993 7.808813 1.064172
6.025782 5.043697 -1.244593
9.311296 7.790980 1.490706
7.187008 6.011406 -1.150447
9.360877 7.826904 1.932592
9.184710 7.679605 -1.047438
9.330393 7.798657 2.363742
9.294137 7.765598 -0.634731
9.343389 7.803974 2.810539
9.335818 7.794893 -0.212291
9.364481 7.816051 3.268367
4.222321 3.515408 -1.472163
9.369568 7.798128 0.212780
4.805763 3.998329 -1.443286
9.350124 7.776416 0.637347
5.541126 4.608505 -1.400920
9.377704 7.796592 1.066961
6.063100 5.039048 -1.248660
9.381190 7.793948 1.497531
7.217109 5.993893 -1.151909
9.421576 7.821943 1.939475
9.200728 7.638592 -1.046218
9.396840 7.798637 2.373664
9.370378 7.773913 -0.638080
9.400572 7.796195 2.819536
9.384525 7.780122 -0.212780
9.434845 7.819062 3.283379
4.225631 3.493263 -1.469057
9.441436 7.802314 0.213792
4.809172 3.972842 -1.440137
9.414354 7.777170 0.639964
5.542040 4.576635 -1.397104
9.432521 7.786639 1.070098
6.098935 5.032941 -1.252414
9.455808 7.800314 1.505087
7.228800 5.961085 -1.150447
9.499277 7.833388 1.950112
9.210422 7.592489 -1.044300
9.469457 7.803246 2.385113
9.443703 7.779256 -0.641220
9.484892 7.810408 2.836633
9.445777 7.778198 -0.213583
9.495026 7.815973 3.295284
4.237800 3.478491 -1.469057
9.498173 7.796334 0.214490
4.832867 3.965525 -1.443286
9.490859 7.784795 0.643314
5.567091 4.564729 -1.399393
9.508956 7.794081 1.075676
6.129342 5.023957 -1.255230
9.523079 7.802886 1.511667
7.251601 5.939594 -1.150934
9.575475 7.840226 1.960124
9.233784 7.557771 -1.043952
9.525664 7.796673 2.392745
9.509640 7.780778 -0.643942
9.546945 7.808520 2.847430
9.519311 7.783153 -0.214630
9.552168 7.807229 3.305637
4.252306 3.466861 -1.470092
9.567181 7.797244 0.215433
4.833081 3.937553 -1.439237
9.563075 7.791121 0.646454
5.588286 4.551203 -1.400920
9.571829 7.792696 1.079860
6.175951 5.026224 -1.261175
9.585678 7.798409 1.517273
7.259968 5.904226 -1.148984
9.647396 7.845821 1.969510
9.249522 7.519565 -1.042906
9.597008 7.799279 2.403812
9.561543 7.767687 -0.645616
9.613473 7.807090 2.859128
9.582326 7.781795 -0.215467
9.623000 7.812040 3.321166
4.268886 3.455644 -1.471645
9.647382 7.809513 0.216654
4.846111 3.921506 -1.439237
9.616614 7.779044 0.648233
5.591925 4.521794 -1.397867
9.636158 7.789299 1.084043
6.220236 5.028069 -1.266806
9.653176 7.800262 1.523854
7.264067 5.867643 -1.146547
9.723903 7.851811 1.979522
9.269514 7.482224 -1.042208
9.680872 7.814267 2.418313
9.643209 7.781086 -0.649385
9.692395 7.817991 2.874875
9.665473 7.793483 -0.216724
9.684806 7.806283 3.333072
4.267371 3.429828 -1.466986
9.721149 7.810420 0.217666
4.860451 3.903719 -1.439237
9.696454 7.785011 0.651687
5.598491 4.494871 -1.395577
9.719230 7.800507 1.090318
6.257112 5.020073 -1.270561
9.723511 7.798364 1.530435
7.282424 5.838498 -1.146059
9.792691 7.848241 1.987656
9.281579 7.438615 -1.040640
9.738557 7.802057 2.425564
9.718430 7.783147 -0.652525
9.746853 7.803112 2.882523
9.725198 7.782998 -0.217422
9.752572 7.802113 3.346530
4.273278 3.410090 -1.464916
9.788997 7.808864 0.218574
4.871002 3.884298 -1.438337
9.770425 7.788462 0.654828
5.601866 4.465509 -1.392524
9.780677 7.793851 1.094153
6.296229 5.015430 -1.274941
9.803473 7.806416 1.538722
7.293441 5.805626 -1.144597
9.860218 7.845986 1.995791
9.298135 7.398725 -1.039594
9.816438 7.808344 2.438158
9.798688 7.791441 -0.656084
9.827418 7.811488 2.898269
9.796145 7.783833 -0.218399
9.831179 7.808878 3.364130
4.283639 3.393956 -1.464398
9.847549 7.799475 0.219272
4.887587 3.869689 -1.439237
5.620496 4.448369 -1.393287
9.848451 7.791801 1.098685
6.338489 5.013026 -1.279947
9.872702 7.805396 1.545303
7.323008 5.787515 -1.146059
9.940248 7.853152 2.006429
9.298608 7.343606 -1.036630
9.888309 7.809324 2.449224
9.844639 7.772038 -0.657340
9.895931 7.809730 2.910417
9.856221 7.775607 -0.219132
9.870514 7.784081 3.368271
4.297571 3.379424 -1.464916
9.918730 7.799661 0.220249
4.888808 3.842971 -1.435638
9.917212 7.792875 0.661003
5.636765 4.427735 -1.393287
9.933353 7.799952 1.104960
6.364588 4.995861 -1.281511
9.934243 7.797849 1.550666
7.333797 5.754563 -1.144597
9.325755 7.312330 -1.036805
9.913934 7.767934 -0.660061
9.933681 7.780611 -0.220249
4.312384 3.366783 -1.465951
9.988235 7.795245 0.221157
4.899786 3.822630 -1.434738
9.982145 7.787697 0.663515
5.649087 4.405621 -1.392524
9.995092 7.792179 1.108795
6.417826 5.001539 -1.288707
7.339176 5.715450 -1.142160
9.341791 7.272386 -1.035759
9.988284 7.770069 -0.663201
10.003404 7.779029 -0.221192
4.322585 3.350525 -1.465433
4.910897 3.805166 -1.434288
5.652014 4.376258 -1.389471
6.465619 5.004413 -1.294965
7.354946 5.688653 -1.141672
9.368695 7.240953 -1.035933
10.040861 7.757664 -0.664981
4.319895 3.325565 -1.460775
4.930327 3.792755 -1.436087
5.650934 4.345522 -1.385655
6.503408 4.997462 -1.299032
9.834320 7.554322 1.522636
7.381056 5.667783 -1.142647
9.384752 7.203782 -1.035062
12.296027 9.431673 -0.812149
4.340685 3.317505 -1.463881
4.938891 3.771972 -1.434738
5.675429 4.332919 -1.387945
6.536520 4.986710 -1.302161
7.388167 5.632353 -1.140697
9.386072 7.152862 -1.032447
12.281209 9.352390 -0.809009
4.346083 3.297663 -1.461810
4.945815 3.750000 -1.432938
5.690518 4.313083 -1.387945
6.572782 4.978176 -1.305915
7.401453 5.601735 -1.139722
9.410982 7.120058 -1.032447
12.281919 9.285371 -0.806916
28.952967 21.873131 -0.633383
4.352938 3.278986 -1.460257
4.961990 3.735056 -1.433838
5.714951 4.300277 -1.390234
6.628013 4.983693 -1.313424
7.411438 5.568712 -1.138260
9.432594 7.084768 -1.032098
13.223167 9.924628 -0.866474
28.971548 21.728746 -0.632126
4.368999 3.267241 -1.461810
4.970314 3.714214 -1.432488
5.714200 4.268550 -1.386418
6.659615 4.971162 -1.316240
7.421285 5.535684 -1.136797
9.441293 7.039891 -1.030355
12.322419 9.181499 -0.805346
28.828552 21.472485 -0.627449
4.374174 3.247364 -1.459739
4.974778 3.691906 -1.430239
5.725913 4.246238 -1.385655
6.701452 4.967875 -1.321246
7.445981 5.515772 -1.137772
9.459405 7.002147 -1.029658
12.400963 9.176230 -0.808486
28.646061 21.181503 -0.621864
4.375589 3.225960 -1.456634
4.993911 3.679140 -1.432038
48.932766 36.036793 3.184853
5.739963 4.227226 -1.385655
6.706025 4.935083 -1.318743
7.461990 5.487397 -1.137285
9.468123 6.960121 -1.028089
13.353634 9.809224 -0.868358
28.652124 21.031675 -0.620398
4.393057 3.215234 -1.458704
4.992568 3.651331 -1.427989
5.742002 4.197898 -1.382602
6.720023 4.909312 -1.318117
7.481101 5.461314 -1.137285
9.492363 6.927026 -1.028089
13.394250 9.767255 -0.868777
28.696259 20.910353 -0.619770
4.407381 3.202150 -1.459739
5.006859 3.635027 -1.428439
5.772510 4.189359 -1.386418
6.743514 4.890465 -1.319368
7.477617 5.418858 -1.133873
9.509619 6.886348 -1.027218
13.470330 9.750887 -0.871498
28.739918 20.788954 -0.619142
4.426921 3.191624 -1.462328
5.017938 3.616388 -1.427989
5.775081 4.158997 -1.383365
6.754979 4.861103 -1.318117
7.496483 5.392728 -1.133873
9.525508 6.847299 -1.026346
13.590327 9.762043 -0.876941
28.792824 20.674505 -0.618723
4.417614 3.161535 -1.455598
15.214593 10.884561 0.326535
5.026402 3.594572 -1.426640
15.184961 10.859345 0.978368
5.783175 4.134244 -1.381839
43.396442 31.011591 4.666493
6.778337 4.842085 -1.319368
7.506505 5.358294 -1.132410
9.538000 6.805903 -1.025126
13.699125 9.767887 -0.881756
15.163550 10.808076 -0.325034
4.428622 3.146096 -1.455598
15.139754 10.755293 0.324161
5.044649 3.582398 -1.428439
15.193464 10.785460 0.976484
5.797571 4.114033 -1.381839
43.666943 30.975183 4.683924
6.787910 4.815010 -1.318117
7.527470 5.335669 -1.132897
9.558450 6.770262 -1.024777
13.741220 9.729333 -0.882384
15.181600 10.741215 -0.324615
4.442187 3.133621 -1.456634
15.190281 10.711594 0.324440
5.038011 3.551292 -1.423040
15.195097 10.707051 0.974182
5.807972 4.092521 -1.381076
6.788527 4.779912 -1.314988
7.546051 5.309359 -1.132897
9.571069 6.731653 -1.023731
13.748956 9.662929 -0.880710
15.255000 10.713443 -0.325383
4.454681 3.119202 -1.457151
15.319320 10.722724 0.326395
5.056763 3.538155 -1.424840
15.252017 10.667686 0.975438
5.822222 4.072224 -1.381076
6.811646 4.760715 -1.316240
7.538499 5.264798 -1.128998
24.880428 17.369751 4.805980
9.587973 6.693643 -1.023034
13.733463 9.580592 -0.877569
15.357921 10.705873 -0.326779
4.460783 3.100327 -1.455598
15.386218 10.689716 0.327023
5.072285 3.522704 -1.425740
15.335098 10.646276 0.978368
5.810597 4.033963 -1.374970
6.828223 4.736907 -1.316240
7.550305 5.233929 -1.128023
25.028589 17.343546 4.822875
9.608005 6.657862 -1.022685
13.760249 9.528049 -0.877151
15.424800 10.672675 -0.327407
4.468398 3.082542 -1.454563
15.505748 10.692709 0.328768
5.079736 3.501660 -1.424390
15.431376 10.633476 0.982137
5.844044 4.027022 -1.379549
6.847969 4.715285 -1.316865
7.561985 5.203043 -1.127048
25.134546 17.287424 4.831635
9.603279 6.605091 -1.019722
13.724293 9.432449 -0.872754
15.583940 10.702542 -0.329990
4.477538 3.065833 -1.454045
5.099971 3.489408 -1.426640
15.537642 10.626897 0.986533
5.851583 4.002163 -1.378023
6.841557 4.675746 -1.312485
7.589935 5.183332 -1.128510
9.624634 6.570403 -1.019548
13.734033 9.368731 -0.871289
15.680692 10.688624 -0.331247
4.488212 3.050186 -1.454045
5.094386 3.459543 -1.421691
5.865517 3.981714 -1.378023
6.857835 4.651838 -1.312485
7.598125 5.150123 -1.127048
9.629364 6.524475 -1.017630
13.779885 9.329687 -0.872127
4.490294 3.029884 -1.451457
5.100982 3.439362 -1.420341
5.878688 3.962243 -1.378023
6.866668 4.624658 -1.311234
7.601988 5.116030 -1.125098
9.655908 6.495840 -1.018153
13.843902 9.306222 -0.874220
4.502449 3.015265 -1.451975
5.119435 3.425870 -1.422141
5.879430 3.932964 -1.374970
6.892624 4.607245 -1.313111
7.616496 5.087264 -1.124610
9.661952 6.451034 -1.016410
49.261421 32.878139 11.512271
13.786578 9.197993 -0.868568
28.648140 19.098717 -0.600991
4.511337 2.998462 -1.451457
5.131364 3.407977 -1.422141
5.896393 3.914590 -1.375733
6.905374 4.580972 -1.312485
7.634209 5.060644 -1.124610
9.671127 6.408462 -1.015016
13.815272 9.147604 -0.868358
28.657927 18.961090 -0.599804
4.520164 2.981631 -1.450940
5.143227 3.390049 -1.422141
5.906744 3.891822 -1.374970
6.904821 4.545982 -1.309357
7.638561 5.025234 -1.122661
9.686774 6.370291 -1.014318
13.837107 9.092739 -0.867730
28.620310 18.792883 -0.597640
4.528928 2.964777 -1.450422
5.141983 3.363539 -1.418541
5.917007 3.869029 -1.374206
6.914033 4.517528 -1.308105
7.689299 5.020247 -1.127535
9.705617 6.334260 -1.013970
13.761693 8.974563 -0.861031
28.612022 18.644819 -0.596104
4.540869 2.950004 -1.450940
5.153691 3.345570 -1.418541
43.477188 28.212870 2.716236
5.927180 3.846218 -1.373443
49.422024 32.058254 5.153868
6.923129 4.489068 -1.306854
7.690117 4.982578 -1.125098
9.720982 6.296007 -1.013273
13.796291 8.928638 -0.861241
28.592957 18.490555 -0.594359
4.556010 2.937274 -1.452493
5.175169 3.333891 -1.421241
43.498173 28.011181 2.711421
5.933969 3.821252 -1.371917
49.369438 31.779867 5.136785
6.952048 4.473424 -1.309357
7.694103 4.947117 -1.123148
9.742898 6.262038 -1.013273
13.965176 8.968929 -0.869824
28.556356 18.325827 -0.592265
4.554843 2.914066 -1.448869
38.297104 24.492035 0.793491
5.176924 3.309507 -1.418541
43.607456 27.866711 2.712154
5.934035 3.792059 -1.368864
49.312160 31.500099 5.119354
6.964292 4.447002 -1.308731
7.707978 4.918096 -1.122661
9.749580 6.218346 -1.011704
14.147985 9.016732 -0.879244
28.518946 18.161592 -0.590171
4.556834 2.892971 -1.446281
38.254047 24.276762 0.790838
5.181862 3.287241 -1.416742
43.701099 27.712173 2.711945
5.947237 3.771321 -1.368864
49.253544 31.221094 5.101923
6.959748 4.409978 -1.304976
7.738517 4.899654 -1.124610
9.762808 6.178950 -1.010832
13.318481 8.422851 -0.825861
28.426647 17.963644 -0.586959
4.568539 2.878078 -1.446798
38.220108 24.068499 0.788395
5.176812 3.258753 -1.412243
5.967013 3.754719 -1.370390
6.981790 4.389862 -1.306228
7.758933 4.874724 -1.125098
9.782632 6.143772 -1.010658
13.317348 8.357203 -0.823977
28.434973 17.830307 -0.585842
4.586749 2.867232 -1.449387
38.225880 23.886183 0.786789
5.193114 3.243761 -1.413592
5.986743 3.738028 -1.371917
49.301289 30.770983 5.084492
6.987012 4.359195 -1.304351
7.772535 4.845510 -1.124610
9.785416 6.097997 -1.008741
14.211112 8.849081 -0.877360
28.476664 17.718271 -0.585424
4.591805 2.848148 -1.447834
5.206062 3.226639 -1.414042
5.993081 3.712970 -1.370390
49.239010 30.493816 5.067060
7.005546 4.336857 -1.304976
7.829916 4.843412 -1.130460
9.816808 6.070091 -1.009786
13.963259 8.627257 -0.860194
28.521328 17.608250 -0.585074
4.591846 2.826029 -1.444728
5.210654 3.204362 -1.412243
5.995967 3.685863 -1.368101
49.175407 30.217428 5.049629
7.020643 4.312375 -1.304976
7.883997 4.838894 -1.135822
9.812466 6.020156 -1.007172
13.969452 8.563846 -0.858728
28.558731 17.493979 -0.584586
4.604980 2.811996 -1.445763
5.230125 3.191230 -1.414492
5.998741 3.658775 -1.365811
49.110477 29.941862 5.032198
7.005290 4.269339 -1.299345
7.948315 4.840252 -1.142647
9.824909 5.980690 -1.006300
14.176728 8.622971 -0.869614
28.510260 17.327705 -0.582352
4.606506 2.790900 -1.443175
5.221229 3.160843 -1.409093
6.021555 3.643910 -1.368101
49.105572 29.704288 5.021042
7.023532 4.246902 -1.299971
7.995741 4.830960 -1.147034
9.838905 5.942235 -1.005603
14.244354 8.596144 -0.871917
28.508930 17.190901 -0.581095
4.627811 2.781770 -1.446798
5.233899 3.143605 -1.409543
6.034237 3.622870 -1.368101
7.034924 4.220333 -1.299345
8.046610 4.823431 -1.151909
9.845917 5.899660 -1.004208
14.240005 8.525847 -0.869824
28.482960 17.039957 -0.579350
4.630857 2.761639 -1.444728
5.244841 3.125314 -1.409543
6.026607 3.589727 -1.363521
49.078930 29.222118 4.997336
7.032638 4.185645 -1.296216
8.094108 4.813580 -1.156296
48.826092 29.025429 8.996547
9.866446 5.865262 -1.004208
14.159779 8.410811 -0.863125
28.456287 16.889387 -0.577605
4.635479 2.742510 -1.443175
5.255719 3.106986 -1.409543
6.025578 3.560679 -1.360468
49.009094 28.949276 4.979905
7.050609 4.163078 -1.296842
8.165572 4.817573 -1.164096
48.770584 28.762484 8.967763
9.874848 5.823699 -1.002988
14.115063 8.317729 -0.858624
28.428907 16.739231 -0.575860
4.641692 2.724355 -1.442140
5.273255 3.092566 -1.411343
6.041357 3.541611 -1.361231
49.023907 28.727648 4.971189
7.068506 4.140440 -1.297468
8.202060 4.802506 -1.167021
48.756592 28.536720 8.947740
9.889957 5.786177 -1.002465
14.078490 8.230100 -0.854646
28.397930 16.594423 -0.574114
4.647364 2.707002 -1.441105
5.266640 3.065258 -1.406844
6.066646 3.529454 -1.364284
48.946663 28.464767 4.953758
7.078783 4.114990 -1.296842
8.262567 4.801210 -1.173358
48.772377 28.329252 8.933348
9.912538 5.755347 -1.002814
14.078063 8.167336 -0.852971
4.659659 2.693510 -1.442140
5.283525 3.051676 -1.408643
6.074915 3.507355 -1.363521
48.954498 28.252516 4.945043
7.085545 4.087546 -1.295590
8.320551 4.796133 -1.179208
48.696377 28.058250 8.901435
9.922207 5.714747 -1.001768
14.060069 8.094693 -0.850250
4.674529 2.679294 -1.443693
5.284002 3.027400 -1.405944
6.077507 3.479212 -1.361231
48.919388 27.993723 4.931098
7.097049 4.059589 -1.294965
8.385494 4.794646 -1.186033
48.673977 27.819468 8.879534
9.945554 5.682055 -1.002117
14.065358 8.029247 -0.848785
4.663700 2.651504 -1.437481
5.298450 3.009939 -1.406844
6.089614 3.457978 -1.361231
48.878181 27.744118 4.917152
7.111178 4.034789 -1.294965
8.434094 4.781504 -1.190420
48.651871 27.570772 8.857008
9.938577 5.629850 -0.999328
14.075917 7.970263 -0.847738
4.670021 2.632495 -1.436446
5.317414 2.996208 -1.409093
6.095405 3.431781 -1.359705
48.864952 27.500280 4.905648
7.125917 4.008700 -1.294965
8.488801 4.773438 -1.195782
48.630722 27.334946 8.835732
9.954693 5.593174 -0.998979
14.077172 7.902971 -0.846063
4.687155 2.621710 -1.439034
5.309128 2.967172 -1.404144
6.106751 3.411550 -1.359705
48.827148 27.266214 4.892749
7.121923 3.975417 -1.291836
8.501945 4.741841 -1.195295
48.605064 27.097704 8.813831
9.967966 5.557219 -0.998456
14.075388 7.840691 -0.844388
4.697966 2.606271 -1.439552
5.319453 2.948620 -1.404144
6.115187 3.388311 -1.358942
48.782585 27.018394 4.878804
7.146127 3.956272 -1.293713
8.528865 4.717906 -1.196757
48.564522 26.853304 8.789428
9.976844 5.516603 -0.997410
14.043226 7.758681 -0.840829
4.707036 2.589855 -1.439552
5.333127 2.931915 -1.405044
6.116654 3.361269 -1.356652
48.778812 26.794214 4.869042
7.156428 3.929407 -1.293087
8.524398 4.676646 -1.193832
48.556316 26.638912 8.771907
9.999530 5.483667 -0.997759
14.073730 7.711531 -0.841039
4.705873 2.567855 -1.436446
5.329135 2.906747 -1.401445
6.124903 3.338017 -1.355889
48.725075 26.543730 4.854401
7.169420 3.905652 -1.293087
8.550323 4.654044 -1.195295
48.520599 26.399405 8.748755
10.004610 5.441111 -0.996364
14.057114 7.641920 -0.838527
4.710965 2.550398 -1.435410
28.397678 15.367396 0.563608
5.347820 2.892761 -1.403695
6.135938 3.317689 -1.355889
48.707657 26.325176 4.843942
7.176059 3.876844 -1.291836
8.563020 4.622290 -1.194807
48.452526 26.143566 8.719972
10.015586 5.404117 -0.995667
14.080182 7.590919 -0.838317
4.718136 2.533025 -1.434893
5.352732 2.871314 -1.402345
6.144021 3.294396 -1.355126
48.676334 26.089098 4.831740
7.179101 3.846172 -1.289959
8.568603 4.586748 -1.193345
48.466858 25.933256 8.706204
10.034390 5.369121 -0.995667
14.046709 7.509704 -0.834759
4.735476 2.521078 -1.437481
5.355840 2.848953 -1.400545
6.169352 3.280302 -1.358178
48.633392 25.847971 4.818492
7.202948 3.826654 -1.291836
8.574039 4.551227 -1.191882
48.431435 25.697290 8.683678
10.054828 5.335002 -0.995842
14.058722 7.453138 -0.833921
4.745955 2.505435 -1.437999
5.369200 2.832057 -1.401445
6.159924 3.247761 -1.353599
48.592896 25.609299 4.805593
7.219757 3.803327 -1.292462
8.596902 4.524967 -1.192857
48.363506 25.445284 8.655519
10.061048 5.293375 -0.994621
14.063437 7.392869 -0.832665
4.744402 2.483479 -1.434893
5.372145 2.809686 -1.399645
6.160783 3.220782 -1.351309
48.614899 25.404444 4.798970
7.236491 3.779934 -1.293087
8.595047 4.485744 -1.190420
48.371464 25.234291 8.641128
10.081228 5.259147 -0.994796
14.053738 7.325266 -0.830572
4.737611 2.458893 -1.430234
5.388841 2.794503 -1.401445
6.171989 3.199256 -1.351309
48.593597 25.177774 4.788162
7.228593 3.743747 -1.289333
8.624757 4.463014 -1.192370
48.368023 25.018082 8.624859
10.088909 5.218430 -0.993750
14.054379 7.263331 -0.829106
4.756471 2.447645 -1.433340
5.384697 2.768548 -1.397846
6.183118 3.177693 -1.351309
48.507515 24.918764 4.771080
7.239861 3.717587 -1.289020
8.629686 4.427442 -1.190907
48.292545 24.776384 8.596701
10.105291 5.182270 -0.993575
14.058320 7.203295 -0.827850
4.759824 2.428391 -1.431787
5.393848 2.750678 -1.397846
6.208169 3.163220 -1.354362
48.519615 24.711344 4.763758
7.229264 3.681909 -1.284953
8.644320 4.398802 -1.190907
48.301250 24.568287 8.582934
10.112661 5.141548 -0.992530
14.053640 7.142161 -0.826176
4.778194 2.417826 -1.434893
5.399940 2.730073 -1.396946
6.187085 3.126675 -1.347493
48.498158 24.498198 4.753649
7.351400 3.711851 -1.304351
8.656077 4.366815 -1.190420
48.263252 24.337263 8.561033
10.110085 5.098119 -0.990612
14.064214 7.085875 -0.825338
4.771062 2.393340 -1.430234
5.412921 2.712952 -1.397846
50.472843 25.285965 2.958552
6.197959 3.105063 -1.347493
48.440865 24.257376 4.739704
7.286589 3.647261 -1.290584
8.649963 4.325915 -1.187495
48.238373 24.113869 8.541636
10.113564 5.055668 -0.989218
14.063849 7.024240 -0.823873
4.777658 2.375810 -1.429716
5.422358 2.694042 -1.397846
50.596584 25.127380 2.960645
6.215794 3.086900 -1.349020
48.400330 24.026114 4.727502
7.249729 3.597221 -1.281824
8.704140 4.315090 -1.192857
48.219589 23.894480 8.523490
10.127579 5.018567 -0.988869
14.059647 6.960923 -0.822198
4.796318 2.364244 -1.432822
5.426485 2.672514 -1.396496
6.223008 3.063452 -1.348256
48.394501 23.813068 4.718786
7.276423 3.578866 -1.284327
8.694202 4.272429 -1.189445
48.185688 23.668524 8.502840
10.132519 4.977033 -0.987649
14.051580 6.895974 -0.820314
4.804542 2.347486 -1.432822
5.427022 2.649285 -1.394247
6.240722 3.045153 -1.349783
48.334072 23.574108 4.704841
7.281768 3.549984 -1.283076
8.705496 4.240314 -1.188957
48.154339 23.444849 8.482816
10.144455 4.939019 -0.987126
14.025279 6.822417 -0.817383
4.802276 2.325647 -1.429716
5.446763 2.635416 -1.396946
6.233640 3.014801 -1.345967
48.380184 23.387915 4.701355
7.294115 3.524546 -1.283076
8.705942 4.202999 -1.187008
48.129135 23.225117 8.464045
10.163426 4.904447 -0.987300
14.045408 6.771686 -0.817174
48.008263 23.135807 12.303473
27.758699 13.371293 -0.537813
4.799914 2.303855 -1.426611
5.445387 2.611330 -1.394247
6.240584 2.991327 -1.345204
48.317795 23.150011 4.687410
7.320627 3.505886 -1.285579
8.702654 4.164013 -1.184570
48.074486 22.992188 8.440266
10.164310 4.861200 -0.985731
14.047338 6.712280 -0.815918
47.916397 22.885763 12.259382
4.804438 2.285428 -1.425575
5.454469 2.592307 -1.394247
6.250987 2.969526 -1.345204
48.254330 22.912828 4.673465
7.307836 3.468455 -1.281199
8.727899 4.138710 -1.186033
48.061619 22.780249 8.423997
10.168612 4.819719 -0.984511
14.056242 6.656363 -0.815080
47.925537 22.685026 12.241386
4.822870 2.273587 -1.428681
5.456433 2.569929 -1.392447
6.268420 2.951034 -1.346730
48.261902 22.710327 4.666493
7.319900 3.442923 -1.281199
8.742292 4.108221 -1.186033
48.040730 22.565300 8.406476
10.192590 4.787580 -0.985209
14.054078 6.595381 -0.813615
47.916222 22.476204 12.218891
4.837779 2.260007 -1.430752
5.454774 2.545923 -1.389748
6.278683 2.929134 -1.346730
48.203644 22.477739 4.653245
7.324710 3.414014 -1.279947
8.749381 4.074330 -1.185058
48.033234 22.357468 8.391459
10.221882 4.757860 -0.986429
14.048037 6.532811 -0.811940
47.845951 22.239798 12.181099
4.842133 2.241482 -1.429716
5.474241 2.531773 -1.392447
6.278178 2.902255 -1.344440
48.191372 22.267565 4.644529
7.329410 3.385110 -1.278696
8.738314 4.032122 -1.181645
48.053589 22.163177 8.381447
10.263758 4.733829 -0.988869
14.034474 6.467020 -0.809847
47.856022 22.041679 12.164003
4.832367 2.216513 -1.424540
5.479502 2.511027 -1.391547
6.266850 2.870513 -1.339861
48.170986 22.054409 4.635117
7.355551 3.366083 -1.281199
8.784832 4.016450 -1.186033
48.030056 21.949312 8.363926
10.269348 4.693002 -0.987823
14.042431 6.411352 -0.809009
47.808582 21.817850 12.132510
4.839690 2.200477 -1.424540
5.482476 2.490423 -1.390198
6.297786 2.859456 -1.344440
48.116863 21.836899 4.622915
7.348684 3.333510 -1.278070
8.772791 3.975822 -1.182620
10.270335 4.652347 -0.986429
14.041780 6.354864 -0.807753
47.830948 21.636711 12.119913
4.850865 2.185156 -1.425575
5.478696 2.465673 -1.387048
6.304149 2.835843 -1.343677
7.317032 3.288406 -1.270561
8.804727 3.953304 -1.185058
10.293781 4.619734 -0.987126
14.045654 6.297635 -0.806706
47.778141 21.412247 12.087520
4.865520 2.171360 -1.427646
5.501509 2.452881 -1.390647
6.299664 2.807428 -1.340624
48.067932 21.411293 4.603741
7.328468 3.262843 -1.270561
8.796021 3.914405 -1.182133
10.309846 4.583771 -0.987126
14.038343 6.235606 -0.805032
47.745583 21.207819 12.061426
4.858559 2.148963 -1.423505
5.513177 2.436200 -1.391547
6.301754 2.783350 -1.339098
48.065773 21.219578 4.596768
7.346475 3.241713 -1.271812
8.798056 3.880410 -1.180670
10.379685 4.573660 -0.992355
14.051634 6.185796 -0.804613
47.697941 20.997538 12.031733
4.865659 2.132838 -1.423505
5.510516 2.413212 -1.388848
6.310950 2.762436 -1.339098
7.371665 3.223664 -1.274315
8.829739 3.857621 -1.183108
10.467833 4.571105 -0.999328
14.061084 6.134376 -0.803985
47.649483 20.777935 12.001139
4.873075 2.115840 -1.423505
5.522480 2.395517 -1.389748
6.327760 2.743512 -1.340624
48.026283 20.812689 4.579337
7.357493 3.186925 -1.269935
8.828577 3.820467 -1.181158
10.527610 4.553528 -1.003511
14.071412 6.080499 -0.803357
47.675190 20.591423 11.989442
4.880431 2.098818 -1.423505
31.623119 13.592908 0.600817
5.520066 2.371608 -1.387048
6.322865 2.715212 -1.337571
7.379466 3.165894 -1.271812
8.845508 3.791191 -1.181645
10.624820 4.549411 -1.011181
14.052155 6.014058 -0.801054
47.614197 20.368149 11.956148
4.898755 2.085454 -1.426611
5.531897 2.353853 -1.387948
6.350844 2.699698 -1.341387
7.431020 3.155815 -1.278696
8.807524 3.738571 -1.174821
10.708502 4.541078 -1.017630
14.040999 5.948493 -0.799170
47.641884 20.173731 11.944451
4.891764 2.062339 -1.422469
5.529712 2.329021 -1.385249
6.338514 2.668373 -1.336808
7.369156 3.099223 -1.266181
8.843129 3.715495 -1.177745
10.795930 4.533760 -1.024429
14.046946 5.893259 -0.798333
47.550262 19.939491 11.903960
4.902498 2.046741 -1.423505
5.537807 2.309706 -1.385249
6.340543 2.643208 -1.335281
7.467459 3.109936 -1.281199
8.848713 3.681551 -1.176770
10.866879 4.519000 -1.029658
14.015790 5.822732 -0.795402
47.529579 19.736032 11.881464
4.895330 2.023712 -1.419364
5.556643 2.294823 -1.387948
6.342471 2.618064 -1.333755
7.376003 3.041676 -1.263678
19.136768 7.887609 2.541463
8.879865 3.658204 -1.179208
10.934174 4.502278 -1.034539
14.010169 5.763138 -0.793937
47.533306 19.543312 11.865269
4.905940 2.008074 -1.420399
5.539367 2.265088 -1.381649
6.369744 2.603338 -1.337571
7.434124 3.035326 -1.271812
8.874200 3.619685 -1.176770
10.960894 4.468593 -1.035585
14.022802 5.711181 -0.793518
47.529045 19.347870 11.847273
4.920083 1.993838 -1.422469
5.565303 2.253049 -1.386148
6.367874 2.576667 -1.335281
7.448338 3.010837 -1.272438
8.886154 3.590240 -1.176770
10.991204 4.436273 -1.036979
18.969692 7.652703 3.976078
14.016716 5.651750 -0.792052
47.480873 19.145000 11.819379
4.919497 1.974632 -1.420399
5.572744 2.234583 -1.386148
6.376384 2.555535 -1.335281
7.458281 2.986122 -1.272438
8.886953 3.556325 -1.175308
19.777201 7.910321 3.373666
10.987353 4.392407 -1.035236
18.754316 7.493594 3.925704
14.031673 5.603753 -0.791843
47.431900 18.942619 11.791485
4.926017 1.958308 -1.420399
5.572880 2.213212 -1.384349
6.381614 2.531818 -1.334518
7.460797 2.958458 -1.271187
8.891930 3.522364 -1.174333
19.650414 7.780149 3.347385
10.987800 4.348159 -1.033841
14.032577 5.547393 -0.790796
4.915183 1.933171 -1.415223
5.573699 2.189922 -1.382549
6.390853 2.508406 -1.334518
7.464234 2.928209 -1.269935
8.915872 3.494089 -1.175796
18.740746 7.340650 3.187822
10.999951 4.306408 -1.033493
18.807461 7.359200 3.925704
14.030491 5.487196 -0.789540
19.352083 7.568423 4.797306
4.936638 1.920747 -1.419364
5.574422 2.166656 -1.380750
6.399568 2.486087 -1.334518
7.478600 2.902263 -1.270561
8.931713 3.464387 -1.176283
19.694534 7.635051 3.345508
11.000055 4.262223 -1.032098
14.019760 5.426649 -0.787866
4.939375 1.902976 -1.418329
5.588850 2.150960 -1.382549
6.404113 2.463440 -1.333755
7.495558 2.880279 -1.271812
8.924623 3.427630 -1.173846
11.017849 4.227151 -1.032447
14.022758 5.374412 -0.787028
4.949268 1.887964 -1.419364
5.585027 2.128250 -1.379850
6.397569 2.436601 -1.330702
7.519839 2.861028 -1.274315
19.684669 7.485375 2.585824
8.943954 3.399275 -1.174821
11.039254 4.193424 -1.033144
14.029301 5.323627 -0.786400
4.944985 1.866582 -1.416258
5.596069 2.110115 -1.380750
6.413384 2.417022 -1.332228
7.544570 2.840327 -1.276818
19.773849 7.440382 2.594111
8.933469 3.359650 -1.171896
11.012797 4.139439 -1.029309
19.626333 7.373146 4.075299
14.029098 5.267604 -0.785353
19.020367 7.137924 4.690229
4.955089 1.850662 -1.417293
5.603400 2.090569 -1.380750
6.418102 2.393250 -1.331465
7.513713 2.798802 -1.269935
8.941421 3.327064 -1.171408
19.705357 7.328352 3.329865
11.045855 4.107914 -1.031052
19.582018 7.278604 4.060797
14.039911 5.215823 -0.784935
19.501886 7.241062 4.802705
19.801262 7.348299 -0.368665
4.957895 1.832014 -1.416258
19.732117 7.287398 0.367164
5.596039 2.065597 -1.377150
19.748096 7.285457 1.103137
6.415367 2.366754 -1.329176
19.757292 7.284943 1.842298
7.534558 2.776657 -1.271812
19.653938 7.239032 2.571687
8.967881 3.301320 -1.173358
19.834633 7.297725 3.347385
11.056385 4.067958 -1.030704
13.990544 5.141975 -0.781167
19.417290 7.132632 4.775711
19.785498 7.263968 -0.367897
4.953373 1.810717 -1.413152
19.791246 7.230823 0.367792
5.610537 2.048726 -1.378950
19.795921 7.224700 1.104393
6.434654 2.348385 -1.331465
7.559052 2.755755 -1.274315
8.975621 3.268636 -1.172871
19.455326 7.081164 3.279180
11.048052 4.021165 -1.028612
14.012162 5.094476 -0.781376
19.848324 7.208517 -0.368595
4.985098 1.802612 -1.420399
5.613988 2.027806 -1.378050
6.424347 2.319242 -1.327649
7.564908 2.728013 -1.273690
19.771229 7.125876 2.580462
8.960831 3.227864 -1.169458
11.024526 3.969079 -1.025126
13.992272 5.032011 -0.779282
4.973480 1.777827 -1.415223
5.621383 2.007215 -1.378050
6.447596 2.300960 -1.330702
7.571136 2.698936 -1.273064
8.987560 3.200328 -1.171408
19.433571 6.919987 3.267291
11.057774 3.935318 -1.026869
19.287115 6.860251 3.979131
14.010620 4.980696 -0.779282
4.965085 1.755303 -1.411081
27.931391 9.874563 0.517115
5.635357 1.991160 -1.379850
6.440779 2.273211 -1.327649
7.565142 2.668559 -1.270561
9.016849 3.177102 -1.173846
11.033853 3.883473 -1.023383
13.993149 4.922275 -0.777398
4.996408 1.747759 -1.418329
27.939255 9.767784 0.516626
5.638594 1.970190 -1.378950
6.463109 2.257019 -1.330702
7.578140 2.643438 -1.271187
19.226196 6.702798 2.500028
8.994139 3.133857 -1.169458
19.998796 6.968245 3.354268
11.046672 3.846859 -1.023383
14.002700 4.870771 -0.776980
4.984220 1.723994 -1.413152
27.967716 9.673766 0.516556
5.630363 1.946388 -1.375351
6.452390 2.228039 -1.326886
7.598068 2.622162 -1.273064
19.747496 6.811172 2.564862
8.996976 3.101424 -1.168483
20.023001 6.898388 3.354268
11.082639 3.816057 -1.025474
20.079527 6.913933 4.127962
13.999887 4.817820 -0.775933
5.004531 1.712461 -1.417293
28.031590 9.586427 0.517115
5.633435 1.925461 -1.374451
6.470890 2.210438 -1.329176
7.592219 2.590518 -1.270561
19.590775 6.680704 2.541463
9.011506 3.071278 -1.168971
19.538353 6.655205 3.269168
11.087687 3.776717 -1.024777
19.185431 6.531265 3.939443
13.993931 4.761199 -0.774677
4.988519 1.687551 -1.411081
5.636429 1.904538 -1.373551
6.448806 2.177785 -1.323070
7.586240 2.558951 -1.268058
9.022172 3.039801 -1.168971
20.310301 6.839124 3.394315
11.066815 3.726548 -1.021640
20.004498 6.732263 4.102775
14.010467 4.712318 -0.774677
46.569031 15.654130 11.342482
5.001708 1.672579 -1.413152
5.639346 1.883616 -1.372651
6.486164 2.165209 -1.329176
7.561397 2.521206 -1.262426
9.021426 3.004531 -1.167508
11.065276 3.680927 -1.020245
19.815508 6.591742 4.059271
14.011666 4.658346 -0.773839
5.007804 1.654235 -1.413152
5.638484 1.861477 -1.370852
6.486598 2.138961 -1.327649
7.585595 2.498420 -1.264929
9.035630 2.974262 -1.167996
11.096984 3.648505 -1.021988
14.002082 4.598231 -0.772374
5.028240 1.641542 -1.417293
5.660091 1.845630 -1.374451
6.486558 2.113873 -1.326123
20.041330 6.527293 1.844041
7.590514 2.470702 -1.264304
9.031369 2.936212 -1.166046
11.121022 3.613439 -1.023034
20.422348 6.631692 4.173756
14.018045 4.549330 -0.772374
5.019231 1.619233 -1.413152
5.647633 1.820871 -1.369952
6.478949 2.086402 -1.323070
20.200546 6.501249 1.856592
7.576100 2.438257 -1.260549
9.048615 2.908679 -1.167021
11.129772 3.573381 -1.022685
14.014037 4.496720 -0.771327
5.006168 1.596711 -1.407976
5.668809 1.805880 -1.373551
6.500798 2.069669 -1.326123
7.573270 2.408206 -1.258672
9.036010 2.869862 -1.164096
19.910677 6.319872 3.308589
11.111176 3.526812 -1.019897
14.022033 4.445356 -0.770909
5.022766 1.582711 -1.411081
5.663925 1.782569 -1.370852
6.489254 2.041078 -1.322306
7.596707 2.386490 -1.261175
9.064913 2.844248 -1.166533
20.366140 6.386267 3.380549
11.127223 3.489194 -1.020245
14.037464 4.396386 -0.770909
5.028261 1.565167 -1.411081
5.670113 1.762789 -1.370852
6.492589 2.017247 -1.321543
7.578578 2.351763 -1.256795
9.067202 2.810235 -1.165558
11.127913 3.446797 -1.019199
14.045094 4.344995 -0.770490
5.030001 1.546469 -1.410046
5.661329 1.738408 -1.367252
6.514607 1.999177 -1.324596
7.601851 2.329923 -1.259298
9.054177 2.771601 -1.162634
11.158932 3.413758 -1.020942
14.083093 4.302954 -0.771746
5.027974 1.526658 -1.407976
5.667363 1.718634 -1.367252
6.521545 1.976426 -1.324596
7.609938 2.303372 -1.259298
9.063798 2.739977 -1.162634
11.151708 3.369020 -1.019199
14.105678 4.256073 -0.772165
5.029572 1.507987 -1.406940
5.703196 1.707789 -1.374451
6.520882 1.951397 -1.323070
7.606575 2.273406 -1.257420
9.065698 2.706048 -1.161659
11.155761 3.327803 -1.018502
14.116620 4.205665 -0.771955
46.713436 13.908153 11.252501
5.042214 1.492618 -1.409011
5.686698 1.681239 -1.369052
6.508824 1.923064 -1.319253
7.606886 2.244601 -1.256169
9.067472 2.672143 -1.160684
11.159665 3.286587 -1.017805
14.184865 4.172146 -0.774886
5.043684 1.473923 -1.407976
5.696272 1.662472 -1.369952
6.530576 1.904728 -1.322306
7.610881 2.216931 -1.255543
9.065308 2.637147 -1.159221
11.163417 3.245390 -1.017107
14.325935 4.159357 -0.781795
5.048799 1.456307 -1.407976
5.687061 1.638261 -1.366353
6.518319 1.876488 -1.318490
7.629964 2.193624 -1.257420
9.070642 2.604393 -1.158734
11.182337 3.208598 -1.017805
14.421003 4.132435 -0.786191
5.065000 1.441849 -1.411081
5.718987 1.625858 -1.372651
6.528606 1.854798 -1.319253
7.633775 2.165897 -1.256795
9.075857 2.571634 -1.158246
11.181968 3.166285 -1.016759
46.987049 13.296014 9.491984
14.485310 4.096205 -0.788912
46.528019 13.148558 11.162521
5.036525 1.414755 -1.401764
5.713370 1.602728 -1.369952
6.527479 1.829876 -1.317727
7.626070 2.134978 -1.254292
9.096251 2.543143 -1.159709
11.162250 3.118657 -1.013970
14.495673 4.044539 -0.788703
27.119244 7.561629 -0.491425
5.045156 1.398198 -1.402799
5.699872 1.578573 -1.365453
6.533826 1.807081 -1.317727
7.610260 2.103364 -1.250537
9.093153 2.509793 -1.158246
11.188434 3.083912 -1.015364
14.509007 3.996444 -0.788703
27.095345 7.453122 -0.490517
5.046038 1.380442 -1.401764
5.701589 1.557639 -1.364553
6.554935 1.789542 -1.320780
7.625180 2.078863 -1.251789
9.090365 2.474909 -1.156784
11.190909 3.044698 -1.014667
14.495885 3.938445 -0.787238
5.069477 1.367851 -1.406940
27.390148 7.390433 0.495195
5.714249 1.540754 -1.366353
6.557350 1.765627 -1.320017
7.635846 2.054593 -1.252414
9.102356 2.445783 -1.157271
11.162982 2.995292 -1.011181
14.466425 3.878977 -0.784935
5.081924 1.351248 -1.409011
5.708822 1.515799 -1.363653
6.552391 1.738562 -1.317727
7.628404 2.021209 -1.249912
9.088652 2.404719 -1.154346
11.197001 2.960465 -1.013273
14.500524 3.828496 -0.785981
5.060449 1.326640 -1.401764
5.713817 1.496861 -1.363653
6.543226 1.711703 -1.314674
7.631243 1.994900 -1.249286
9.092735 2.373566 -1.153859
11.184131 2.915334 -1.011181
14.497677 3.776365 -0.785144
5.076043 1.312753 -1.404870
5.726554 1.478857 -1.365453
6.552669 1.690974 -1.315437
7.641984 1.969241 -1.249912
9.100965 2.341810 -1.153859
11.162862 2.870294 -1.008392
14.506903 3.724738 -0.784935
5.084337 1.295984 -1.405905
5.724128 1.456934 -1.363653
6.547114 1.665192 -1.313148
7.633495 1.938661 -1.247409
9.097538 2.307101 -1.152397
11.188264 2.835223 -1.009786
14.523687 3.675060 -0.785144
5.066347 1.272580 -1.399693
5.725398 1.435998 -1.362753
6.560505 1.644235 -1.314674
46.912457 11.748775 4.231062
7.644048 1.912965 -1.248034
9.105536 2.275328 -1.152397
11.171030 2.789397 -1.007346
14.493794 3.613707 -0.782841
5.100762 1.262311 -1.407976
5.730376 1.416002 -1.362753
6.543333 1.615676 -1.310095
7.673695 1.891943 -1.251789
9.101857 2.240689 -1.150934
11.184567 2.751334 -1.007695
14.521835 3.566906 -0.783679
46.578026 11.432046 11.072541
5.071353 1.236264 -1.398658
5.754219 1.400598 -1.367252
6.556563 1.594683 -1.311621
7.684092 1.866075 -1.252414
9.125057 2.212644 -1.152884
11.166996 2.705705 -1.005254
14.522550 3.513379 -0.783051
5.060610 1.214945 -1.394517
5.751492 1.378690 -1.365453
6.569727 1.573614 -1.313148
7.679030 1.836490 -1.250537
9.121141 2.178010 -1.151422
11.180248 2.667635 -1.005603
14.577469 3.472843 -0.785353
5.079861 1.200829 -1.398658
5.733510 1.353232 -1.360054
6.579001 1.551574 -1.313911
7.673858 1.806955 -1.248660
9.136416 2.147977 -1.152397
11.201128 2.631329 -1.006649
46.633926 10.946486 9.311098
14.542835 3.410995 -0.782841
5.076495 1.181339 -1.396588
5.745791 1.334976 -1.361854
6.603501 1.533038 -1.317727
7.653177 1.773914 -1.244280
9.112917 2.108908 -1.148497
11.194715 2.588625 -1.005254
14.570222 3.363801 -0.783679
5.080588 1.163610 -1.396588
5.754215 1.315778 -1.362753
6.578189 1.502983 -1.311621
7.674730 1.750702 -1.246783
9.147320 2.083259 -1.151909
11.192027 2.546877 -1.004208
14.577979 3.312038 -0.783469
27.235882 6.177849 -0.487481
5.062004 1.140773 -1.390376
5.751169 1.293972 -1.360954
6.575734 1.478290 -1.310095
7.692360 1.726495 -1.248660
9.142914 2.048709 -1.150447
11.181409 2.503438 -1.002465
14.550469 3.252414 -0.781376
27.362669 6.106266 -0.489365
5.081043 1.126440 -1.394517
5.767066 1.276416 -1.363653
6.584688 1.456174 -1.310858
7.682908 1.696228 -1.246157
9.141902 2.016670 -1.149472
11.190079 2.464395 -1.002465
14.577339 3.205038 -0.782213
27.468710 6.034366 -0.490901
5.065876 1.105464 -1.389341
36.995083 8.066241 0.660923
5.736994 1.249820 -1.355555
6.593318 1.435163 -1.311621
7.680768 1.669064 -1.244906
9.148540 1.986341 -1.149472
11.178716 2.423055 -1.000722
14.572269 3.153303 -0.781376
27.558928 5.958461 -0.492158
5.080847 1.091094 -1.392447
5.729675 1.228336 -1.352856
6.601879 1.414115 -1.312384
7.697852 1.646061 -1.246783
9.159301 1.955230 -1.149959
11.210073 2.390956 -1.002814
14.543575 3.096647 -0.779282
5.080844 1.072555 -1.391411
5.749183 1.211541 -1.356455
6.579879 1.385400 -1.307042
46.740501 9.832739 4.178769
7.699686 1.618366 -1.246157
9.154414 1.920798 -1.148497
11.218352 2.351808 -1.002814
14.573847 3.049949 -0.780329
5.084558 1.054812 -1.391411
5.745743 1.189888 -1.354655
6.596211 1.364808 -1.309331
7.701417 1.590685 -1.245531
9.153285 1.887225 -1.147522
11.199171 2.307014 -1.000374
14.553103 2.992617 -0.778654
5.076850 1.034746 -1.388305
5.757500 1.171377 -1.356455
6.593239 1.340212 -1.307805
7.714667 1.565362 -1.246783
9.148144 1.852900 -1.146059
11.199346 2.266324 -0.999676
14.536053 2.936266 -0.777189
5.084219 1.017775 -1.389341
5.742444 1.147455 -1.351956
6.574773 1.312578 -1.303226
7.689087 1.532248 -1.241777
9.177919 1.825601 -1.148984
11.195462 2.224889 -0.998630
14.534459 2.883172 -0.776561
5.102907 1.003001 -1.393482
5.757888 1.129653 -1.354655
6.602434 1.294150 -1.307805
7.713775 1.509189 -1.244906
9.168650 1.790511 -1.147034
11.226627 2.190372 -1.000722
14.509148 2.825551 -0.774677
5.102582 0.984451 -1.392447
5.754143 1.108072 -1.352856
6.599200 1.269613 -1.306278
7.726757 1.483742 -1.246157
9.159246 1.755508 -1.145085
46.436977 8.891924 7.488519
11.214638 2.147420 -0.998979
14.518922 2.774891 -0.774677
5.083211 0.962320 -1.386235
5.757975 1.087981 -1.352856
46.648968 8.805983 2.487947
6.595875 1.245111 -1.304752
7.735771 1.457495 -1.246783
9.145810 1.719855 -1.142647
46.467731 8.729784 7.488519
11.225981 2.108999 -0.999328
14.536371 2.725662 -0.775096
5.090337 0.945277 -1.387270
5.746408 1.065035 -1.349256
46.679420 8.643104 2.487947
6.592459 1.220652 -1.303226
46.574947 8.615354 4.143907
7.709731 1.424741 -1.241777
9.147853 1.687201 -1.142160
11.194086 2.062582 -0.995842
14.510440 2.668405 -0.773212
5.097407 0.928194 -1.388305
5.746257 1.044274 -1.348357
46.709309 8.480097 2.487947
6.600543 1.198332 -1.303989
46.604740 8.452711 4.143907
7.702995 1.395709 -1.239900
9.177128 1.659495 -1.145085
11.232587 2.029164 -0.998630
14.519667 2.617734 -0.773212
5.093009 0.909038 -1.386235
5.761378 1.026259 -1.351056
46.541985 8.282019 2.477480
6.596954 1.173910 -1.302462
46.535881 8.272553 4.135191
7.719490 1.370882 -1.241777
9.151590 1.621910 -1.141185
11.208213 1.984382 -0.995842
14.509048 2.563563 -0.772165
5.092345 0.890590 -1.385200
5.764926 1.006140 -1.351056
46.570610 8.119515 2.477480
6.601012 1.150876 -1.302462
7.732013 1.345280 -1.243028
9.141550 1.587236 -1.139235
11.211146 1.944562 -0.995493
14.525780 2.514260 -0.772583
5.087806 0.871503 -1.383129
5.760719 0.984698 -1.349256
46.527798 7.944790 2.473711
6.601119 1.127165 -1.301699
46.494305 7.930697 4.126476
7.728872 1.316957 -1.241777
9.158777 1.557311 -1.140697
11.182508 1.899413 -0.992355
14.530530 2.462868 -0.772374
5.106059 0.856295 -1.387270
5.752589 0.962652 -1.346557
46.500088 7.773119 2.470781
6.597267 1.102822 -1.300173
7.725629 1.288668 -1.240525
9.152408 1.523382 -1.139235
46.348072 7.706117 7.441588
11.204793 1.862978 -0.993750
46.235413 7.679094 9.110367
14.511452 2.407566 -0.770909
5.097579 0.836588 -1.384164
5.767452 0.944460 -1.349256
46.651749 7.639543 2.477480
6.589452 1.077884 -1.297883
7.722281 1.260425 -1.239274
9.149832 1.490146 -1.138260
11.203362 1.822583 -0.993053
46.261936 7.517665 9.110367
14.523711 2.357533 -0.771118
46.187981 7.489123 10.802600
5.096654 0.818175 -1.383129
5.755160 0.922859 -1.345657
6.604805 1.056735 -1.300173
7.734221 1.236055 -1.240525
9.135121 1.456667 -1.135822
11.205719 1.782835 -0.992704
14.499889 2.304338 -0.769443
46.212566 7.335904 10.802600
5.110790 0.803070 -1.386235
5.762197 0.903366 -1.346557
6.588877 1.031791 -1.296356
7.754102 1.211487 -1.243028
9.159762 1.427835 -1.138260
11.203696 1.744437 -0.992007
14.523633 2.256166 -0.770281
5.102105 0.783467 -1.383129
5.773020 0.884429 -1.348357
6.576913 1.006410 -1.293303
7.727040 1.179641 -1.238023
9.164691 1.395850 -1.138260
11.186081 1.701720 -0.989915
14.480079 2.197666 -0.767559
5.089525 0.763359 -1.378988
5.772217 0.863696 -1.347457
6.592037 0.985186 -1.295593
7.707665 1.149168 -1.234268
9.157727 1.362100 -1.136797
46.220287 6.866437 7.400915
11.188010 1.662079 -0.989566
46.097080 6.839911 9.058467
14.479760 2.145933 -0.767141
5.115096 0.748948 -1.385200
5.763628 0.841851 -1.344757
46.382713 6.766513 2.456545
6.591550 0.961604 -1.294830
7.742906 1.126809 -1.239274
46.252972 6.722856 5.738828
9.174212 1.331834 -1.138260
46.157959 6.692595 7.387149
11.189800 1.622446 -0.989218
46.050720 6.668840 9.044728
14.471350 2.093092 -0.766303
46.021179 6.648163 10.735115
5.113854 0.730541 -1.384164
5.774248 0.822827 -1.346557
46.406048 6.604553 2.456545
6.598754 0.939141 -1.295593
7.727234 1.097000 -1.236145
46.213261 6.552432 5.731028
9.170945 1.298687 -1.137285
46.063679 6.514844 7.368377
11.195395 1.583379 -0.989218
46.019291 6.500352 9.034043
14.474611 2.042002 -0.766094
