# This PCD file was generated using the MATLAB® pcwrite function
# from Computer Vision Toolbox®.
# .PCD v.7 - Point Cloud Data file format
VERSION .7
FIELDS x y z
SIZE 4 4 4
TYPE F F F
COUNT 1 1 1
WIDTH 1642
HEIGHT 1
VIEWPOINT 0 0 0 1 0 0 0
POINTS 1642
DATA ascii
10.256143 -2.746207 -0.928906
11.031631 -2.953853 2.219872
12.834994 -3.439126 -0.696382
4.890423 -1.319538 -1.357247
5.495213 -1.484780 -1.314164
6.237104 -1.686404 -1.255905
7.255079 -1.964364 -1.190466
8.602477 -2.332405 -1.094387
10.020082 -2.718640 -0.908337
12.819057 -3.482861 -0.696173
9.916497 -2.699829 2.753835
4.885787 -1.336600 -1.357247
5.489997 -1.503953 -1.314164
6.227394 -1.707127 -1.255142
7.240558 -1.987586 -1.189215
8.598111 -2.363472 -1.094874
9.776164 -2.689133 -0.887071
11.150812 -3.069351 2.248112
12.822227 -3.531830 -0.697010
9.801080 -2.701508 2.347139
22.143625 -6.107688 -0.400952
4.877368 -1.352614 -1.356212
5.488469 -1.524150 -1.315064
6.202480 -1.723598 -1.251325
7.225964 -2.010730 -1.187963
8.582160 -2.391339 -1.093899
9.555606 -2.664378 -0.867897
11.075735 -3.090317 2.235137
12.809819 -3.576566 -0.697010
22.122171 -6.184947 -0.400952
4.880056 -1.371722 -1.358282
9.153355 -2.574616 0.165972
5.475612 -1.541188 -1.313264
6.215324 -1.750561 -1.255142
7.203691 -2.031651 -1.185461
8.562298 -2.418045 -1.092437
9.511737 -2.687964 -0.864759
12.774196 -3.614733 -0.695754
9.040654 -2.561656 -0.164018
4.878955 -1.389807 -1.359318
9.030849 -2.574209 0.163913
5.473947 -1.561361 -1.314164
6.212950 -1.773323 -1.255905
8.929459 -2.550364 0.812466
7.215549 -2.062213 -1.188589
8.553805 -2.447918 -1.092437
9.471650 -2.712374 -0.861970
12.749981 -3.655998 -0.695126
8.985529 -2.579954 -0.163180
4.870361 -1.405758 -1.358282
8.927672 -2.578528 0.162203
5.449742 -1.575048 -1.309665
9.086653 -2.627882 0.495726
6.191635 -1.790636 -1.252852
8.866914 -2.566010 0.807585
7.193127 -2.082991 -1.186086
8.549022 -2.478867 -1.092924
9.138746 -2.651592 -0.832512
12.752485 -3.704939 -0.695964
9.749306 -2.834280 2.343990
8.957268 -2.605717 -0.162831
4.865425 -1.422750 -1.358282
8.885990 -2.600129 0.161609
5.459173 -1.598442 -1.313264
9.018008 -2.642177 0.492481
6.170274 -1.807822 -1.249799
8.834960 -2.590220 0.805493
7.200976 -2.112536 -1.188589
8.521270 -2.503099 -1.090487
9.065890 -2.666517 -0.826759
11.065411 -3.254629 2.242006
9.045429 -2.662215 -0.494156
9.116858 -2.684966 2.194173
8.955790 -2.639230 -0.162971
4.856473 -1.439475 -1.357247
8.838515 -2.619766 0.160911
5.446086 -1.615273 -1.311465
8.953204 -2.657160 0.489446
6.174899 -1.833779 -1.252089
8.817767 -2.620314 0.804796
7.189398 -2.137789 -1.187963
8.493454 -2.527167 -1.088050
9.071803 -2.702698 -0.828154
9.041353 -2.697063 -0.494470
9.655950 -2.882234 2.326444
8.812392 -2.630438 -0.160527
4.844018 -1.454196 -1.355177
8.790550 -2.640636 0.160213
5.451327 -1.638588 -1.314164
8.940048 -2.687246 0.489237
6.179741 -1.858715 -1.254378
8.842909 -2.661414 0.807934
7.189457 -2.165150 -1.189215
8.430920 -2.542233 -1.081225
9.296929 -2.805138 -0.849594
9.028059 -2.727451 -0.494261
8.770616 -2.651346 -0.159934
4.846305 -1.473344 -1.357247
8.774093 -2.667446 0.160073
5.434677 -1.653254 -1.311465
8.819793 -2.684703 0.483166
6.199508 -1.888283 -1.259721
8.829753 -2.691103 0.807585
7.174681 -2.186675 -1.187963
13.407130 -4.088738 1.721039
8.236374 -2.513397 -1.057338
13.396770 -4.090690 2.218554
8.896467 -2.718225 -0.813860
13.328867 -4.072500 2.709106
8.890996 -2.718250 -0.487248
9.356584 -2.862381 2.258959
8.767043 -2.683701 -0.160039
13.282805 -4.068567 3.722336
4.845086 -1.490543 -1.358282
8.766640 -2.698645 0.160108
5.443772 -1.676803 -1.315064
8.763123 -2.699237 0.480549
6.170699 -1.901892 -1.255142
8.778894 -2.707451 0.803750
7.155678 -2.208211 -1.186086
13.388984 -4.134342 1.720552
8.117546 -2.508143 -1.043202
13.341609 -4.122264 2.211671
8.834107 -2.731234 -0.808980
13.344580 -4.128285 2.715212
8.812767 -2.728007 -0.483480
13.359905 -4.138136 3.228947
8.756186 -2.712167 -0.160004
4.839853 -1.507446 -1.358282
8.767187 -2.730675 0.160283
5.430740 -1.692527 -1.313264
8.740300 -2.725648 0.479816
6.149029 -1.918742 -1.252089
8.773194 -2.739266 0.804099
7.129460 -2.226041 -1.182958
7.953821 -2.486480 -1.023215
8.813111 -2.758483 -0.807934
11.224866 -3.513357 2.286273
8.803673 -2.757216 -0.483480
8.771470 -2.750493 -0.160457
4.838247 -1.525493 -1.359318
8.760935 -2.763994 0.160353
5.417067 -1.710074 -1.311465
8.759302 -2.765160 0.481386
6.138549 -1.939011 -1.251325
7.143855 -2.259304 -1.186712
7.835323 -2.479492 -1.009078
8.824322 -2.795850 -0.809851
8.804930 -2.793088 -0.484108
10.279521 -3.260856 2.489758
8.798029 -2.792589 -0.161121
10.353174 -3.288198 2.910679
4.833161 -1.541529 -1.359318
8.822207 -2.815525 0.161644
5.418792 -1.730399 -1.313264
8.771012 -2.800874 0.482538
6.143306 -1.962942 -1.253615
7.136323 -2.282982 -1.186712
7.732528 -2.475202 -0.996891
8.826385 -2.828745 -0.810897
8.810834 -2.827153 -0.484945
10.261229 -3.292545 2.487959
17.632656 -5.661226 -0.323253
4.820669 -1.555175 -1.357247
5.405606 -1.745963 -1.311465
8.774486 -2.835773 0.483270
6.147972 -1.986926 -1.255905
7.121196 -2.304202 -1.185461
7.629417 -2.471589 -0.984704
8.877605 -2.877658 -0.816475
10.900500 -3.535478 2.227504
12.608451 -4.091869 -0.694708
10.244113 -3.326538 2.486609
17.711683 -5.754875 -0.325069
4.811538 -1.570794 -1.356212
17.377573 -5.676510 0.319100
5.403183 -1.766032 -1.312364
8.811992 -2.881905 0.485887
6.129803 -2.004712 -1.253615
7.120618 -2.331504 -1.186712
7.601880 -2.492022 -0.982267
9.526322 -3.124727 -0.877135
11.082090 -3.637177 2.267193
12.597887 -4.137102 -0.694917
9.540032 -3.134758 2.318346
21.942911 -7.214462 -0.403185
10.234352 -3.366863 2.886868
4.802357 -1.586368 -1.355177
16.379839 -5.413942 0.301124
5.411787 -1.789777 -1.315964
17.366739 -5.746862 0.958690
6.122767 -2.026097 -1.253615
7.108686 -2.355103 -1.186086
10.644195 -3.528476 1.376880
7.585598 -2.516042 -0.981292
9.515356 -3.157961 -0.877135
12.583369 -4.181052 -0.694917
10.335292 -3.436090 2.514503
9.731297 -3.239058 2.748141
4.796790 -1.603122 -1.355177
16.326704 -5.459670 0.300496
5.398115 -1.806184 -1.314164
16.543543 -5.538603 0.914309
6.130551 -2.052444 -1.256668
7.092930 -2.377392 -1.184835
7.588061 -2.546295 -0.982754
9.502386 -3.190523 -0.876961
9.675537 -3.250539 1.984032
12.572484 -4.226223 -0.695126
10.515329 -3.536756 2.561293
16.634592 -5.598159 -0.306360
9.688807 -3.262527 2.739341
4.802145 -1.623568 -1.358282
16.515915 -5.587116 0.304335
5.388085 -1.823766 -1.313264
16.406822 -5.556594 0.907820
6.097316 -2.065014 -1.251325
7.047174 -2.389450 -1.178577
7.575367 -2.571491 -0.982267
9.377999 -3.185228 -0.866502
9.675285 -3.288084 1.986322
9.530279 -3.240660 -0.527547
10.620993 -3.613612 2.590086
16.614950 -5.656190 -0.306360
4.789137 -1.637820 -1.356212
16.431982 -5.622721 0.303148
5.381686 -1.842563 -1.313264
16.383549 -5.612537 0.907610
6.119788 -2.096465 -1.257431
6.971522 -2.390965 -1.167314
7.551325 -2.592761 -0.980317
9.331022 -3.205644 -0.863190
9.479247 -3.260266 -0.525348
10.615684 -3.653201 2.591886
17.383549 -5.985636 -0.320915
9.525155 -3.281634 2.699483
4.787042 -1.655791 -1.357247
16.363123 -5.663041 0.302241
5.382587 -1.863888 -1.315064
16.446894 -5.698462 0.912216
6.090172 -2.110101 -1.252852
9.696648 -3.361556 0.897878
6.866086 -2.381622 -1.151045
9.562446 -3.318772 1.242824
7.534727 -2.616499 -0.979342
9.450831 -3.287429 -0.524406
10.024963 -3.489100 2.450617
9.693493 -3.375631 -0.179166
9.508169 -3.312956 2.697930
4.784880 -1.673766 -1.358282
9.669303 -3.384247 0.178817
5.372370 -1.881377 -1.314164
9.660111 -3.384816 0.536444
6.071652 -2.127452 -1.250562
9.620928 -3.372972 0.891952
6.745890 -2.366343 -1.132273
9.569532 -3.358705 1.245261
7.518057 -2.640154 -0.978367
9.331435 -3.278796 1.566535
9.268941 -3.256837 -0.859530
9.644027 -3.390523 1.987085
9.444950 -3.322387 -0.524720
9.663465 -3.401147 2.365135
9.651471 -3.398819 -0.178608
4.775366 -1.689170 -1.357247
9.623499 -3.405970 0.178189
5.369444 -1.901420 -1.315064
9.638824 -3.415180 0.535920
6.078993 -2.153878 -1.253615
9.624119 -3.411860 0.893346
6.618438 -2.347612 -1.112249
9.628839 -3.417318 1.254523
7.520019 -2.670366 -0.979830
9.424170 -3.348384 1.584056
9.259394 -3.289839 -0.859704
9.613633 -3.417590 1.983269
9.455877 -3.363368 -0.525976
9.642353 -3.431592 2.362886
9.633897 -3.430476 -0.178503
9.630393 -3.431123 2.739341
4.769441 -1.705829 -1.357247
9.619082 -3.442236 0.178329
5.351766 -1.916209 -1.312364
9.638126 -3.452847 0.536548
6.082527 -2.179058 -1.255905
9.634656 -3.453501 0.895438
6.550702 -2.349361 -1.102237
9.661696 -3.467000 1.260373
7.518125 -2.699283 -0.980805
9.059203 -3.254371 1.524610
9.259105 -3.326183 -0.860750
9.625663 -3.459760 1.988230
9.430923 -3.391623 -0.525244
9.621148 -3.461929 2.360636
9.638797 -3.470180 -0.178817
9.571102 -3.447696 2.725882
4.770724 -1.725095 -1.359318
16.346395 -5.914085 0.303428
5.348709 -1.936206 -1.313264
9.669206 -3.502112 0.538956
6.063808 -2.196265 -1.253615
6.475607 -2.347973 -1.090974
7.504925 -2.724155 -0.980317
8.037733 -2.919142 1.354410
9.247437 -3.358482 -0.860750
9.452995 -3.435005 1.955029
9.404011 -3.419063 -0.524406
10.048525 -3.655378 2.468613
21.611517 -7.865949 -0.401440
4.750158 -1.736431 -1.355177
5.349238 -1.957543 -1.315064
6.056105 -2.217418 -1.253615
10.085496 -3.694760 0.939713
6.378345 -2.337930 -1.075956
7.487916 -2.747600 -0.979342
8.057164 -2.958075 1.359416
9.237528 -3.391428 -0.860924
9.429891 -3.463919 1.952739
9.395767 -3.453246 -0.524616
10.388700 -3.820239 2.555444
21.542643 -7.926149 -0.400672
10.473199 -3.855462 2.990396
4.758565 -1.758358 -1.359318
5.338717 -1.974851 -1.314164
6.052011 -2.239908 -1.254378
6.333099 -2.346455 -1.069699
7.482002 -2.775102 -0.979830
9.728374 -3.610221 1.643501
9.220029 -3.421573 -0.860402
9.398051 -3.493237 2.314746
21.529839 -8.006875 -0.400952
9.905641 -3.685843 2.831998
4.752398 -1.774958 -1.359318
5.324490 -1.990745 -1.312364
6.036799 -2.258268 -1.252852
6.339669 -2.374089 -1.072202
7.494574 -2.809563 -0.982754
9.247205 -3.468430 -0.864062
12.421072 -4.663826 -0.695336
9.343842 -3.510258 2.304399
21.509245 -8.084794 -0.401091
9.724551 -3.657156 2.783858
4.749788 -1.792901 -1.360353
27.299513 -10.310181 0.509366
5.321154 -2.010696 -1.313264
6.017861 -2.275161 -1.250562
6.331343 -2.396204 -1.072202
17.920338 -6.785831 2.352810
7.488434 -2.837114 -0.983242
9.439976 -3.578371 -0.883236
9.415128 -3.570832 1.957319
12.393512 -4.702904 -0.694708
21.482317 -8.156075 -0.401091
4.739891 -1.808093 -1.359318
27.274515 -10.404217 0.509540
5.314457 -2.028331 -1.313264
6.008049 -2.295452 -1.250181
6.327053 -2.418597 -1.072828
18.090563 -6.918970 2.378159
7.464153 -2.856255 -0.981292
8.912182 -3.412146 1.511470
9.345562 -3.579941 -0.875567
9.432569 -3.613270 1.963425
12.375984 -4.743261 -0.694603
21.453716 -8.231013 -0.401091
4.748290 -1.829357 -1.363459
5.296435 -2.042662 -1.310565
5.958277 -2.299108 -1.241403
6.329628 -2.444939 -1.074705
7.454137 -2.882293 -0.981292
9.400534 -3.636792 -0.881842
17.658876 -6.835248 3.680706
12.385426 -4.796531 -0.696068
8.705740 -3.373238 2.155481
21.443499 -8.313079 -0.401440
4.720273 -1.837511 -1.357247
5.311062 -2.069628 -1.315964
5.891683 -2.297071 -1.229192
6.317375 -2.465582 -1.074079
18.219336 -7.114414 2.401557
7.458823 -2.914074 -0.983242
18.620762 -7.278657 3.166547
9.387781 -3.669584 -0.881842
18.037157 -7.054163 3.764662
12.364888 -4.838279 -0.695859
21.414349 -8.387880 -0.401440
9.065255 -3.552635 2.608896
4.721021 -1.856805 -1.359318
5.300179 -2.086727 -1.315064
5.828829 -2.296037 -1.217743
6.297703 -2.483271 -1.072202
17.921095 -7.070148 2.365484
7.463377 -2.945923 -0.985192
9.374915 -3.702331 -0.881842
9.357697 -3.697419 1.955792
12.359069 -4.885817 -0.696487
21.358910 -8.452278 -0.400952
9.094111 -3.600613 2.620802
4.710920 -1.871846 -1.358282
5.289241 -2.103775 -1.314164
5.766055 -2.294592 -1.206295
6.290832 -2.505970 -1.072515
10.822610 -4.313405 1.430503
7.449360 -2.970486 -0.984704
9.336027 -3.724697 -0.879401
9.366612 -3.738795 1.960372
12.323390 -4.921522 -0.695440
21.336702 -8.529752 -0.401091
9.741569 -3.896349 2.811293
4.697186 -1.885400 -1.356212
5.281865 -2.122225 -1.314164
5.685147 -2.285414 -1.191030
6.278381 -2.526439 -1.071889
10.884827 -4.382294 1.440740
7.416851 -2.987571 -0.981780
9.289705 -3.743858 -0.876264
12.313544 -4.967497 -0.695859
21.299381 -8.601184 -0.400952
8.860976 -3.580066 2.560756
4.722802 -1.914851 -1.365529
5.278036 -2.142115 -1.315064
5.593460 -2.271269 -1.173475
6.289654 -2.556522 -1.075331
7.421087 -3.019428 -0.983729
8.747289 -3.560801 1.495826
9.254436 -3.767248 -0.874172
12.292431 -5.008942 -0.695650
18.397266 -7.500295 4.586752
21.254414 -8.669438 -0.400672
4.698211 -1.924004 -1.360353
5.252495 -2.153134 -1.310565
5.560068 -2.280350 -1.168133
18.039852 -7.402360 1.705986
6.275210 -2.576210 -1.074392
7.403156 -3.042295 -0.982754
17.964724 -7.386191 3.076441
9.244915 -3.801044 -0.874521
10.085885 -4.148867 2.119888
12.278565 -5.053339 -0.695859
21.238815 -8.749671 -0.400952
4.677185 -1.934485 -1.356212
5.266554 -2.180401 -1.315964
5.497660 -2.277205 -1.156684
6.266179 -2.598099 -1.074392
7.403493 -3.072684 -0.984217
9.235271 -3.834820 -0.874869
10.187375 -4.232253 2.144312
12.268228 -5.099235 -0.696278
21.233990 -8.834509 -0.401440
4.673969 -1.952289 -1.357247
5.251719 -2.195765 -1.314164
5.442587 -2.276683 -1.146762
6.249783 -2.616904 -1.073141
18.314713 -7.672480 2.438118
7.400045 -3.101578 -0.985192
17.759699 -7.447259 3.050160
9.254901 -3.880902 -0.878007
12.224572 -5.131206 -0.694812
18.371618 -7.715172 4.600249
21.162464 -8.891535 -0.400672
9.739758 -4.094217 2.830963
4.670686 -1.970093 -1.358282
5.215298 -2.201956 -1.306966
5.409287 -2.284972 -1.141420
6.247888 -2.641782 -1.074392
7.389174 -3.127390 -0.985192
9.277991 -3.928722 -0.881493
12.210263 -5.175406 -0.695022
21.131298 -8.965351 -0.400672
4.674445 -1.990927 -1.361388
5.214750 -2.223204 -1.308765
5.401278 -2.303840 -1.141420
6.238628 -2.663575 -1.074392
7.378212 -3.153164 -0.985192
9.286204 -3.970484 -0.883585
18.117146 -7.750052 3.830300
12.192123 -5.217996 -0.695022
21.114580 -9.045358 -0.400952
4.656818 -2.002653 -1.358282
43.058517 -18.526110 0.818204
5.192638 -2.235229 -1.305166
5.382384 -2.318021 -1.139130
6.232921 -2.686899 -1.075018
42.910290 -18.506731 5.737853
7.378097 -3.183618 -0.986654
42.773643 -18.465509 7.379014
9.279605 -4.006033 -0.884282
9.896592 -4.274437 2.095464
12.177502 -5.262107 -0.695231
17.424070 -7.532848 4.382496
21.082876 -9.119007 -0.400952
4.653344 -2.020435 -1.359318
5.175869 -2.249458 -1.302917
42.927364 -18.665350 2.453196
5.385063 -2.341492 -1.141420
18.140305 -7.891394 1.730739
6.216259 -2.705487 -1.073766
7.366939 -3.209353 -0.986654
10.327284 -4.501151 1.784292
9.294788 -4.051137 -0.887071
17.684685 -7.711550 3.750160
12.162721 -5.306180 -0.695440
17.994204 -7.853996 4.532764
21.058247 -9.195745 -0.401091
4.646263 -2.036666 -1.359318
5.119803 -2.246371 -1.290769
5.366071 -2.355540 -1.139130
6.203159 -2.725580 -1.073141
7.352057 -3.233450 -0.986167
18.089891 -7.959743 3.130254
9.295179 -4.089977 -0.888466
18.052965 -7.947256 3.834116
12.125846 -5.340553 -0.694394
18.076410 -7.968879 -0.344825
4.635592 -2.051308 -1.358282
18.041929 -7.987549 0.344406
5.078076 -2.249233 -1.282221
18.028118 -7.988962 1.033426
5.364995 -2.377439 -1.140656
18.070200 -8.011383 1.729344
6.208054 -2.753624 -1.075644
18.001230 -7.988326 2.418132
7.340724 -3.259094 -0.986167
18.141432 -8.058123 3.144020
9.266280 -4.115928 -0.887071
18.111231 -8.048493 3.852434
12.114430 -5.386094 -0.694812
17.974545 -7.995265 4.541762
18.055794 -8.035181 -0.344964
4.631931 -2.069053 -1.359318
5.025719 -2.247060 -1.270973
18.018354 -8.059999 1.034473
5.356664 -2.396152 -1.140656
6.202010 -2.776891 -1.076269
7.314812 -3.278203 -0.984217
9.237311 -4.141727 -0.885677
17.925392 -8.040954 3.818852
12.091910 -5.426712 -0.694603
20.887831 -9.382981 -0.399695
9.686158 -4.353132 2.845457
4.621158 -2.083620 -1.358282
4.957453 -2.237334 -1.255677
5.353635 -2.417259 -1.141801
6.195879 -2.800151 -1.076895
7.328646 -3.315172 -0.987629
17.660013 -7.992362 3.070183
9.208278 -4.167375 -0.884282
12.087449 -5.475481 -0.695440
9.252902 -4.193408 2.345340
20.927801 -9.488868 -0.401091
9.625161 -4.366167 2.831998
4.596273 -2.091737 -1.353106
4.907051 -2.235238 -1.244879
5.357670 -2.441631 -1.144472
18.043325 -8.226621 1.734922
6.187864 -2.822581 -1.077208
7.317029 -3.340733 -0.987629
10.358557 -4.731587 1.803690
9.179176 -4.192869 -0.882888
12.068262 -5.517640 -0.695440
9.266562 -4.238651 2.352538
20.883642 -9.556870 -0.400882
9.588785 -4.390089 2.825786
4.606499 -2.115831 -1.358282
4.860265 -2.234445 -1.234981
5.349114 -2.460318 -1.144472
6.172591 -2.841686 -1.076269
7.323352 -3.374562 -0.990067
42.607513 -19.642332 7.430951
9.108394 -4.199027 -0.877484
12.052557 -5.561407 -0.695650
18.091173 -8.351632 4.600249
20.839262 -9.624677 -0.400672
4.613107 -2.138398 -1.362424
4.802940 -2.228431 -1.222384
5.342275 -2.479801 -1.144854
6.157260 -2.860718 -1.075331
7.300728 -3.395082 -0.988604
42.581673 -19.810938 7.438460
9.034068 -4.203061 -0.871732
12.033070 -5.603444 -0.695650
9.003574 -4.194610 2.293151
20.812790 -9.700740 -0.400812
4.595116 -2.149576 -1.359318
4.759834 -2.228656 -1.213386
5.328252 -2.495936 -1.143709
6.163333 -2.889740 -1.078146
7.288832 -3.420546 -0.988604
42.505013 -19.947001 7.436583
9.015735 -4.232877 -0.871383
12.002591 -5.640316 -0.695022
8.914808 -4.191190 2.274255
20.780506 -9.769705 -0.400812
4.566620 -2.155707 -1.353106
4.733035 -2.235274 -1.208437
5.319507 -2.514519 -1.143709
6.150145 -2.908473 -1.077521
7.291803 -3.451492 -0.990554
42.474403 -20.113848 7.443465
9.000903 -4.264322 -0.871383
17.374849 -8.231613 3.737185
11.991040 -5.683509 -0.695440
20.688461 -9.814754 -0.399695
4.555958 -2.169177 -1.352071
4.698815 -2.239207 -1.201689
5.318228 -2.535525 -1.145236
6.138172 -2.929073 -1.077208
7.276128 -3.475213 -0.990067
42.482357 -20.299461 7.457232
8.990309 -4.295864 -0.871732
11.963921 -5.721884 -0.695022
8.917715 -4.266913 2.282353
20.711796 -9.914541 -0.400812
4.558806 -2.190087 -1.355177
4.676920 -2.248839 -1.198089
5.312884 -2.555776 -1.145999
6.133250 -2.953052 -1.078146
7.267529 -3.502314 -0.990554
8.973464 -4.326355 -0.871557
11.947472 -5.765347 -0.695231
8.872932 -4.283613 2.274705
20.619438 -9.958947 -0.399695
4.540703 -2.200931 -1.352071
42.652378 -20.683289 0.827419
4.658522 -2.260047 -1.195390
5.309228 -2.576878 -1.147144
6.130011 -2.977896 -1.079398
7.251689 -3.525925 -0.990067
8.967266 -4.362009 -0.872429
9.209632 -4.481893 1.990901
11.934459 -5.810513 -0.695650
8.873693 -4.322239 2.278754
20.656454 -10.065901 -0.401091
4.524316 -2.212524 -1.349483
42.579918 -20.832050 0.827419
4.666358 -2.284006 -1.199439
5.280806 -2.585897 -1.142946
6.107163 -2.993190 -1.077208
17.907398 -8.780497 2.448843
7.225080 -3.544222 -0.988117
8.955563 -4.395040 -0.872778
11.924858 -5.857420 -0.696278
8.860301 -4.354048 2.279204
20.549410 -10.102654 -0.399695
9.473680 -4.659575 2.828892
4.459393 -2.200097 -1.332400
27.103668 -13.377812 0.527586
4.651368 -2.296829 -1.197639
5.282309 -2.609532 -1.145236
6.101990 -3.017116 -1.078146
7.234014 -3.579987 -0.991042
18.232185 -9.026751 3.222238
8.938380 -4.425390 -0.872603
11.907919 -5.900784 -0.696487
8.860763 -4.392739 2.283253
20.585678 -10.209864 -0.401091
4.417097 -2.198434 -1.322048
4.643322 -2.313051 -1.197639
5.285468 -2.634085 -1.147907
6.087885 -3.036635 -1.077521
7.225027 -3.606990 -0.991529
42.358421 -21.156065 7.499156
8.924662 -4.457454 -0.872778
17.978411 -8.983302 3.906624
11.890821 -5.944100 -0.696696
20.542761 -10.278081 -0.400952
4.374866 -2.196503 -1.311695
4.635219 -2.329245 -1.197639
5.276240 -2.652519 -1.147907
6.084307 -3.061418 -1.078772
7.219483 -3.635759 -0.992504
16.468105 -8.297005 2.920632
8.903709 -4.485890 -0.872255
11.884267 -5.992765 -0.697534
20.531752 -10.362339 -0.401440
4.322363 -2.189067 -1.298236
4.623584 -2.343649 -1.196740
5.268701 -2.671808 -1.148289
6.071822 -3.081744 -1.078459
7.196128 -3.655543 -0.991042
8.887997 -4.516943 -0.872255
11.845474 -6.025157 -0.696487
20.495455 -10.433946 -0.401440
4.280288 -2.186565 -1.287884
4.630991 -2.367758 -1.200789
5.255846 -2.688395 -1.147525
6.066302 -3.105620 -1.079398
7.200991 -3.689692 -0.993479
42.225964 -21.645330 7.515426
8.884586 -4.554302 -0.873475
17.907810 -9.183619 3.911966
11.842141 -6.075586 -0.697534
20.434006 -10.492637 -0.400952
4.246870 -2.188220 -1.280119
4.620965 -2.383016 -1.200339
5.241196 -2.704024 -1.146381
6.060690 -3.129495 -1.080337
7.184542 -3.712984 -0.992992
42.185242 -21.810740 7.521683
8.872173 -4.587117 -0.873823
8.828835 -4.566663 1.932132
11.826181 -6.119639 -0.697848
20.383049 -10.556543 -0.400672
4.215208 -2.190559 -1.272872
4.619535 -2.402728 -1.202138
5.240433 -2.726834 -1.148289
42.366787 -22.054754 4.178769
6.049730 -3.150632 -1.080337
7.178577 -3.741709 -0.993966
42.157898 -21.983433 7.530443
8.856108 -4.618059 -0.873823
11.811831 -6.164580 -0.698266
20.473692 -10.694289 -0.403185
4.175025 -2.188220 -1.263037
4.607667 -2.417028 -1.201239
5.236098 -2.747847 -1.149433
6.043941 -3.174486 -1.081275
7.172502 -3.770440 -0.994941
42.119370 -22.150686 7.537326
8.857568 -4.658218 -0.875567
11.776101 -6.198331 -0.697429
20.347776 -10.719089 -0.401440
4.133203 -2.184725 -1.252684
4.585423 -2.425807 -1.197639
5.233415 -2.769781 -1.150960
42.211788 -22.349991 4.178769
6.031078 -3.194639 -1.080962
7.148773 -3.789874 -0.993479
8.839494 -4.688175 -0.875392
11.775563 -6.250637 -0.698685
20.334959 -10.803186 -0.401929
4.115322 -2.193686 -1.249578
4.587243 -2.447302 -1.200339
5.216787 -2.784335 -1.149433
42.221394 -22.544123 4.187485
6.037314 -3.224980 -1.084091
7.142503 -3.818549 -0.994454
8.823075 -4.719002 -0.875392
11.753673 -6.291703 -0.698685
8.550055 -4.578737 2.239163
20.325329 -10.889213 -0.402487
4.077012 -2.191574 -1.240261
42.365246 -22.782730 0.839635
4.585537 -2.466993 -1.202138
5.198392 -2.797875 -1.147525
42.230156 -22.738594 4.196200
6.024281 -3.245097 -1.083778
7.125635 -3.841573 -0.993966
42.139427 -22.718212 7.582379
8.799534 -4.745988 -0.874695
11.731639 -6.332693 -0.698685
8.492867 -4.586331 2.228365
20.324297 -10.975556 -0.403185
4.072733 -2.207633 -1.241296
4.572192 -2.479398 -1.200789
5.204123 -2.824432 -1.150960
42.150524 -22.885870 4.196200
6.008278 -3.262229 -1.082839
7.109369 -3.863286 -0.993479
42.059872 -22.865168 7.582379
8.779414 -4.774772 -0.874346
11.721101 -6.377288 -0.699313
20.198050 -10.998619 -0.401440
4.072171 -2.224832 -1.243367
4.556670 -2.491604 -1.198989
5.194728 -2.841674 -1.150960
42.074402 -23.025517 4.196200
5.989924 -3.279387 -1.081588
7.109766 -3.895710 -0.995429
41.969410 -23.006151 7.580503
8.763532 -4.803859 -0.874346
11.698769 -6.418164 -0.699313
20.134996 -11.055583 -0.400952
4.074533 -2.244626 -1.246473
4.558184 -2.513139 -1.201689
5.193373 -2.864531 -1.152868
42.080990 -23.220371 4.204916
5.980170 -3.301231 -1.081901
7.092650 -3.918585 -0.994941
41.944168 -23.183088 7.590514
8.758916 -4.841167 -0.875567
11.676293 -6.458961 -0.699313
20.120775 -11.139359 -0.401440
4.064984 -2.257897 -1.245955
9.092872 -5.052716 0.181575
4.552790 -2.530929 -1.202588
5.167901 -2.874054 -1.149433
42.086731 -23.415554 4.213631
5.972062 -3.324007 -1.082527
7.065056 -3.935590 -0.992992
41.914753 -23.358206 7.599900
8.731522 -4.865892 -0.874521
11.674607 -6.511354 -0.700569
4.046964 -2.266409 -1.242849
9.066456 -5.079538 0.181400
4.538828 -2.543947 -1.201239
5.150987 -2.888235 -1.147907
42.004738 -23.562321 4.213631
5.970758 -3.350633 -1.084404
7.075506 -3.973837 -0.996404
41.853634 -23.515987 7.603654
8.723168 -4.901222 -0.875392
11.658772 -6.555982 -0.700988
4.045757 -2.284321 -1.244920
9.046929 -5.110172 0.181365
4.535010 -2.562651 -1.202588
5.151128 -2.911995 -1.150197
41.922234 -23.708801 4.213631
5.940114 -3.360755 -1.080962
7.071956 -4.004379 -0.997866
41.874416 -23.720356 7.622427
8.681737 -4.917893 -0.872952
11.625391 -6.590729 -0.700360
4.047832 -2.304163 -1.248025
8.989070 -5.118961 0.180563
4.514184 -2.571714 -1.199439
8.712578 -4.965537 0.525558
5.140932 -2.929958 -1.150197
41.925766 -23.904337 4.222347
5.930062 -3.382447 -1.081275
7.071726 -4.036914 -0.999816
41.794792 -23.868341 7.623053
8.565900 -4.891849 -0.863016
11.609250 -6.635233 -0.700778
19.963284 -11.419203 -0.401440
4.038089 -2.317317 -1.247508
8.643377 -4.962136 0.173966
4.500110 -2.584544 -1.198089
8.657092 -4.974028 0.523255
5.142589 -2.954731 -1.152868
8.669666 -4.983266 0.874869
5.925069 -3.407066 -1.082527
7.036946 -4.049693 -0.996891
41.831059 -24.083076 7.644953
8.507331 -4.897861 -0.858833
11.596401 -6.681699 -0.701407
4.043354 -2.339138 -1.251649
8.563698 -4.956218 0.172709
4.494434 -2.602189 -1.198989
8.582644 -4.971183 0.519801
5.118653 -2.964793 -1.149815
8.597054 -4.981534 0.869291
5.931940 -3.438625 -1.085968
7.019333 -4.072239 -0.996404
8.466058 -4.913527 -0.856392
11.569553 -6.720131 -0.701197
8.507487 -4.945514 -0.171767
4.013469 -2.340586 -1.244920
8.520436 -4.970964 0.172185
4.495422 -2.623756 -1.201689
8.499698 -4.962842 0.515823
5.103187 -2.979672 -1.148670
8.536604 -4.986390 0.864934
5.913078 -3.455324 -1.084717
7.018784 -4.104733 -0.998354
8.467772 -4.954116 -0.858310
8.522928 -4.990379 -0.517603
8.474646 -4.966082 -0.171452
4.015267 -2.360455 -1.248025
8.490967 -4.993580 0.171941
4.496313 -2.645361 -1.204388
8.458224 -4.978299 0.514358
5.094447 -2.998463 -1.149052
8.513995 -5.013124 0.864411
5.895874 -3.472935 -1.083778
7.018093 -4.137273 -1.000304
41.688869 -24.586031 7.665603
8.479603 -5.000850 -0.861273
8.486536 -5.008932 -0.516451
8.448650 -4.990549 -0.171278
4.016974 -2.380366 -1.251131
8.459723 -5.015030 0.171662
4.480347 -2.657064 -1.202588
8.435643 -5.004735 0.514044
5.097456 -3.024242 -1.152105
8.517004 -5.055017 0.866502
5.897304 -3.501563 -1.086281
7.000196 -4.159717 -0.999816
41.711464 -24.796005 7.685626
8.465520 -5.032455 -0.861622
8.462135 -5.034441 -0.516033
8.424306 -5.015918 -0.171138
4.006983 -2.393383 -1.250614
8.437016 -5.041453 0.171557
4.462682 -2.667688 -1.200339
8.407836 -5.028001 0.513416
5.083499 -3.040002 -1.151342
8.489048 -5.078578 0.865457
5.885045 -3.522127 -1.086281
6.982227 -4.182087 -0.999329
41.641602 -24.951607 7.688755
8.519681 -5.104985 -0.868943
8.447935 -5.066003 -0.516242
8.427321 -5.057642 -0.171557
4.005224 -2.411341 -1.252684
8.436497 -5.081190 0.171906
4.465027 -2.690289 -1.203488
8.378261 -5.050102 0.512683
5.064449 -3.052660 -1.149433
5.879481 -3.546729 -1.087533
6.970985 -4.208487 -0.999816
41.655708 -25.158083 7.707527
8.588790 -5.187224 -0.877833
8.604548 -5.200841 -0.526918
8.430147 -5.099447 -0.171976
3.988525 -2.420296 -1.250096
8.353751 -5.071176 0.170580
4.452277 -2.703835 -1.202588
8.357167 -5.077243 0.512474
5.062152 -3.075417 -1.151342
41.752750 -25.376087 4.274641
5.878880 -3.574415 -1.089723
6.969819 -4.241049 -1.001766
8.584246 -5.225461 -0.879227
8.651155 -5.270331 -0.530896
8.572790 -5.226694 -0.175257
3.973460 -2.430172 -1.248025
8.249006 -5.047079 0.168800
4.447799 -2.722412 -1.203938
8.325767 -5.098039 0.511636
5.056409 -3.096144 -1.152486
41.748863 -25.573713 4.283356
5.852892 -3.586657 -1.087220
6.944819 -4.259126 -1.000304
8.567652 -5.256435 -0.879401
3.969886 -2.447068 -1.249578
8.234742 -5.077942 0.168869
4.436610 -2.736898 -1.203488
8.302822 -5.123924 0.511322
5.053924 -3.118931 -1.154395
41.659344 -25.719288 4.283356
5.838656 -3.606028 -1.086907
6.936664 -4.287516 -1.001279
8.542473 -5.282120 -0.878704
11.431753 -7.074184 -0.704547
19.637602 -12.161598 -0.403185
3.972807 -2.468047 -1.253202
8.228856 -5.114045 0.169114
4.422065 -2.749281 -1.202138
8.283190 -5.151821 0.511218
5.044673 -3.137590 -1.154776
5.829388 -3.628474 -1.087533
6.921655 -4.311704 -1.001279
8.544274 -5.324551 -0.880796
11.393433 -7.105589 -0.703709
19.530569 -12.189839 -0.401859
3.962530 -2.480875 -1.252684
8.375343 -5.245698 0.172500
4.424000 -2.771943 -1.205288
8.283772 -5.192371 0.512369
5.032027 -3.154137 -1.154395
41.647568 -26.115343 4.300787
5.821707 -3.651949 -1.088471
6.896475 -4.329506 -0.999816
41.544861 -26.091368 7.770101
8.529010 -5.356463 -0.881145
11.371943 -7.147442 -0.703919
19.552219 -12.298398 -0.403185
3.952213 -2.493660 -1.252167
4.415945 -2.788409 -1.205738
5.019327 -3.170635 -1.154013
41.556156 -26.260559 4.300787
5.818942 -3.678582 -1.090348
6.901451 -4.366289 -1.002741
8.501842 -5.380874 -0.880273
11.384044 -7.210606 -0.706221
17.855965 -11.314262 -0.368979
3.936963 -2.503295 -1.250096
17.812860 -11.326201 0.368455
4.403386 -2.800946 -1.204838
5.004916 -3.186027 -1.153250
41.571793 -26.473951 4.311943
5.808377 -3.698919 -1.090661
6.883585 -4.387017 -1.002254
8.476289 -5.406233 -0.879576
11.349968 -7.241872 -0.705593
17.792767 -11.361453 -0.368490
3.931893 -2.518420 -1.251131
17.687346 -11.333288 0.366675
4.388660 -2.813145 -1.203488
4.997629 -3.204726 -1.154013
41.544144 -26.650393 4.318218
5.792105 -3.717038 -1.090035
6.874911 -4.415309 -1.003229
8.488487 -5.453697 -0.882713
11.314540 -7.274965 -0.704965
17.546448 -11.286254 -0.364162
3.931195 -2.537368 -1.253720
17.488375 -11.287777 0.363324
4.380944 -2.828740 -1.203938
4.997954 -3.229610 -1.156684
5.786383 -3.740515 -1.091287
6.863565 -4.440239 -1.003716
8.467726 -5.482211 -0.882539
11.320527 -7.331989 -0.706850
17.498556 -11.341997 -0.363987
3.927618 -2.553550 -1.255273
17.457249 -11.354205 0.363499
4.375944 -2.847203 -1.205288
4.983926 -3.244024 -1.155921
5.769980 -3.758533 -1.090661
6.844698 -4.462002 -1.003229
8.457844 -5.515703 -0.883411
11.294866 -7.371460 -0.706850
17.458857 -11.403008 -0.363987
3.900904 -2.555598 -1.249578
17.424198 -11.419456 0.363638
4.375757 -2.868872 -1.207987
4.967647 -3.258172 -1.154776
41.434097 -27.186071 4.335649
5.768386 -3.786239 -1.092851
6.835719 -4.490228 -1.004204
8.426884 -5.537533 -0.882190
11.279078 -7.417426 -0.707478
17.450686 -11.484769 -0.364651
3.901634 -2.575585 -1.252684
17.415936 -11.501146 0.364302
4.372220 -2.888425 -1.209787
4.964433 -3.280905 -1.156684
41.505150 -27.440416 4.353081
5.743600 -3.798723 -1.090661
6.826623 -4.518444 -1.005178
8.414836 -5.573884 -0.883062
11.259777 -7.461165 -0.707896
17.470486 -11.585400 -0.365907
3.895384 -2.592009 -1.253720
4.339399 -2.888552 -1.203488
4.952374 -3.299078 -1.156684
5.729639 -3.819750 -1.090661
6.810810 -4.542245 -1.005178
8.403614 -5.608753 -0.883933
11.219068 -7.493508 -0.707059
19.122551 -12.777281 -0.401440
3.894335 -2.610969 -1.256308
4.333638 -2.907694 -1.204838
4.950609 -3.322910 -1.158974
5.719551 -3.841929 -1.091287
6.797411 -4.569393 -1.005666
8.400518 -5.649171 -0.885677
11.202784 -7.539316 -0.707687
19.117647 -12.870756 -0.402278
3.883597 -2.623466 -1.255790
4.327201 -2.924231 -1.205738
4.927596 -3.332472 -1.156303
5.718232 -3.868623 -1.093477
6.775645 -4.587457 -1.004691
8.384046 -5.680695 -0.886025
11.197560 -7.589873 -0.708943
19.056053 -12.926184 -0.401929
3.879667 -2.639590 -1.257343
4.323411 -2.943706 -1.207537
4.916518 -3.348794 -1.156303
41.282627 -28.129436 4.370512
5.707957 -3.890785 -1.094103
6.775990 -4.622267 -1.007128
8.345414 -5.694989 -0.883933
11.187492 -7.640177 -0.709990
19.010817 -12.992623 -0.401929
3.864056 -2.648747 -1.255273
4.321143 -2.964291 -1.209787
4.911273 -3.370378 -1.157829
41.266312 -28.329746 4.379227
5.689456 -3.907331 -1.093164
6.766358 -4.650389 -1.008103
8.332051 -5.728601 -0.884631
11.164046 -7.681445 -0.710199
18.942289 -13.043027 -0.401440
3.856376 -2.663317 -1.255790
4.304358 -2.974924 -1.207987
4.909168 -3.394201 -1.160119
41.249100 -28.530289 4.387943
5.679030 -3.929415 -1.093790
6.743555 -4.669459 -1.007128
8.325737 -5.769314 -0.886200
11.133883 -7.718093 -0.709990
18.919647 -13.125027 -0.401929
3.846589 -2.677433 -1.255790
4.297145 -2.992158 -1.208887
4.896695 -3.412171 -1.160119
5.672692 -3.955853 -1.095354
6.727215 -4.692970 -1.007128
8.300647 -5.794919 -0.885677
11.115342 -7.765713 -0.710618
18.850771 -13.174951 -0.401440
3.838801 -2.691953 -1.256308
4.289340 -3.010127 -1.209787
41.224442 -28.940788 2.639721
4.879933 -3.425859 -1.158974
5.670163 -3.983579 -1.097544
6.716465 -4.722162 -1.008103
8.301555 -5.838760 -0.887943
11.091434 -7.806763 -0.710827
18.766390 -13.218619 -0.400672
3.827803 -2.704222 -1.255790
4.278807 -3.025081 -1.209787
41.204700 -29.142176 2.644955
4.869548 -3.444006 -1.159356
5.656224 -4.003347 -1.097544
6.712900 -4.754757 -1.010053
8.269742 -5.859639 -0.886723
11.073891 -7.852365 -0.711455
18.756010 -13.309505 -0.401440
3.819914 -2.718687 -1.256308
4.269808 -3.041129 -1.210237
4.862293 -3.464400 -1.160500
5.637390 -4.019626 -1.096606
6.705957 -4.785079 -1.011516
8.254104 -5.891943 -0.887245
11.049664 -7.893293 -0.711664
18.709438 -13.374894 -0.401440
3.813541 -2.734256 -1.257343
4.259167 -3.056015 -1.210237
4.859740 -3.488220 -1.162790
5.629742 -4.043890 -1.097857
6.695661 -4.813092 -1.012491
8.254515 -5.935841 -0.889511
43.937447 -31.607155 10.520827
11.025286 -7.934148 -0.711874
18.646410 -13.428435 -0.401091
3.811804 -2.753207 -1.259931
4.248473 -3.070864 -1.210237
4.837989 -3.498261 -1.160500
5.612391 -4.061201 -1.097232
6.669172 -4.829450 -1.011028
8.236972 -5.966956 -0.889860
11.010461 -7.981964 -0.712711
18.615608 -13.505184 -0.401440
3.800608 -2.765360 -1.259413
41.073822 -29.896677 0.886757
4.244030 -3.090264 -1.212036
4.824162 -3.513971 -1.160119
5.599777 -4.081930 -1.097544
6.668311 -4.864399 -1.013466
8.222530 -6.000370 -0.890557
9.801856 -7.158123 -0.636091
3.783142 -2.772899 -1.256825
26.323181 -19.300957 0.569751
4.230074 -3.102754 -1.211136
4.815032 -3.533112 -1.160882
5.601416 -4.113144 -1.100673
6.651291 -4.887646 -1.013466
8.185483 -6.017235 -0.888814
10.970554 -8.070472 -0.713758
9.734689 -7.166547 -0.211000
3.776547 -2.788383 -1.257861
9.787762 -7.229353 0.212396
4.219218 -3.117501 -1.211136
4.804249 -3.551065 -1.161264
5.577496 -4.125623 -1.098796
6.640571 -4.915557 -1.014441
8.178839 -6.056442 -0.890383
10.955153 -8.118230 -0.714595
9.719252 -7.207630 -0.211209
3.773481 -2.805501 -1.259931
9.755712 -7.255803 0.212221
4.208857 -3.131475 -1.211136
4.795596 -3.569321 -1.162027
5.570121 -4.148817 -1.100047
6.614684 -4.930434 -1.012978
8.162439 -6.088528 -0.890906
10.931376 -8.156903 -0.714805
18.549406 -13.851499 -0.404093
3.766265 -2.821630 -1.260966
9.728724 -7.288615 0.212186
4.201019 -3.148485 -1.212036
4.787193 -3.590408 -1.163172
5.558037 -4.171576 -1.100673
6.613309 -4.965412 -1.015416
8.155473 -6.127754 -0.892475
10.895020 -8.192113 -0.714386
40.583141 -30.526100 11.723999
3.756393 -2.834759 -1.260966
9.695560 -7.319403 0.212047
4.192561 -3.166210 -1.212936
4.771498 -3.604730 -1.162408
5.549745 -4.195716 -1.101924
6.588732 -4.984827 -1.014441
8.135622 -6.157387 -0.892649
10.888647 -8.246975 -0.715851
40.507401 -30.691107 11.732997
3.743399 -2.845516 -1.259931
9.668360 -7.351992 0.212012
4.184586 -3.183185 -1.213836
4.757324 -3.620174 -1.162027
5.544494 -4.222244 -1.103802
6.590239 -5.022234 -1.017365
8.114079 -6.185749 -0.892649
10.847091 -8.275243 -0.715014
40.523952 -30.926899 11.768989
10.819283 -8.260005 -0.237597
3.725775 -2.852693 -1.257343
9.626762 -7.373536 0.211663
4.182730 -3.204884 -1.216535
40.802944 -31.263964 2.693941
4.754007 -3.643925 -1.164317
5.529722 -4.241571 -1.103802
6.573548 -5.044061 -1.017365
8.089276 -6.211608 -0.892300
10.824473 -8.317924 -0.715433
40.498436 -31.120485 11.791485
3.723944 -2.870930 -1.259931
9.600675 -7.404198 0.211628
4.159736 -3.209214 -1.212936
40.746487 -31.435698 2.697082
4.740344 -3.658470 -1.163935
5.506246 -4.252641 -1.101924
6.563068 -5.070686 -1.018340
8.082819 -6.249366 -0.893869
9.564712 -7.400452 -0.633788
10.670964 -8.259364 -0.235538
3.717455 -2.885633 -1.260966
9.576070 -7.435994 0.211628
4.142914 -3.218209 -1.211136
4.723535 -3.670555 -1.162790
5.501470 -4.278153 -1.103802
6.542195 -5.091126 -1.017853
8.059383 -6.276319 -0.893695
9.543269 -7.434584 -0.633998
3.714463 -2.905189 -1.263555
9.553205 -7.471839 0.211698
4.139329 -3.238655 -1.213386
4.703866 -3.683002 -1.161264
5.493527 -4.304380 -1.105366
6.521259 -5.111483 -1.017365
8.049968 -6.314250 -0.895089
9.494804 -7.455587 -0.210720
3.692158 -2.908574 -1.259413
40.762066 -32.122684 0.905885
4.122840 -3.250185 -1.212036
4.695606 -3.703047 -1.162408
5.475368 -4.321082 -1.104740
6.505597 -5.137810 -1.017853
8.035695 -6.348487 -0.895961
40.328991 -31.895658 11.870667
9.427941 -7.456433 -0.209813
3.680470 -2.920244 -1.258896
40.733643 -32.319828 0.907630
3.881558 -3.080899 -1.144101
4.691875 -3.726741 -1.164698
5.464101 -4.341673 -1.105366
6.497846 -5.166768 -1.019315
8.018163 -6.380219 -0.896484
40.283978 -32.077774 11.888663
9.433138 -7.514216 -0.210511
3.667747 -2.930020 -1.257861
3.864691 -3.089562 -1.142301
4.687158 -3.748410 -1.166606
5.448913 -4.360720 -1.105366
6.489068 -5.196865 -1.020778
7.993851 -6.404283 -0.896135
40.338985 -32.352314 11.938152
9.361369 -7.507922 -0.209464
3.665023 -2.948861 -1.260449
40.668503 -32.721695 0.911120
3.860497 -3.107249 -1.144101
4.675574 -3.765980 -1.166988
5.435960 -4.380005 -1.105679
6.465617 -5.213369 -1.019803
7.521784 -6.069314 -0.845585
8.107919 -6.544602 -0.546073
40.231480 -32.485905 11.938152
9.341327 -7.545580 -0.209603
3.656725 -2.962214 -1.260966
3.834489 -3.108433 -1.139602
4.650860 -3.771572 -1.163935
5.422172 -4.400197 -1.105992
6.453544 -5.240913 -1.020778
7.975232 -6.481295 -0.899099
10.577015 -8.598774 -0.714386
40.169243 -32.667946 11.953449
8.692903 -7.072090 -0.195607
3.639857 -2.970711 -1.258896
3.817577 -3.116870 -1.137802
4.650689 -3.799773 -1.167369
5.488589 -4.487562 -1.122887
8.018856 -6.563358 -0.906594
3.627973 -2.982172 -1.258378
3.773018 -3.103606 -1.127905
3.841726 -3.161248 0.260738
3.752062 -3.087466 -0.944505
3.768046 -3.102824 -0.773099
3.787021 -3.120669 -0.602522
3.728139 -3.073241 -0.422705
3.708442 -3.059179 -0.251945
3.665931 -3.025185 1.097311
3.795172 -3.132951 -0.085901
3.639072 -3.005157 1.264590
3.619029 -2.996049 -1.258896
3.697838 -3.062380 0.083806
3.741152 -3.099352 -1.121606
3.707643 -3.072683 0.252364
3.717076 -3.080500 -0.938399
3.698068 -3.065836 0.420265
3.714617 -3.080650 -0.764339
3.683457 -3.055894 0.587654
3.724168 -3.090766 -0.594235
3.673487 -3.049788 0.756204
3.708191 -3.078599 -0.421659
3.683642 -3.059304 0.930766
3.697741 -3.072105 -0.251945
3.646356 -3.030490 1.094612
3.707329 -3.082258 -0.084155
3.619648 -3.010429 1.261484
3.607065 -3.007427 -1.258378
3.674841 -3.065023 0.083527
3.712354 -3.097411 -1.116207
3.675428 -3.067688 0.250899
3.715344 -3.101004 -0.940688
3.668992 -3.063404 0.418173
3.694744 -3.086000 -0.762462
3.663629 -3.061096 0.586192
3.695079 -3.088470 -0.591310
3.650696 -3.052455 0.753701
3.684656 -3.081943 -0.420265
3.636798 -3.041914 0.921608
3.668614 -3.069614 -0.250689
3.602880 -3.015682 1.084714
3.672016 -3.074640 -0.083597
3.598750 -3.014362 1.257861
3.597497 -3.021870 -1.258896
3.642683 -3.059826 0.083039
3.701520 -3.110350 -1.116207
3.646351 -3.065078 0.249643
3.688927 -3.101966 -0.936872
3.636394 -3.058875 0.415733
3.683408 -3.099521 -0.762462
3.628618 -3.053416 0.582292
3.663015 -3.083452 -0.587898
3.621886 -3.049911 0.749947
3.670828 -3.092219 -0.419916
3.625625 -3.055223 0.921608
3.652757 -3.079177 -0.250375
3.603721 -3.038917 1.088313
3.655146 -3.082283 -0.083457
3.600020 -3.036871 1.262002
3.581027 -3.029418 -1.256825
3.637550 -3.078323 0.083178
3.713893 -3.144042 -1.123406
3.638678 -3.080369 0.249852
3.684069 -3.119899 -0.938399
3.619612 -3.066398 0.415036
3.690651 -3.127686 -0.766216
3.620431 -3.069263 0.582779
3.694080 -3.132807 -0.594722
3.617244 -3.067646 0.751198
3.653935 -3.099858 -0.419219
3.602963 -3.057698 0.918555
3.652645 -3.100957 -0.251108
3.590120 -3.048955 1.087413
3.656559 -3.105379 -0.083737
3.574674 -3.036911 1.256825
3.573371 -3.044405 -1.257861
3.630366 -3.092963 0.083248
3.700480 -3.153812 -1.122506
3.624864 -3.090460 0.249643
3.676144 -3.135288 -0.939162
3.624044 -3.091945 0.416779
3.665231 -3.127085 -0.763087
3.637412 -3.104448 0.587167
3.680651 -3.142462 -0.594235
3.606514 -3.080254 0.751198
3.670358 -3.135890 -0.422357
3.607730 -3.082381 0.922371
3.645378 -3.115648 -0.251317
3.579990 -3.060843 1.087413
3.645697 -3.118124 -0.083737
3.568456 -3.053139 1.258378
3.566189 -3.058754 -1.258896
3.652935 -3.134263 0.084016
3.701278 -3.176864 -1.126105
3.644907 -3.128479 0.251736
3.665727 -3.147460 -0.939162
3.643999 -3.129910 0.420265
3.714224 -3.191355 -0.775602
3.620532 -3.111950 0.586192
3.720836 -3.199294 -0.602522
3.635223 -3.125681 0.759333
3.681086 -3.166233 -0.424797
3.605878 -3.102639 0.924660
3.649618 -3.141383 -0.252364
3.610633 -3.108925 1.100011
3.729289 -3.211093 -0.085901
3.593441 -3.095214 1.270802
3.564262 -3.078760 -1.262002
3.672787 -3.172503 0.084714
3.708417 -3.204410 -1.131504
3.646052 -3.151632 0.252573
4.553175 -3.937134 -1.170041
3.684285 -3.186929 0.426192
5.305187 -4.589018 -1.110998
6.300747 -5.454030 -1.023215
7.821928 -6.775567 -0.905374
10.488870 -9.088948 -0.727365
7.872732 -6.826794 -0.181889
3.551118 -3.088028 -1.260966
3.711910 -3.230128 -1.136003
4.532690 -3.945766 -1.168133
5.299562 -4.616591 -1.113188
6.284663 -5.478599 -1.023703
7.806924 -6.808016 -0.906245
9.075643 -7.919978 -0.631276
9.498094 -8.291555 -0.220075
3.530143 -3.091495 -1.257343
3.739289 -3.275806 -1.147700
4.520365 -3.962858 -1.168514
40.101830 -35.168358 4.666493
5.284224 -4.634140 -1.113188
6.263477 -5.496791 -1.023215
7.765148 -6.819448 -0.904154
8.414631 -7.392434 -0.587000
3.524583 -3.109525 -1.259413
8.880360 -7.837358 0.206741
3.714997 -3.279822 -1.144101
4.508753 -3.981999 -1.169278
5.266391 -4.654396 -1.113188
6.257195 -5.533951 -1.025653
7.756516 -6.862386 -0.906071
7.826906 -6.929533 -0.547853
7.318782 -6.481946 -0.170650
3.520928 -3.128225 -1.262002
3.724492 -3.310247 -1.150400
4.503628 -4.005542 -1.171567
5.246500 -4.667895 -1.112249
6.244740 -5.559951 -1.026627
7.744415 -6.900023 -0.907466
9.424599 -8.399961 -0.661631
9.039178 -8.062108 -0.211418
3.522055 -3.150187 -1.266143
8.975834 -8.030961 0.210232
3.933627 -3.520776 -1.218785
4.494709 -4.024383 -1.172712
5.240473 -4.695408 -1.114439
6.225294 -5.581715 -1.026627
7.718525 -6.923006 -0.907117
8.986474 -8.065933 -0.632846
3.505296 -3.157290 -1.264072
3.940131 -3.551447 -1.224634
4.473342 -4.033475 -1.170804
5.231384 -4.720288 -1.116004
6.193985 -5.592768 -1.024678
7.715012 -6.968602 -0.909557
39.870991 -36.026207 10.445267
7.205431 -6.512891 -0.509020
10.433072 -9.436930 -0.245555
3.485668 -3.161719 -1.260966
3.924824 -3.562560 -1.223734
4.462144 -4.051704 -1.171567
5.219262 -4.742506 -1.116942
6.192049 -5.630381 -1.027602
7.683270 -6.988788 -0.908686
39.744995 -36.165161 10.445267
8.928468 -8.127128 -0.632742
3.474610 -3.173867 -1.260966
3.919557 -3.582812 -1.225983
4.455217 -4.073880 -1.173475
5.185186 -4.744693 -1.113188
6.172358 -5.651961 -1.027602
7.156369 -6.555306 -0.849071
10.281059 -9.424156 -0.730924
3.474884 -3.196440 -1.265108
3.901292 -3.591193 -1.224184
7.327063 -6.747026 0.521999
4.445302 -4.093396 -1.174620
5.177309 -4.770795 -1.115065
6.155509 -5.676164 -1.028090
7.593287 -7.004430 -0.903805
39.656025 -36.593525 10.488770
9.796086 -9.042734 -0.698685
9.793124 -9.046333 -0.232710
3.469375 -3.213801 -1.267178
3.885874 -3.602139 -1.223284
4.435305 -4.112893 -1.175765
5.157729 -4.786151 -1.114439
6.124022 -5.686809 -1.026140
7.635940 -7.093269 -0.911823
39.588455 -36.787861 10.504799
9.773238 -9.085032 -0.699313
10.246120 -9.531284 -0.244264
3.460960 -3.228527 -1.268213
3.883248 -3.624990 -1.226433
4.408008 -4.116291 -1.172330
5.155423 -4.817613 -1.117568
6.118632 -5.721710 -1.028577
7.619863 -7.128047 -0.912869
39.583076 -37.041187 10.537618
6.568673 -6.149006 -0.471547
8.756321 -8.202623 -0.209429
3.439814 -3.231330 -1.264590
3.871990 -3.639858 -1.226883
4.393612 -4.131652 -1.172330
4.515674 -4.249408 -0.982096
6.110184 -5.753921 -1.030527
21.149508 -19.923323 4.601990
7.600735 -7.160067 -0.913566
39.522121 -37.243763 10.555936
10.072904 -9.495543 -0.725481
8.729089 -8.234510 -0.209464
3.431320 -3.245973 -1.265625
3.860677 -3.654692 -1.227333
7.148034 -6.769018 0.515928
4.384866 -4.152364 -1.173857
4.505115 -4.269221 -0.983034
6.092943 -5.777946 -1.031015
6.563869 -6.226702 -0.791548
9.532714 -9.049370 -0.688846
3.425563 -3.263260 -1.267696
3.842254 -3.662767 -1.225533
4.373186 -4.170354 -1.174620
4.481610 -4.276738 -0.981157
7.496700 -7.156497 1.272560
6.069866 -5.796437 -1.030527
7.576497 -7.237728 -0.916704
8.724351 -8.340084 -0.632532
9.463243 -9.052756 -0.228592
3.419728 -3.280547 -1.269766
3.822416 -3.669409 -1.223284
6.936377 -6.661048 0.503995
4.361434 -4.188313 -1.175383
20.645718 -19.833145 2.504682
4.475200 -4.300568 -0.983034
6.058181 -5.825845 -1.031990
20.603748 -19.820505 4.528152
7.536827 -7.250318 -0.914961
11.090646 -10.683958 -0.268802
3.412425 -3.296491 -1.271319
3.815188 -3.688147 -1.225083
6.855654 -6.629683 0.499808
4.349610 -4.206242 -1.176147
4.461581 -4.317537 -0.983347
4.466323 -4.325147 -0.763390
20.423767 -19.785099 4.503749
7.531507 -7.295990 -0.917401
39.381752 -38.163567 10.659736
7.662085 -7.427671 -0.559262
11.059027 -10.728174 -0.268942
3.396742 -3.304341 -1.269766
7.144084 -6.952172 0.174000
3.803688 -3.702802 -1.225533
6.527370 -6.354244 0.477409
4.337714 -4.224138 -1.176910
4.459216 -4.345492 -0.986163
4.560631 -4.447426 -0.782157
7.007581 -6.833638 1.550266
7.511699 -7.327800 -0.918099
7.626107 -7.444604 -0.558529
11.057725 -10.798321 -0.269779
3.381047 -3.312122 -1.268213
7.123848 -6.978623 0.174070
3.802523 -3.726306 -1.229133
6.154291 -6.033043 0.451659
4.320139 -4.236505 -1.176147
5.044093 -4.948171 -1.119132
4.550108 -4.466698 -0.782889
20.119493 -19.757570 4.466205
7.469018 -7.337221 -0.916007
7.544667 -7.411536 2.055776
7.715342 -7.581845 -0.566903
3.374172 -3.327385 -1.269766
39.577229 -39.042076 0.970389
3.778395 -3.728606 -1.225533
6.167307 -6.088163 0.454171
4.318642 -4.263221 -1.179581
7.015981 -6.928365 0.862668
5.035221 -4.974077 -1.121009
6.462619 -6.386371 1.115592
4.531664 -4.479762 -0.782401
7.440528 -7.360446 -0.915658
7.676051 -7.596086 -0.565961
3.370177 -3.347899 -1.272872
39.440704 -39.179989 0.970389
3.768122 -3.744520 -1.226433
6.146018 -6.109654 0.454171
4.296026 -4.272099 -1.177673
6.770188 -6.734832 0.835475
5.016956 -4.992499 -1.121009
4.503338 -4.482949 -0.780208
7.293398 -7.265447 -0.900667
7.496808 -7.473293 -0.554761
3.361202 -3.362375 -1.273907
3.759881 -3.763820 -1.228233
6.186762 -6.193244 0.458777
4.278313 -4.284290 -1.176910
6.693148 -6.704840 0.828851
5.007872 -5.018371 -1.122887
6.411147 -6.426831 1.114617
4.478467 -4.490990 -0.778745
7.245486 -7.268284 -0.897878
7.528467 -7.557430 -0.559053
3.338556 -3.363119 -1.269766
4.191199 -4.222034 0.103842
3.752870 -3.781801 -1.230032
6.165105 -6.214802 0.458777
4.274392 -4.310351 -1.179963
6.563100 -6.620625 0.815603
4.988420 -5.032144 -1.122261
7.216994 -7.282792 1.258910
4.473329 -4.515689 -0.780451
4.348022 -4.392261 -0.540714
4.103601 -4.146800 -0.305747
4.101532 -4.147605 -0.101817
3.335525 -3.382425 -1.272872
4.086589 -4.145498 0.101608
3.734174 -3.789325 -1.228233
6.106931 -6.199290 0.456056
4.254563 -4.318907 -1.178436
6.753601 -6.858134 0.842099
4.973597 -5.052342 -1.122887
6.411808 -6.515597 1.122417
4.461716 -4.535521 -0.781183
4.315272 -4.388187 -0.538448
4.094700 -4.166797 -0.306165
4.080024 -4.154763 -0.101643
3.325049 -3.395428 -1.273390
4.063700 -4.151164 0.101398
3.720924 -3.802337 -1.228233
6.071288 -6.206292 0.455009
4.255936 -4.350573 -1.183016
6.802057 -6.955739 0.851163
4.953169 -5.066846 -1.122261
6.880168 -7.040530 1.208700
5.923184 -6.063357 -1.040764
4.320808 -4.424606 -0.541063
4.075945 -4.176777 -0.305851
4.062704 -4.166116 -0.101573
3.314523 -3.408399 -1.273907
4.058943 -4.175360 0.101643
3.714420 -3.822290 -1.230482
4.159699 -4.281997 0.312864
4.235251 -4.359770 -1.181489
6.947074 -7.153820 0.872429
4.938204 -5.086940 -1.122887
6.872139 -7.081598 1.211625
5.904747 -6.086846 -1.041252
5.873416 -6.056663 1.336263
4.308112 -4.442522 -0.541411
39.012207 -40.243416 10.894813
4.062731 -4.192413 -0.305956
4.045355 -4.177399 -0.101503
3.305289 -3.422727 -1.274943
4.038788 -4.183749 0.101503
3.709174 -3.843647 -1.233182
4.135021 -4.286428 0.312132
