# This PCD file was generated using the MATLAB® pcwrite function
# from Computer Vision Toolbox®.
# .PCD v.7 - Point Cloud Data file format
VERSION .7
FIELDS x y z
SIZE 4 4 4
TYPE F F F
COUNT 1 1 1
WIDTH 1666
HEIGHT 1
VIEWPOINT 0 0 0 1 0 0 0
POINTS 1666
DATA ascii
10.907417 -13.761734 4.054068
10.442572 -13.179973 -0.293515
10.896885 -13.758308 4.702742
2.965222 -3.753275 -1.281672
6.500493 -8.231050 0.183076
3.342419 -4.233756 -1.245329
5.314194 -6.731351 0.449461
3.704685 -4.694313 -1.162408
6.082497 -7.710073 0.859181
3.631724 -4.605166 -0.928908
5.438142 -6.898251 1.078544
4.795397 -6.082932 -0.951068
5.422555 -6.880948 1.387574
5.111728 -6.488854 -0.722695
10.874596 -13.809224 3.416626
5.548162 -7.047925 -0.470082
10.862926 -13.799359 4.054518
10.047607 -12.768229 -0.283602
5.586248 -7.101404 2.420993
2.962301 -3.775247 -1.285813
5.989371 -7.635783 0.169393
3.331969 -4.249417 -1.246679
5.319002 -6.786015 0.451869
3.800522 -4.848729 -1.197517
6.808939 -8.690006 0.965860
3.610343 -4.609409 -0.927344
5.464189 -6.978766 1.088293
4.744771 -6.062117 -0.945219
5.371724 -6.865607 1.380691
5.093865 -6.510477 -0.723218
5.240807 -6.700692 1.653551
5.524760 -7.066284 -0.470082
10.827892 -13.854083 4.059467
10.281213 -13.159351 -0.291490
10.786335 -13.810846 4.695495
2.955040 -3.793184 -1.288401
10.081144 -12.945139 0.286394
3.317115 -4.261022 -1.246679
6.355075 -8.166393 0.542305
3.788397 -4.868163 -1.199044
6.724736 -8.644527 0.958190
3.603932 -4.634458 -0.929847
4.694347 -6.041023 -0.939369
5.381656 -6.927996 1.389451
5.083331 -6.543952 -0.724961
5.219793 -6.722046 1.654314
7.027242 -9.052939 -0.600608
5.967354 -7.690293 2.247261
10.122458 -13.049793 -0.288279
5.464324 -7.047103 2.389417
2.941781 -3.803476 -1.288401
5.567751 -7.201230 0.158887
3.304605 -4.275659 -1.247579
6.387586 -8.267550 0.547539
3.773781 -4.884463 -1.199807
6.748105 -8.737329 0.965860
5.594835 -7.249324 1.124367
4.644130 -6.019651 -0.933519
5.314011 -6.890428 1.378188
5.264871 -6.826710 -0.754246
6.222372 -8.071168 1.980979
6.809066 -8.835370 -0.584593
5.073485 -6.585677 1.919282
5.879684 -7.634925 -0.168206
5.447941 -7.076850 2.393041
2.929663 -3.815253 -1.288919
10.382599 -13.525975 0.297633
3.289660 -4.287168 -1.247579
5.104211 -6.654342 0.439517
3.751929 -4.891376 -1.198281
4.393461 -5.731881 -1.143849
5.547764 -7.240447 1.119979
3.556037 -4.642700 -0.718054
5.239490 -6.843061 1.365047
5.261601 -6.871940 -0.757209
6.194160 -8.092839 1.980979
6.887411 -9.001845 -0.594013
5.056385 -6.611086 1.921532
5.859070 -7.663345 -0.168381
6.117676 -8.004483 2.699483
2.910472 -3.817775 -1.286331
9.872310 -12.954567 0.284300
3.274675 -4.298625 -1.247579
5.480265 -7.196481 0.474059
3.736021 -4.906005 -1.198662
5.480133 -7.198913 0.791548
4.385388 -5.762902 -1.146978
5.522457 -7.259768 1.119979
3.578259 -4.705649 -0.725854
5.062559 -6.660014 1.325000
5.282192 -6.948951 -0.763659
6.047093 -7.958095 1.942817
6.717016 -8.842931 -0.581976
5.912422 -7.786505 2.257159
7.601072 -10.014042 -0.219447
6.183116 -8.148907 2.740894
2.900625 -3.832532 -1.287884
5.971021 -7.892241 0.172744
3.264352 -4.316246 -1.249378
3.720057 -4.920582 -1.199044
5.440555 -7.198923 0.789457
4.356910 -5.767142 -1.144788
3.603673 -4.773562 -0.734385
5.013102 -6.642956 1.318117
5.217098 -6.913275 -0.757732
7.575232 -10.041729 2.445027
6.923008 -9.180471 -0.602596
5.908667 -7.838219 2.266157
7.525153 -9.986216 -0.218260
4.950440 -6.571842 2.204621
2.889550 -3.845723 -1.288919
5.977062 -7.957806 0.173721
3.244585 -4.321381 -1.247579
4.951523 -6.597207 0.432295
3.708751 -4.941388 -1.200952
5.551703 -7.399553 0.809328
4.337938 -5.783895 -1.145100
5.778861 -7.707921 1.182864
3.547702 -4.733693 -0.726341
6.415901 -8.563842 1.694811
5.270583 -7.035089 -0.769062
7.483645 -9.992682 2.426709
5.429404 -7.254993 2.092045
3.448653 -4.609910 -0.100491
6.098309 -8.154744 2.728471
2.886505 -3.869723 -1.293578
3.427063 -4.596083 0.100072
3.229481 -4.332681 -1.247579
5.001258 -6.712146 0.438680
3.691480 -4.954304 -1.200952
5.761489 -7.735264 0.843842
4.322441 -5.805340 -1.146352
5.462724 -7.339494 1.123392
3.548931 -4.769937 -0.729997
6.107755 -8.212115 1.620974
5.282854 -7.103004 -0.774466
7.399521 -9.952572 2.410681
3.437118 -4.624709 -0.301978
5.221587 -7.028309 2.021410
3.407502 -4.588206 -0.099758
5.795738 -7.806814 2.605273
2.872979 -3.879775 -1.293578
3.353891 -4.530869 0.098397
3.216655 -4.347060 -1.248478
4.970672 -6.719929 0.438052
3.672996 -4.965581 -1.200570
6.369377 -8.614006 0.937273
4.309195 -5.829924 -1.148229
3.520465 -4.766328 -0.727560
6.057933 -8.204781 1.615342
3.426062 -4.640211 -0.504632
7.346081 -9.953066 2.404575
3.404352 -4.614178 -0.300513
5.185455 -7.030810 2.016911
3.377226 -4.580758 -0.099339
5.830342 -7.910975 2.633225
2.852553 -3.880441 -1.290472
3.323846 -4.523212 0.097978
3.210691 -4.370826 -1.252078
5.616265 -7.648417 0.497296
3.661451 -4.986285 -1.202478
5.580019 -7.601835 0.825016
4.295830 -5.854486 -1.150106
5.293944 -7.217385 1.099018
3.493242 -4.764180 -0.725366
3.385108 -4.618395 -0.500971
5.682178 -7.755189 1.868783
3.375244 -4.608309 -0.299362
5.117135 -6.989118 1.999815
3.315156 -4.529585 -0.097978
5.857446 -8.006115 2.658072
2.837852 -3.888814 -1.289954
3.303323 -4.528326 0.097838
3.195415 -4.382007 -1.252078
3.402427 -4.667603 0.302711
3.652118 -5.010141 -1.205150
5.386835 -7.392613 0.800264
4.274205 -5.867849 -1.149794
5.236001 -7.190888 1.092193
3.455563 -4.747456 -0.720979
5.812226 -7.988110 1.564658
3.360761 -4.618906 -0.499751
5.655073 -7.774976 1.868783
3.349741 -4.607140 -0.298524
5.077813 -6.986445 1.993966
3.281693 -4.516863 -0.097454
5.635338 -7.759223 2.569556
2.824260 -3.898696 -1.289954
3.286323 -4.538208 0.097803
3.174386 -4.385242 -1.249828
3.375575 -4.664889 0.301769
3.632305 -5.019678 -1.204386
5.447408 -7.530831 0.813163
4.251381 -5.879531 -1.149168
5.038761 -6.971015 1.056120
3.471522 -4.804541 -0.727804
6.133610 -8.491957 1.659144
3.434445 -4.754975 -0.513173
5.398047 -7.476323 1.792460
3.324287 -4.605848 -0.297687
5.046553 -6.994646 1.991267
3.262398 -4.523425 -0.097350
5.778814 -8.015471 2.647719
2.811762 -3.910099 -1.290472
3.269294 -4.548028 0.097768
3.167019 -4.407373 -1.252977
3.332472 -4.639334 0.299362
3.618197 -5.037109 -1.205531
5.569833 -7.756955 0.835475
4.221617 -5.881498 -1.146665
5.761985 -8.030476 1.213575
3.453573 -4.815017 -0.727560
5.496183 -7.665676 1.493949
3.495610 -4.875422 -0.524852
5.344469 -7.456823 1.783301
3.302374 -4.609306 -0.297164
5.051609 -7.053411 2.002964
3.241931 -4.528282 -0.097210
5.685591 -7.944478 2.617696
2.804830 -3.929324 -1.293578
3.253399 -4.559413 0.097768
3.149352 -4.415229 -1.252078
3.313938 -4.647686 0.299152
3.599453 -5.048110 -1.205150
5.628297 -7.896410 0.848374
4.189599 -5.880110 -1.143536
4.927784 -6.918710 1.042958
3.419475 -4.802787 -0.723904
5.659533 -7.951973 1.545886
3.468173 -4.872984 -0.523283
5.705365 -8.019334 1.913051
3.286264 -4.620806 -0.297164
7.001832 -9.848895 2.789843
3.220313 -4.531421 -0.097035
7.016060 -9.876206 3.246109
2.784395 -3.929634 -1.290472
3.242087 -4.577269 0.097908
3.140677 -4.435737 -1.254777
3.313512 -4.679840 0.300513
3.578407 -5.055836 -1.204005
5.697362 -8.052632 0.863016
4.164485 -5.888248 -1.142285
4.926523 -6.968287 1.047833
3.338530 -4.723911 -0.710255
5.676454 -8.031997 1.557775
3.439646 -4.868788 -0.521540
5.659218 -8.013541 1.906945
3.274722 -4.638776 -0.297582
6.958422 -9.860538 2.786244
3.215645 -4.556779 -0.097350
5.515571 -7.818819 2.563861
2.776219 -3.947230 -1.293060
3.239545 -4.605987 0.098292
3.127072 -4.447722 -1.255227
3.305195 -4.702816 0.301246
3.562994 -5.071509 -1.204768
3.280613 -4.671305 0.499402
4.115419 -5.859995 -1.134150
4.146147 -5.908134 -0.886234
6.163419 -8.785946 1.699817
3.431780 -4.893815 -0.522934
3.261614 -4.652880 -0.297792
5.540101 -7.906209 2.228815
3.255936 -4.648231 -0.099060
5.543648 -7.917149 2.589743
2.767538 -3.962749 -1.295130
3.230315 -4.627105 0.098501
3.109296 -4.455415 -1.254327
3.294472 -4.722515 0.301769
3.555143 -5.096178 -1.207821
3.260545 -4.675621 0.498705
4.079123 -5.851637 -1.129770
5.709731 -8.193847 1.226249
4.195845 -6.023561 -0.901346
4.872985 -6.998266 1.350655
3.433749 -4.931329 -0.525723
5.994851 -8.612624 2.039748
3.184894 -4.577346 -0.292244
6.849972 -9.848480 2.769597
3.246540 -4.669419 -0.099269
5.412340 -7.787336 2.541085
2.754789 -3.973974 -1.295648
3.227811 -4.658076 0.098920
3.092616 -4.464639 -1.253877
3.268872 -4.720850 0.300932
3.539568 -5.111784 -1.208584
3.239669 -4.680421 0.498008
4.051929 -5.856094 -1.127893
6.963886 -10.068388 1.503137
4.152215 -6.005513 -0.896471
6.153596 -8.903512 1.714209
3.427843 -4.959676 -0.527467
6.866438 -9.938618 2.348096
3.153007 -4.565427 -0.290779
6.783446 -9.825824 2.756550
3.221134 -4.667557 -0.098990
5.722997 -8.295956 2.700518
2.743091 -3.986749 -1.296683
3.218331 -4.679201 0.099130
3.081429 -4.481830 -1.255677
3.259160 -4.742107 0.301560
3.513918 -5.112783 -1.205913
3.223311 -4.691700 0.498008
3.364957 -4.899706 -0.941423
6.926451 -10.089361 1.502649
3.342721 -4.870971 -0.725366
6.135889 -8.944486 1.717963
3.338377 -4.866461 -0.516311
6.807278 -9.926905 2.339700
3.149473 -4.594527 -0.291930
5.054945 -7.377036 2.064601
3.202561 -4.675473 -0.098920
5.724564 -8.360514 2.715012
2.728069 -3.994704 -1.296166
3.208743 -4.700316 0.099339
3.070159 -4.498998 -1.257476
3.256094 -4.773254 0.302816
3.501582 -5.133127 -1.207821
3.197935 -4.689755 0.496613
3.327807 -4.882041 -0.935791
5.654912 -8.299122 1.233074
3.416216 -5.015504 -0.745109
4.819444 -7.078301 1.356287
3.462657 -5.085592 -0.538274
6.028054 -8.856704 2.082489
3.136786 -4.610447 -0.292244
6.673038 -9.811709 2.739454
3.212080 -4.724658 -0.099723
5.243627 -7.715762 2.499674
2.716276 -4.007401 -1.297201
3.205776 -4.731353 0.099758
3.057714 -4.514528 -1.258826
3.242771 -4.789552 0.303130
3.373575 -4.982749 -1.169659
3.178195 -4.695939 0.496091
3.297462 -4.873994 -0.932037
5.327877 -7.878123 1.167752
3.399800 -5.029042 -0.745353
6.082144 -9.000196 1.720466
3.438190 -5.087744 -0.537228
6.693850 -9.909111 2.324435
3.211210 -4.755441 -0.300722
5.690200 -8.429720 2.348039
3.203398 -4.747445 -0.099967
5.694144 -8.441916 2.728471
2.701192 -4.015255 -1.296683
3.203748 -4.764087 0.100212
3.033240 -4.512236 -1.255227
3.241628 -4.824051 0.304595
3.293747 -4.901612 -1.147907
3.172893 -4.723543 0.497834
3.280428 -4.885475 -0.932037
5.499481 -8.193354 1.211625
3.383331 -5.042528 -0.745597
5.381692 -8.023919 1.530242
3.415971 -5.093096 -0.536531
5.498147 -8.200644 1.919157
3.234620 -4.826349 -0.304491
5.684603 -8.485149 2.357937
3.203498 -4.783521 -0.100491
5.633476 -8.415186 2.713459
2.691451 -4.031086 -1.298754
3.222622 -4.828465 0.101329
3.017471 -4.522796 -1.255227
3.251365 -4.875217 0.307107
3.276617 -4.913080 -1.147907
3.158596 -4.737905 0.498182
3.263355 -4.896896 -0.932037
6.245636 -9.375566 1.383217
3.363508 -5.051003 -0.745109
5.382110 -8.085410 1.538377
3.402588 -5.111623 -0.537228
5.504292 -8.272090 1.931369
3.242088 -4.874196 -0.306793
5.695951 -8.566606 2.375033
3.211132 -4.831313 -0.101259
5.641485 -8.491117 2.731576
2.685901 -4.053339 -1.302895
3.221208 -4.863025 0.101817
3.012423 -4.549550 -1.259726
3.242110 -4.898293 -1.141801
3.184914 -4.813705 0.504980
3.251690 -4.916496 -0.933601
5.766201 -8.721698 1.283772
3.339289 -5.052776 -0.743647
5.369098 -8.127223 1.542757
3.408885 -5.160041 -0.541063
6.589717 -9.978664 2.324435
3.238258 -4.905485 -0.308049
5.719679 -8.667763 2.397528
3.230584 -4.897578 -0.102411
6.458315 -9.794549 3.143616
2.663243 -4.049778 -1.298754
2.990103 -4.550266 -1.257027
5.095626 -7.757348 0.486410
3.229303 -4.916143 -1.143327
3.252936 -4.955890 -0.938920
3.328164 -5.074361 -0.745109
5.308203 -8.096354 1.533371
3.379928 -5.155247 -0.539320
6.132993 -9.357931 2.174841
6.453175 -9.850225 -0.617146
5.704335 -8.710499 2.403827
6.447747 -9.849438 -0.205485
6.407160 -9.791168 3.135334
2.649091 -4.059050 -1.298754
5.515558 -8.454396 0.176199
2.983782 -4.575366 -1.261076
5.065244 -7.770068 0.486096
3.217484 -4.935609 -1.145236
5.514531 -8.468962 1.240874
3.316928 -5.095930 -0.746572
5.325157 -8.184377 1.546511
3.222829 -4.953252 -0.517008
5.440915 -8.365484 1.939764
6.406778 -9.854271 -0.615994
5.907519 -9.089833 2.502805
6.392629 -9.840024 -0.204821
4.713685 -7.258439 2.319019
2.641207 -4.078001 -1.301860
2.961440 -4.575937 -1.258376
3.197036 -4.941865 -1.144091
3.730863 -5.771452 -1.088471
5.385816 -8.334768 1.218450
5.131540 -7.947351 1.498329
5.889033 -9.120502 -0.949823
6.414594 -9.938256 2.299248
6.342022 -9.829584 -0.613063
5.884203 -9.123500 2.506405
6.339821 -9.833706 -0.204228
6.303070 -9.780448 3.117734
2.630090 -4.092071 -1.303413
2.946502 -4.587887 -1.258826
5.005480 -7.796837 0.485573
3.186130 -4.962908 -1.146381
3.706428 -5.777790 -1.087220
5.307397 -8.276650 1.207238
3.900460 -6.084930 -0.887453
5.201815 -8.118233 1.527113
5.875434 -9.169520 -0.952787
6.375628 -9.953976 2.297722
6.295825 -9.833158 -0.611912
6.257813 -9.777547 2.680067
6.290369 -9.832194 -0.203739
6.241830 -9.760076 3.104276
2.612673 -4.096340 -1.301860
2.939895 -4.612934 -1.262875
4.930221 -7.735916 0.480758
3.171951 -4.978967 -1.147525
5.495563 -8.629630 0.895089
3.669264 -5.764030 -1.082214
5.414885 -8.509498 1.238436
3.935663 -6.187281 -0.900371
5.584104 -8.778806 1.647881
4.255861 -6.693246 -0.693934
5.744777 -9.038365 2.081726
6.245397 -9.829789 -0.610342
5.603056 -8.822195 2.412825
6.239504 -9.824303 -0.203146
5.354171 -8.433568 2.676707
2.599391 -4.107068 -1.302377
2.927708 -4.627598 -1.264225
5.106019 -8.073802 0.500646
3.320306 -5.252203 -1.207821
5.437734 -8.604969 0.890557
3.643798 -5.766146 -1.080337
5.494773 -8.698592 1.263298
3.874848 -6.136516 -0.891109
5.405814 -8.564383 1.604079
4.217587 -6.684472 -0.691494
5.461249 -8.655555 1.989375
6.198914 -9.828485 -0.608981
6.162014 -9.773759 2.667470
6.192379 -9.825722 -0.202727
5.310282 -8.429322 2.669460
2.585757 -4.115665 -1.302377
29.992390 -47.756397 0.984351
2.912572 -4.639440 -1.264675
5.058695 -8.061126 0.498762
3.323741 -5.296444 -1.215453
4.926378 -7.853319 0.811071
3.602660 -5.745359 -1.074079
5.468593 -8.724447 1.264273
3.742734 -5.973376 -0.865516
5.610759 -8.958202 1.674162
4.150980 -6.627502 -0.684173
4.345427 -6.940650 1.591729
6.147614 -9.822974 -0.607306
6.109257 -9.765471 2.659371
6.133657 -9.808282 -0.201924
5.209146 -8.333139 2.633225
2.577508 -4.134502 -1.305483
2.893269 -4.644617 -1.263325
3.311460 -5.318014 -1.217743
3.563799 -5.727710 -1.068448
5.421332 -8.716514 1.260373
3.691466 -5.937515 -0.858448
5.715005 -9.195843 1.714835
4.206696 -6.768867 -0.697246
5.454562 -8.780188 2.009219
6.095377 -9.815529 -0.605527
5.456416 -8.790016 2.388530
6.093055 -9.819438 -0.201715
5.232976 -8.436640 2.660142
2.563060 -4.143474 -1.305483
4.795633 -7.755707 0.159166
2.876014 -4.653030 -1.262875
3.292877 -5.329540 -1.217743
3.537558 -5.730030 -1.066570
5.390872 -8.735385 1.260373
3.653000 -5.921644 -0.854304
5.809364 -9.420866 1.753005
5.745409 -9.317152 -0.957667
5.417698 -8.789146 2.006929
6.036980 -9.797637 -0.603120
6.000052 -9.741512 2.641375
6.041968 -9.813401 -0.201156
5.549789 -9.017525 2.837175
2.553633 -4.160628 -1.308071
2.864849 -4.671347 -1.265125
5.294469 -8.636404 0.530896
3.274253 -5.341002 -1.217743
3.509280 -5.728868 -1.064067
3.616762 -5.908962 -0.850648
5.230038 -8.548034 1.587184
4.157259 -6.794672 -0.696897
5.991283 -9.799907 -0.601968
5.951785 -9.739119 2.635077
5.982657 -9.793477 -0.200319
5.560563 -9.106090 2.858915
2.534348 -4.163359 -1.306001
2.854797 -4.693470 -1.268274
4.966410 -8.165098 0.500855
3.259755 -5.361354 -1.219651
3.475951 -5.721432 -1.060313
4.674949 -7.698016 1.105842
3.585810 -5.906906 -0.848454
5.720901 -9.424044 1.746122
5.744740 -9.467038 -0.968823
5.224337 -8.612830 1.958082
5.943934 -9.803014 -0.600817
5.893828 -9.724204 2.625179
5.933925 -9.790359 -0.199830
5.897125 -9.733477 3.049406
2.524794 -4.180449 -1.308589
2.839218 -4.702911 -1.268274
5.025593 -8.327735 0.509752
3.242034 -5.374382 -1.220033
4.657549 -7.723955 0.789108
3.440638 -5.705862 -1.055307
4.551017 -7.550264 1.082444
3.584643 -5.949370 -0.852842
5.679818 -9.430420 1.743619
5.702411 -9.471671 -0.967254
5.900065 -9.803845 -0.599665
5.849495 -9.723657 2.619780
5.890438 -9.795588 -0.199516
5.821312 -9.684462 3.027665
2.513897 -4.193769 -1.310142
2.824786 -4.716136 -1.269174
5.128843 -8.566281 0.523255
3.227219 -5.390156 -1.221178
4.210361 -7.035002 0.717292
3.404474 -5.690714 -1.050301
4.630592 -7.743288 1.107792
3.585243 -5.997628 -0.857960
6.872901 -11.501997 2.122190
5.632134 -9.425537 -0.960631
5.842258 -9.784940 -0.597258
5.793545 -9.707201 2.609882
5.844940 -9.797201 -0.199132
5.743935 -9.631717 3.004889
2.500230 -4.204179 -1.310660
2.808307 -4.725968 -1.269174
5.115231 -8.611607 0.524930
3.212396 -5.408140 -1.222704
4.226468 -7.118182 0.724264
3.378540 -5.692371 -1.048424
4.692668 -7.909643 1.129241
3.577449 -6.032303 -0.861129
5.694428 -9.605781 1.768648
5.591070 -9.431429 -0.959236
5.301514 -8.946543 2.021431
5.789745 -9.774343 -0.595374
5.692110 -9.613340 2.579289
5.797465 -9.795173 -0.198678
5.539118 -9.362406 2.914820
2.491429 -4.222863 -1.313766
2.794762 -4.740779 -1.270524
5.004021 -8.491752 0.516556
3.191504 -5.415937 -1.221941
4.806301 -8.159479 0.828502
3.348626 -5.687108 -1.045295
4.731486 -8.038885 1.145328
3.561404 -6.053308 -0.862348
4.020872 -6.836995 -0.693934
5.741424 -9.770386 -0.593908
5.699972 -9.703723 2.598185
5.739950 -9.775688 -0.197875
5.662862 -9.648256 2.997642
2.472770 -4.224865 -1.311695
2.785083 -4.762280 -1.273673
4.556039 -7.793604 0.473117
3.173571 -5.428740 -1.222322
5.004968 -8.564977 0.867897
3.324768 -5.691939 -1.044044
4.311030 -7.383358 1.049783
3.539251 -6.063988 -0.862104
5.468867 -9.373859 -0.949475
5.697226 -9.773111 -0.592862
5.652329 -9.699989 2.591886
5.690694 -9.769745 -0.197352
5.638871 -9.684659 3.002819
2.455098 -4.228459 -1.310142
2.770398 -4.775345 -1.274573
3.158541 -5.446579 -1.223849
4.689268 -8.089412 0.818044
3.292994 -5.683000 -1.040289
4.299160 -7.422410 1.053195
3.469325 -5.992128 -0.850161
5.514955 -9.529122 -0.963245
5.648078 -9.767005 -0.591292
5.602833 -9.692666 2.584688
5.646552 -9.772236 -0.197003
5.597301 -9.690901 2.998677
2.443215 -4.242026 -1.311695
2.748852 -4.776541 -1.272323
3.142446 -5.462676 -1.224994
3.251481 -5.656782 -1.033406
4.279158 -7.447700 1.054657
3.461239 -6.026579 -0.853329
5.494553 -9.570776 -0.965511
5.598050 -9.758943 -0.589617
5.557332 -9.691878 2.579289
5.596497 -9.764129 -0.196444
5.549994 -9.686913 2.991431
2.433184 -4.258915 -1.314283
2.734095 -4.789492 -1.273223
33.218784 -58.215111 3.512685
3.129197 -5.483842 -1.227283
3.231715 -5.668098 -1.033406
4.347496 -7.628159 1.078056
3.474574 -6.098993 -0.861860
5.424632 -9.525839 -0.959062
5.548148 -9.750648 -0.587942
5.506125 -9.680726 2.571191
5.550519 -9.762743 -0.196025
5.506600 -9.689430 2.986254
2.421161 -4.272425 -1.315836
4.854121 -8.569158 0.171906
2.715439 -4.795615 -1.272323
3.106168 -5.487897 -1.225757
4.896668 -8.654831 0.869989
3.208020 -5.672466 -1.032155
4.315958 -7.634646 1.076838
3.508929 -6.209595 -0.875753
6.850199 -12.127431 2.206039
5.459940 -9.666149 -0.971264
5.498371 -9.742126 -0.586267
5.445488 -9.652365 2.558593
5.495779 -9.745481 -0.195292
5.459463 -9.685034 2.979007
2.399606 -4.269062 -1.312213
4.763450 -8.477962 0.169742
2.708225 -4.822056 -1.276822
3.086992 -5.498706 -1.225757
4.150748 -7.396544 0.742044
3.172738 -5.656065 -1.027149
4.244622 -7.570017 1.065626
3.519261 -6.278950 -0.883797
6.423551 -11.465381 2.081517
4.806811 -8.579666 -0.860402
5.452624 -9.740347 -0.585011
5.402246 -9.654308 2.554094
5.448061 -9.740172 -0.194804
5.389799 -9.639956 2.959337
2.386571 -4.280787 -1.313248
6.199824 -11.125172 0.222309
2.695170 -4.838290 -1.278622
3.071599 -5.516310 -1.227283
4.402030 -7.908885 0.791897
3.139529 -5.642938 -1.022769
4.265447 -7.669796 1.077569
3.513718 -6.320692 -0.887940
6.387328 -11.494639 2.082769
3.871984 -6.968025 -0.697420
5.410834 -9.745352 -0.584174
5.366622 -9.669699 2.553195
5.410148 -9.752134 -0.194664
5.342999 -9.635058 2.952090
2.379092 -4.302616 -1.317389
6.143539 -11.115243 0.221680
2.675438 -4.842551 -1.277272
3.055173 -5.532154 -1.228428
4.990643 -9.040532 0.903456
3.112178 -5.640026 -1.020266
3.397706 -6.162557 -0.864054
3.612989 -6.555733 -0.654888
5.358479 -9.730938 -0.582185
5.323439 -9.671301 2.548696
5.376073 -9.770961 -0.194664
5.298163 -9.633338 2.945879
2.360343 -4.304119 -1.315318
6.173910 -11.262874 0.224194
2.662263 -4.858696 -1.279072
3.036787 -5.544507 -1.228810
4.113250 -7.513005 0.749365
3.079195 -5.626595 -1.015886
3.355222 -6.136062 -0.858692
5.691106 -10.412271 1.879404
3.574795 -6.540332 -0.652099
5.310120 -9.723289 -0.580615
5.272840 -9.659036 2.540597
5.340018 -9.786157 -0.194594
5.253403 -9.631422 2.939667
2.355458 -4.331000 -1.321012
5.349473 -9.840210 0.195502
2.648078 -4.873096 -1.280421
5.368122 -9.882738 0.589408
3.015540 -5.551623 -1.228047
3.875947 -7.138608 0.710668
3.055767 -5.630365 -1.014634
4.186790 -7.717532 1.078056
3.398130 -6.266398 -0.875266
5.345963 -9.862450 1.776783
3.759876 -6.936372 -0.690273
5.262830 -9.717178 -0.579150
5.217752 -9.637967 2.530249
5.319150 -9.829358 -0.195083
5.221589 -9.653100 2.940702
2.335740 -4.330694 -1.318424
6.374124 -11.823196 0.234456
2.630127 -4.880595 -1.279971
5.322227 -9.880316 0.588152
2.999868 -5.569029 -1.229573
3.026732 -5.623603 -1.011505
4.199327 -7.805522 1.088293
3.317003 -6.168077 -0.859910
5.298409 -9.856692 1.772403
3.748847 -6.974024 -0.692714
5.288344 -9.842088 2.171788
5.221318 -9.721414 -0.578312
5.176704 -9.642386 2.526650
5.275351 -9.830246 -0.194734
5.167772 -9.633815 2.929314
2.321520 -4.340525 -1.318942
6.002832 -11.228151 0.222239
2.617668 -4.898339 -1.282221
6.236430 -11.669987 0.693452
2.982260 -5.582930 -1.230337
4.905222 -9.186663 0.911126
2.995922 -5.613222 -1.007751
4.142155 -7.764087 1.080494
3.268363 -6.128823 -0.852842
5.648653 -10.592332 1.901305
3.763843 -7.060911 -0.700035
5.177024 -9.720190 -0.577161
5.137520 -9.650076 2.523951
5.240844 -9.844155 -0.194664
5.124906 -9.630434 2.923102
2.303639 -4.343482 -1.317389
2.597759 -4.900106 -1.280421
6.186303 -11.674037 0.692405
2.966429 -5.600245 -1.231863
3.748772 -7.080199 0.700907
2.975443 -5.619634 -1.007125
6.218686 -11.750010 1.632318
3.279583 -6.199286 -0.861129
5.591330 -10.573567 1.894422
3.699137 -6.998264 -0.692540
6.503829 -12.304360 2.705290
5.126103 -9.701985 -0.575068
5.092750 -9.642936 2.517652
5.197114 -9.844706 -0.194315
5.087651 -9.641430 2.921032
2.299117 -4.369904 -1.323083
6.179439 -11.750155 0.231733
2.583358 -4.914319 -1.281771
6.513410 -12.395702 0.733855
2.941449 -5.597887 -1.229192
4.149589 -7.900451 0.780741
2.941117 -5.602002 -1.002119
4.775511 -9.099867 1.261835
3.235792 -6.168506 -0.855279
5.567229 -10.617512 1.898802
3.555631 -6.781103 -0.669879
6.460840 -12.326988 2.705290
5.076448 -9.689744 -0.573288
5.040978 -9.626126 2.508654
5.157153 -9.852157 -0.194106
5.036054 -9.624896 2.910679
2.283850 -4.377903 -1.323083
6.567397 -12.594375 0.247929
2.570692 -4.931947 -1.284021
6.259691 -12.014515 0.709990
2.917355 -5.599414 -1.227283
4.652074 -8.932743 0.881145
2.917896 -5.605226 -1.000868
4.775789 -9.178116 1.270366
3.223400 -6.197375 -0.857717
5.539246 -10.654408 1.901931
3.672554 -7.063939 -0.696549
5.030624 -9.684364 -0.571927
4.995671 -9.621180 2.502805
5.098781 -9.823951 -0.193198
4.993530 -9.625269 2.905503
2.264116 -4.377268 -1.320495
6.516047 -12.603012 0.247650
2.557040 -4.947815 -1.285820
5.922550 -11.464909 0.676285
2.888782 -5.592121 -1.223467
4.023946 -7.792914 0.767319
2.894689 -5.608356 -0.999616
4.759194 -9.224720 1.274510
3.160805 -6.129196 -0.846748
5.543654 -10.754447 1.916322
3.708124 -7.193598 -0.708053
4.993131 -9.694762 -0.571509
4.952245 -9.619501 2.497856
5.049818 -9.813240 -0.192640
4.935158 -9.594539 2.891009
2.247941 -4.383426 -1.319977
2.541530 -4.960179 -1.286720
6.051840 -11.816159 0.695754
2.864769 -5.593434 -1.221559
3.993995 -7.801592 0.766796
2.864295 -5.597323 -0.995862
5.587564 -10.923758 1.506549
3.082459 -6.028841 -0.831393
3.671204 -7.183435 -0.705787
6.272453 -12.278579 2.680103
4.951994 -9.697902 -0.570671
4.908005 -9.615902 2.492458
4.999174 -9.798745 -0.192011
4.892860 -9.594498 2.885833
2.237880 -4.401578 -1.323083
2.522435 -4.965546 -1.285820
5.556623 -10.943233 0.643209
2.838116 -5.589395 -1.218506
3.955917 -7.794167 0.764704
2.835802 -5.589672 -0.992733
4.730591 -9.328539 1.284259
3.001262 -5.920932 -0.815062
5.350590 -10.560288 1.875024
3.640705 -7.185543 -0.704741
6.227781 -12.296896 2.679340
4.897364 -9.674145 -0.568264
4.863851 -9.612109 2.487059
4.966745 -9.819704 -0.192081
4.847136 -9.587383 2.878586
2.224241 -4.412813 -1.324118
2.505963 -4.976061 -1.286270
5.604600 -11.133824 0.653257
2.815057 -5.592254 -1.216980
3.916149 -7.783010 0.762264
2.810948 -5.588948 -0.990856
4.678384 -9.305977 1.278897
3.020686 -6.011191 -0.826030
5.336748 -10.624796 1.883158
3.612023 -7.191085 -0.704044
4.852815 -9.669760 -0.567008
4.819785 -9.608126 2.481660
4.925268 -9.822681 -0.191802
4.808448 -9.593882 2.875480
2.212278 -4.427463 -1.326189
2.493801 -4.995239 -1.288970
5.555001 -11.131874 0.652001
2.785000 -5.580966 -1.212400
4.483018 -8.987613 0.878704
2.787896 -5.591654 -0.989605
5.495887 -11.027865 1.512886
2.961624 -5.945294 -0.815550
3.586011 -7.201867 -0.703870
5.980823 -12.016677 2.609122
4.808356 -9.665182 -0.565752
4.773201 -9.598719 2.474911
4.876709 -9.811162 -0.191243
4.769772 -9.600226 2.872374
2.192522 -4.426503 -1.323601
5.778717 -11.671824 0.227335
2.472892 -4.996927 -1.287170
5.524965 -11.169100 0.653048
2.758538 -5.576576 -1.209347
5.500719 -11.124969 1.085786
2.763109 -5.590726 -0.987727
5.636723 -11.410052 1.562609
2.976010 -6.026793 -0.825299
8.305025 -16.826117 2.971942
3.552032 -7.196475 -0.702127
5.914520 -11.988183 2.598437
4.767521 -9.667578 -0.564914
4.727603 -9.590851 2.468613
4.833593 -9.810188 -0.190894
4.720868 -9.585623 2.863056
2.176206 -4.432395 -1.323083
5.746750 -11.709874 0.227684
2.459725 -5.014277 -1.289419
5.464840 -11.145278 0.650536
2.732140 -5.572069 -1.206295
5.554797 -11.333744 1.104263
2.724458 -5.561311 -0.980844
5.610828 -11.458184 1.566509
2.982881 -6.094200 -0.833099
4.263264 -8.713949 -0.848723
5.425872 -11.095180 2.400759
4.722345 -9.660833 -0.563554
4.687252 -9.593287 2.465014
4.781770 -9.791063 -0.190196
4.677209 -9.581210 2.856845
2.174247 -4.467757 -1.331365
2.437946 -5.014070 -1.287170
5.448601 -11.210991 0.653257
2.707525 -5.570977 -1.204005
2.696400 -5.553018 -0.977716
5.574264 -11.484843 1.567484
2.967656 -6.117076 -0.834805
4.348374 -8.967069 1.578424
5.404235 -11.149384 2.408391
4.677271 -9.653893 -0.562193
4.635051 -9.571004 2.455116
4.733623 -9.778897 -0.189638
4.639529 -9.588784 2.854257
2.153603 -4.464880 -1.328259
2.422968 -5.027816 -1.288520
2.680394 -5.564475 -1.200570
2.675287 -5.558836 -0.977090
5.589216 -11.618719 1.583083
2.984994 -6.207905 -0.845773
4.069411 -8.466954 -0.821879
5.383987 -11.207113 2.416787
4.629712 -9.641353 -0.560518
4.594024 -9.571314 2.451067
4.706378 -9.809785 -0.189917
4.589324 -9.570083 2.843904
2.143836 -4.484571 -1.331883
5.382409 -11.264210 0.217911
2.406243 -5.038002 -1.288970
2.654187 -5.559624 -1.197517
2.650764 -5.557443 -0.975213
5.058260 -10.609630 1.443177
2.909506 -6.105389 -0.830418
4.016697 -8.432542 -0.817172
5.724618 -12.023507 2.588515
4.589164 -9.643027 -0.559681
4.551377 -9.567934 2.446118
4.649782 -9.779199 -0.189010
4.547597 -9.568595 2.838727
2.119898 -4.474568 -1.326707
7.052186 -14.892092 0.287616
2.391143 -5.051654 -1.290319
5.071235 -10.718595 0.621437
2.620491 -5.538686 -1.191030
8.074003 -17.072968 1.652298
2.626284 -5.555946 -0.973335
5.048332 -10.684654 1.450976
2.822054 -5.975500 -0.811406
8.030343 -17.011368 2.979451
3.897083 -8.255527 -0.798695
5.706072 -12.093131 2.599200
4.546955 -9.640924 -0.558634
4.507979 -9.562611 2.440719
4.600275 -9.762809 -0.188381
4.503468 -9.561690 2.831998
2.108371 -4.490684 -1.329295
6.959379 -14.829725 0.285940
2.375978 -5.065262 -1.291669
5.045660 -10.761547 0.622903
2.604475 -5.554910 -1.192556
4.967227 -10.599077 1.024080
2.600170 -5.550769 -0.970832
3.697857 -7.897667 1.070744
2.808752 -6.001496 -0.813600
3.826875 -8.180651 -0.790154
5.723697 -12.241023 2.626677
4.503127 -9.635024 -0.557378
4.468800 -9.565928 2.437570
4.559399 -9.764313 -0.188102
4.453723 -9.542341 2.821645
2.094313 -4.501520 -1.330330
5.401601 -11.615510 0.223600
2.361568 -5.080595 -1.293469
4.996281 -10.753737 0.621437
2.576796 -5.546163 -1.188740
4.931878 -10.619966 1.024429
2.572462 -5.541894 -0.967704
4.908449 -10.579184 1.431965
2.827039 -6.095903 -0.825056
3.250296 -7.011774 -0.676154
5.433325 -11.726527 2.512191
4.457716 -9.625312 -0.555913
4.427195 -9.563786 2.433071
4.513532 -9.754761 -0.187613
4.412277 -9.540297 2.816469
2.080204 -4.512311 -1.331365
5.325035 -11.556201 0.222099
2.341373 -5.083497 -1.292119
5.060612 -10.992450 0.634207
2.552495 -5.544424 -1.186450
4.956409 -10.771054 1.037328
2.558054 -5.561608 -0.969581
5.398857 -11.743353 1.586983
2.714566 -5.907320 -0.798244
5.137491 -11.185131 1.949487
3.234116 -7.041182 -0.677897
5.400552 -11.763264 2.516008
4.414927 -9.620845 -0.554761
4.378347 -9.545527 2.424523
4.479455 -9.770455 -0.187613
4.370096 -9.536321 2.810775
2.068454 -4.528331 -1.333953
5.317886 -11.647480 0.223496
2.327659 -5.100503 -1.294368
5.009205 -10.976464 0.632323
2.528237 -5.542582 -1.184161
4.897291 -10.741154 1.032796
2.528795 -5.548933 -0.965827
5.318332 -11.675415 1.575283
2.663692 -5.847643 -0.788982
5.291913 -11.622791 2.022698
3.232627 -7.103204 -0.682778
5.330191 -11.717710 2.502269
4.371397 -9.614380 -0.553505
4.342636 -9.551123 2.422273
4.422209 -9.730640 -0.186566
4.330458 -9.533172 2.805598
2.050239 -4.528126 -1.331883
5.193484 -11.475582 0.219865
2.313946 -5.115295 -1.296168
4.939853 -10.920224 0.628136
2.501755 -5.533047 -1.180344
4.855080 -10.742811 1.031401
2.507128 -5.550087 -0.964575
5.268150 -11.667658 1.571871
2.637751 -5.841970 -0.787032
5.267967 -11.672685 2.028330
3.839067 -8.510509 -0.816824
5.451085 -12.089688 2.577830
4.331285 -9.610614 -0.552458
4.298128 -9.537044 2.415074
4.384988 -9.734313 -0.186357
4.286924 -9.521056 2.797834
2.037585 -4.540187 -1.333436
5.278170 -11.766422 0.225101
2.299362 -5.128276 -1.297518
4.896801 -10.926467 0.627508
2.481787 -5.537729 -1.179581
4.798253 -10.711576 1.026869
2.537143 -5.666545 -0.983347
5.209967 -11.641577 1.566021
2.639228 -5.900067 -0.793613
5.082058 -11.366403 1.972013
3.808384 -8.517735 -0.816301
5.218717 -11.677522 2.486241
4.294503 -9.613983 -0.551830
4.253689 -9.527077 2.408776
4.344463 -9.734951 -0.186078
4.250515 -9.528904 2.795763
2.027218 -4.559629 -1.337059
5.267923 -11.854216 0.226428
2.276700 -5.125585 -1.294818
4.905638 -11.049369 0.633579
2.456069 -5.532004 -1.176528
5.226329 -11.777229 1.127272
2.569408 -5.792739 -1.003684
5.156427 -11.630656 1.562121
2.772228 -6.255887 -0.840167
5.192748 -11.723626 2.030833
3.835109 -8.658497 -0.828502
5.545107 -12.525044 2.662549
4.247179 -9.597864 -0.550051
4.214100 -9.527610 2.405177
4.297518 -9.720794 -0.185519
4.210200 -9.527781 2.791105
2.011290 -4.566678 -1.337059
2.261149 -5.138852 -1.296168
5.203140 -11.830635 0.677332
2.430420 -5.526166 -1.173475
5.225276 -11.886598 1.135988
2.545994 -5.794438 -1.002432
4.534692 -10.325419 1.384680
2.738405 -6.238260 -0.836511
5.602606 -12.769146 2.208542
3.794546 -8.652424 -0.826585
5.288456 -12.058877 2.559512
4.207234 -9.597999 -0.549214
4.173780 -9.526197 2.401128
4.253933 -9.713755 -0.185100
4.169170 -9.524723 2.785928
1.999172 -4.584644 -1.340165
2.249427 -5.161005 -1.299767
5.070875 -11.639986 0.665399
2.403879 -5.520637 -1.170422
4.951097 -11.375878 1.085438
2.522375 -5.798297 -1.001494
4.487535 -10.315701 1.381267
2.707114 -6.225935 -0.833586
5.548550 -12.766887 2.204788
3.712723 -8.546834 -0.815255
5.206693 -11.991739 2.541194
4.164076 -9.595034 -0.548167
4.129530 -9.519978 2.395729
4.212044 -9.710199 -0.184751
4.130518 -9.526811 2.782305
1.977794 -4.579179 -1.336542
2.229723 -5.167426 -1.299317
5.068196 -11.745638 0.670424
2.375264 -5.507361 -1.165843
7.403708 -17.174715 1.636262
2.509155 -5.823393 -1.004309
4.971067 -11.542686 1.543110
2.713317 -6.303279 -0.842605
3.746649 -8.707987 -0.829374
5.112060 -11.887199 2.515244
4.124249 -9.594830 -0.547329
4.093966 -9.528962 2.394379
4.184437 -9.739541 -0.185030
4.086565 -9.516319 2.775058
1.961797 -4.586055 -1.336542
2.211043 -5.171208 -1.298417
5.006758 -11.715508 0.667702
2.357568 -5.519230 -1.166606
4.815230 -11.278235 1.072887
2.496811 -5.848032 -1.007125
4.465276 -10.463630 1.396867
2.676044 -6.273898 -0.837486
3.771683 -8.851149 -0.841750
4.085364 -9.591916 -0.546387
4.050895 -9.515591 2.387630
4.139453 -9.728327 -0.184542
4.045763 -9.512748 2.769881
1.951102 -4.603208 -1.339647
2.192979 -5.178894 -1.298417
5.244523 -12.391384 0.705175
2.339252 -5.527018 -1.166606
5.004467 -11.829948 1.123786
2.921037 -6.908338 -1.187963
2.604692 -6.166168 -0.821887
3.640836 -8.627464 -0.819264
4.998971 -11.845752 2.499216
4.039439 -9.576674 -0.544713
4.011597 -9.515308 2.384031
4.103917 -9.739033 -0.184472
3.997535 -9.491204 2.759529
1.936460 -4.615673 -1.341200
5.033986 -11.998818 0.227126
2.180162 -5.199097 -1.301567
4.583604 -10.936007 0.621437
2.309118 -5.512014 -1.161645
4.974926 -11.881291 1.126924
2.893410 -6.913530 -1.187025
4.392117 -10.494548 1.396867
2.981502 -7.127510 -0.948631
3.613003 -8.645636 -0.819787
3.993538 -9.565612 -0.543247
3.966190 -9.504769 2.377733
4.051415 -9.709006 -0.183634
3.960661 -9.496187 2.756941
1.921818 -4.625972 -1.342236
7.264487 -17.494823 0.330653
2.164828 -5.216053 -1.303816
4.683213 -11.283985 0.640278
2.285349 -5.509161 -1.159356
2.874553 -6.936362 -1.189215
4.964391 -11.985100 1.592832
3.486898 -8.422273 -1.119248
3.580516 -8.652672 -0.819264
3.957072 -9.572111 -0.542829
3.924057 -9.496943 2.372334
4.014445 -9.715697 -0.183495
3.920853 -9.493884 2.752282
1.901249 -4.621933 -1.339130
7.198825 -17.500324 0.330304
2.149000 -5.226808 -1.304716
5.164581 -12.567549 0.712083
2.258646 -5.498944 -1.155539
2.420917 -5.896943 -1.009628
4.835698 -11.784789 1.564071
3.454431 -8.422771 -1.117786
3.588815 -8.759144 -0.828154
3.916226 -9.563001 -0.541573
3.886637 -9.495476 2.368735
3.980506 -9.729651 -0.183495
3.875258 -9.477115 2.743482
1.887370 -4.631790 -1.340165
5.185634 -12.732406 0.239971
2.132212 -5.237887 -1.305616
5.481319 -13.465140 0.761907
2.240398 -5.506404 -1.155539
2.375029 -5.843137 -0.998991
4.742230 -11.672859 1.547010
3.435463 -8.460526 -1.121198
3.570988 -8.798688 -0.830769
4.864086 -11.990803 2.515244
3.879817 -9.569210 -0.541154
3.848345 -9.496342 2.365585
3.937705 -9.716851 -0.183006
3.832931 -9.463054 2.735718
1.876250 -4.650891 -1.343789
7.060087 -17.500702 0.329397
2.114102 -5.243121 -1.305166
5.214793 -12.939562 0.731133
2.216762 -5.503264 -1.153250
4.246606 -10.547803 0.994796
2.359328 -5.860144 -1.000555
4.724246 -11.740087 1.553834
2.462209 -6.121849 -0.810187
3.554367 -8.846226 -0.834080
7.090420 -17.646870 3.696734
3.836900 -9.554222 -0.539584
3.807396 -9.485541 2.359737
3.887382 -9.689708 -0.182238
3.791967 -9.456653 2.730023
1.860623 -4.661325 -1.344824
4.415631 -11.067867 0.207998
2.093954 -5.251200 -1.305166
4.878819 -12.235061 0.690311
2.190763 -5.496762 -1.150197
5.108930 -12.825141 1.207804
2.344846 -5.889348 -1.003996
2.489307 -6.258531 -0.827005
3.524128 -8.864748 -0.834603
3.794289 -9.554034 -0.538746
3.763037 -9.480166 2.354788
3.792821 -9.555200 -0.179446
3.755144 -9.465100 2.728471
1.846471 -4.673182 -1.346377
3.764580 -9.527670 0.178817
2.082256 -5.272615 -1.308765
3.768404 -9.547098 0.537909
2.168679 -5.497071 -1.148670
3.773432 -9.569616 0.899970
2.336899 -5.926494 -1.009002
2.431435 -6.172557 -0.814575
4.886857 -12.412363 2.112804
3.612813 -9.181052 -0.863190
3.755275 -9.547977 -0.537700
3.725875 -9.478084 2.351188
3.749206 -9.542325 -0.178957
3.718551 -9.469159 2.725882
1.829556 -4.675681 -1.345341
3.731299 -9.540752 0.178817
2.066676 -5.287112 -1.310565
3.728514 -9.543450 0.536967
2.141865 -5.482288 -1.144091
3.725734 -9.541247 0.896135
2.324097 -5.954856 -1.012444
3.724641 -9.548284 1.258423
2.469724 -6.334514 -0.834805
3.718873 -9.543338 1.622226
2.767781 -7.102656 -0.666916
3.718621 -9.547617 1.991664
3.711780 -9.534970 -0.536234
3.684288 -9.469239 2.345790
3.714425 -9.551626 -0.178887
3.682676 -9.474878 2.723812
1.813921 -4.683840 -1.345859
3.690755 -9.535070 0.178468
2.053833 -5.308833 -1.314164
3.690856 -9.545231 0.536339
2.122715 -5.489732 -1.144091
3.680915 -9.524459 0.893346
2.308990 -5.977675 -1.014947
3.682708 -9.539003 1.255498
2.456172 -6.365320 -0.837730
3.682695 -9.548888 1.620974
3.674264 -9.527027 -0.893346
3.673974 -9.531228 1.985558
3.672011 -9.531096 -0.535292
3.651213 -9.482041 2.345790
3.670287 -9.536539 -0.178364
3.638482 -9.458827 2.715529
1.796869 -4.688339 -1.345341
3.647433 -9.521753 0.177980
2.029715 -5.301411 -1.310565
3.652042 -9.538766 0.535292
2.100734 -5.489774 -1.142564
3.645509 -9.531667 0.892823
2.276825 -5.956176 -1.009941
3.643013 -9.535111 1.253304
2.388617 -6.255168 -0.822131
3.642553 -9.538903 1.617220
3.633171 -9.519319 -0.891429
3.636482 -9.532989 1.983269
3.626624 -9.512130 -0.533513
3.613235 -9.481981 2.342640
3.630098 -9.526235 -0.177945
3.599532 -9.450982 2.709836
1.783233 -4.701808 -1.347412
3.612293 -9.524446 0.177805
2.016268 -5.319046 -1.313264
3.608817 -9.525308 0.533827
2.077386 -5.486057 -1.140275
3.606574 -9.529427 0.891429
2.258460 -5.967388 -1.010567
3.602944 -9.524859 1.250380
2.357330 -6.235203 -0.818475
3.598063 -9.521994 1.612214
3.596400 -9.522623 -0.890557
3.596526 -9.522957 1.978689
3.592239 -9.516629 -0.533094
3.570077 -9.462914 2.334992
3.590473 -9.522009 -0.177631
3.566520 -9.463489 2.709836
1.771706 -4.718547 -1.350518
3.575511 -9.527637 0.177631
2.001796 -5.336999 -1.315964
3.572740 -9.530365 0.533408
2.055047 -5.481885 -1.137985
3.567963 -9.522677 0.889686
2.222374 -5.934537 -1.003684
3.565500 -9.526222 1.248917
2.355722 -6.297312 -0.825543
3.555116 -9.508592 1.607834
3.558522 -9.517702 -0.888989
3.561888 -9.531775 1.977926
3.553408 -9.514141 -0.532257
3.532934 -9.464366 2.332292
3.541835 -9.493266 -0.176863
3.526716 -9.457780 2.704659
1.751861 -4.715648 -1.347930
3.533880 -9.517564 0.177212
1.985187 -5.349435 -1.317313
3.531811 -9.522180 0.532257
2.033169 -5.481663 -1.136458
3.527084 -9.514524 0.887768
2.195469 -5.925588 -1.000868
3.527400 -9.525580 1.247211
3.234280 -8.738707 -1.144109
3.518478 -9.511680 1.606269
3.516984 -9.507640 -0.886897
3.517702 -9.514687 1.971820
3.514636 -9.511500 -0.531419
3.485699 -9.438251 2.322845
3.505214 -9.496191 -0.176688
3.483650 -9.442846 2.696894
1.737388 -4.727174 -1.349483
3.490292 -9.501686 0.176688
1.969189 -5.363649 -1.319113
3.492359 -9.517575 0.531315
2.009008 -5.478018 -1.134169
3.484931 -9.502460 0.885502
2.119706 -5.782983 -0.975525
3.484568 -9.511741 1.243799
2.250956 -6.147702 -0.803850
3.478465 -9.505353 1.603141
3.476638 -9.505498 -0.885502
3.465954 -9.481419 1.962280
3.475640 -9.513062 -0.530791
3.450057 -9.443040 2.321045
3.471359 -9.506491 -0.176653
3.446031 -9.442245 2.693271
1.723350 -4.742589 -1.352071
3.447934 -9.493739 0.176304
1.944862 -5.358008 -1.315964
3.455409 -9.524679 0.531001
1.986239 -5.477962 -1.132642
3.448041 -9.509550 0.884979
2.096476 -5.785142 -0.974587
3.443599 -9.507649 1.241605
3.167610 -8.750428 -1.142647
3.438227 -9.503178 1.600638
3.436356 -9.503186 -0.884108
3.429845 -9.490365 1.961517
3.430572 -9.497561 -0.529221
3.411451 -9.444625 2.318346
3.428342 -9.496579 -0.176234
3.406155 -9.440275 2.689130
1.705302 -4.747055 -1.351553
3.410412 -9.498784 0.176165
1.926527 -5.368769 -1.316863
3.410671 -9.504725 0.529221
1.965780 -5.481166 -1.131879
3.409131 -9.510870 0.883933
2.068597 -5.774191 -0.971458
3.402706 -9.503386 1.239411
2.179078 -6.089276 -0.794101
3.397713 -9.494662 1.597196
3.400477 -9.507621 -0.883411
3.390088 -9.483792 1.957700
3.394710 -9.501954 -0.528803
3.366326 -9.427700 2.311147
3.392483 -9.500956 -0.176095
3.366688 -9.433912 2.683954
1.690016 -4.756620 -1.352588
3.374209 -9.496851 0.175920
1.911974 -5.384310 -1.319113
3.370794 -9.497749 0.528175
1.936134 -5.458390 -1.125773
3.371251 -9.509567 0.882713
2.083760 -5.877834 -0.987727
3.363880 -9.494037 1.236730
2.197306 -6.205000 -0.808238
3.355980 -9.482257 1.593129
3.359961 -9.498771 -0.881493
3.356002 -9.487578 1.956174
3.355859 -9.492446 -0.527651
3.330499 -9.425949 2.307998
3.349977 -9.486341 -0.175606
3.325379 -9.421925 2.677224
1.678718 -4.774955 -1.356212
3.337059 -9.497252 0.175711
1.895750 -5.398306 -1.320913
3.337956 -9.505107 0.527965
1.921924 -5.475895 -1.128063
3.329146 -9.490615 0.879924
2.093292 -5.970823 -1.002119
3.328094 -9.498226 1.235755
2.223529 -6.349400 -0.826030
3.317337 -9.472826 1.589687
3.318571 -9.481653 -0.878878
3.320918 -9.493676 1.955029
3.320067 -9.496560 -0.527232
3.294364 -9.428320 2.305748
3.311904 -9.478520 -0.175257
3.283288 -9.401896 2.668424
1.667114 -4.795384 -1.360353
3.298980 -9.489378 0.175362
1.881037 -5.413767 -1.323162
3.297550 -9.495947 0.526814
1.898935 -5.471442 -1.125773
3.290774 -9.487119 0.878530
1.972494 -5.686590 -0.953312
3.290076 -9.490456 1.233318
2.199861 -6.349236 -0.825056
3.281664 -9.476881 1.588436
3.280891 -9.479999 -0.877658
3.278503 -9.473097 1.948542
3.282029 -9.488643 -0.526186
3.262443 -9.437350 2.305298
3.278798 -9.490024 -0.175257
3.241623 -9.387734 2.661178
0.388297 -1.128976 -0.319900
3.259986 -9.483815 0.175048
1.864660 -5.427672 -1.324962
3.257897 -9.488508 0.525767
1.878231 -5.470282 -1.124247
3.256062 -9.488555 0.877658
1.950709 -5.687835 -0.952373
3.246628 -9.471837 1.229418
2.137799 -6.240443 -0.809944
3.242165 -9.469590 1.585307
3.245199 -9.483853 -0.876961
3.240330 -9.469623 1.945489
3.241132 -9.477364 -0.524930
3.223178 -9.430241 2.300799
3.238541 -9.480595 -0.174873
3.206961 -9.393507 2.659625
0.390372 -1.148682 -0.325077
3.221715 -9.479991 0.174768
1.841942 -5.423077 -1.322262
3.218978 -9.482801 0.524825
1.856908 -5.473411 -1.123483
3.217424 -9.489105 0.876612
3.210361 -9.473711 1.228199
2.125553 -6.276071 -0.813600
3.205925 -9.471494 1.583743
3.206330 -9.478138 -0.875392
3.199941 -9.464698 1.942054
3.198061 -9.464581 -0.523569
3.176747 -9.406911 2.292251
3.202869 -9.484262 -0.174733
3.169827 -9.391831 2.656001
0.382669 -1.139050 -0.321971
3.183765 -9.482256 0.174594
1.828253 -5.448266 -1.326761
3.178484 -9.477493 0.523883
1.832796 -5.464968 -1.120430
3.176049 -9.475719 0.874346
1.948861 -5.817779 -0.971771
3.173726 -9.479767 1.227468
2.098757 -6.272524 -0.812137
3.164922 -9.464447 1.580614
3.170696 -9.481714 -0.874695
3.162528 -9.462775 1.939383
3.162474 -9.468109 -0.523150
3.139571 -9.405005 2.289102
3.159858 -9.471278 -0.174280
3.134773 -9.401553 2.655483
0.377473 -1.136712 -0.320936
3.145607 -9.478129 0.174315
1.811677 -5.462013 -1.328561
3.142869 -9.480947 0.523464
1.812474 -5.467606 -1.119667
3.134808 -9.462162 0.872080
1.944684 -5.873303 -0.979906
3.133757 -9.470057 1.224787
3.128147 -9.464182 1.578737
3.127577 -9.462457 -0.871906
3.123319 -9.455115 1.935566
3.125648 -9.467710 -0.522522
3.105502 -9.412205 2.288202
3.119890 -9.461362 -0.173896
3.091656 -9.381248 2.646684
0.368683 -1.123339 -0.316795
3.103154 -9.460550 0.173791
1.790780 -5.462749 -1.327211
3.106023 -9.480474 0.522836
1.792154 -5.470168 -1.118904
3.099280 -9.465472 0.871383
1.939530 -5.926991 -0.987727
3.098829 -9.475279 1.224056
2.080201 -6.364384 -0.822131
3.089572 -9.458145 1.575921
3.091435 -9.463846 -0.871035
3.082375 -9.441698 1.930605
3.089483 -9.469071 -0.521999
3.063566 -9.395195 2.281454
3.081887 -9.456984 -0.173617
3.054105 -9.377287 2.642542
0.369528 -1.139320 -0.320936
3.063329 -9.450399 0.173407
1.769298 -5.461551 -1.325412
3.067375 -9.474155 0.521894
1.770630 -5.468919 -1.117378
3.062541 -9.464859 0.870337
1.914574 -5.920568 -0.985537
3.055968 -9.455814 1.220156
2.001231 -6.195929 -0.799463
3.055323 -9.465113 1.575295
3.052871 -9.457517 -0.869466
3.042166 -9.429978 1.926026
3.046606 -9.449383 -0.520324
3.028361 -9.398414 2.279654
3.044567 -9.454360 -0.173372
3.020170 -9.384213 2.641507
0.365549 -1.140603 -0.320936
3.027272 -9.451513 0.173233
1.748440 -5.462125 -1.324062
3.028025 -9.459547 0.520533
1.746744 -5.460107 -1.114325
3.025843 -9.464106 0.869291
1.913135 -5.987428 -0.995549
3.016300 -9.445623 1.217475
2.015094 -6.310319 -0.813356
3.017914 -9.456373 1.572167
3.017419 -9.460521 -0.868768
3.012212 -9.449892 1.927934
3.010570 -9.450444 -0.519801
2.987713 -9.378695 2.272455
3.011985 -9.460592 -0.173302
2.984348 -9.379450 2.637366
0.361764 -1.141809 -0.320936
2.990480 -9.444344 0.172918
1.727378 -5.458604 -1.321812
2.991819 -9.454303 0.519696
1.722116 -5.445279 -1.110127
2.992640 -9.468388 0.868768
1.889105 -5.980554 -0.993359
2.984364 -9.453681 1.217231
1.989974 -6.303716 -0.811650
2.978812 -9.441839 1.568099
2.978840 -9.447673 -0.866677
2.974367 -9.439233 1.923736
2.974416 -9.445135 -0.518963
2.952499 -9.375540 2.269306
2.972792 -9.445731 -0.172849
2.951488 -9.383766 2.635813
0.347583 -1.109818 -0.311618
2.957355 -9.448482 0.172814
1.706940 -5.456863 -1.320013
2.958066 -9.456548 0.519277
1.700534 -5.439717 -1.107837
2.954095 -9.455440 0.866677
1.965816 -6.296024 -1.044670
2.946493 -9.442680 1.214550
1.925302 -6.170051 -0.793613
2.942193 -9.434694 1.565283
2.118734 -6.798291 -0.622989
2.940715 -9.441545 1.922210
2.119159 -6.808020 -0.373679
2.920234 -9.381558 2.268406
2.913474 -9.371366 2.629602
0.343901 -1.110965 -0.311618
2.924823 -9.454416 0.172744
1.691713 -5.471802 -1.322262
2.923741 -9.456764 0.518754
1.687702 -5.462208 -1.111272
2.917434 -9.448050 0.865108
1.947839 -6.311946 -1.046234
2.913994 -9.448606 1.214063
1.902491 -6.168814 -0.792638
2.906236 -9.429296 1.562780
2.091486 -6.790047 -0.621595
2.903036 -9.430605 1.918012
2.087761 -6.786375 -0.372109
2.885096 -9.378152 2.265257
2.089711 -6.796930 -0.124122
2.877274 -9.364355 2.624943
0.325906 -1.067991 -0.299195
2.071950 -6.794003 0.123982
1.662349 -5.454316 -1.316414
2.071735 -6.797549 0.372423
1.662330 -5.457670 -1.108982
1.983425 -6.520040 -1.079398
1.898563 -6.248905 -0.801900
2.870658 -9.448446 1.564032
2.062475 -6.792669 -0.621072
2.860595 -9.427154 1.914959
2.054707 -6.775588 -0.371062
2.842962 -9.380830 2.263008
2.053709 -6.776557 -0.123598
2.837420 -9.368434 2.622872
0.319947 -1.061723 -0.297124
2.043062 -6.779775 0.123598
1.640881 -5.448602 -1.313714
2.042238 -6.785614 0.371376
1.642138 -5.459679 -1.108219
2.043500 -6.798402 0.621072
2.024913 -6.736567 -1.114126
2.045112 -6.808079 0.872828
1.878972 -6.258969 -0.802388
2.039550 -6.798173 1.124138
2.062785 -6.879982 -0.628393
2.039386 -6.801940 1.380312
2.032227 -6.782364 -0.371062
2.039840 -6.812099 1.641693
2.028896 -6.779853 -0.123528
2.801380 -9.367176 2.619766
2.019384 -6.786865 0.123598
1.619074 -5.444958 -1.311465
2.014557 -6.779300 0.370643
1.618432 -5.446276 -1.104403
2.018675 -6.797501 0.620375
2.008129 -6.766320 -1.117881
2.011175 -6.780919 0.868441
2.111534 -7.123855 -0.912314
2.006269 -6.773053 1.118819
2.079003 -7.018598 -0.640420
2.007272 -6.780781 1.374588
2.002307 -6.768350 -0.369911
2.006657 -6.787409 1.634045
2.001817 -6.775388 -0.123319
2.007159 -6.797834 1.899214
1.992863 -6.784280 0.123423
1.598960 -5.446836 -1.310565
1.989756 -6.782458 0.370434
1.599964 -5.453776 -1.104784
1.989330 -6.785387 0.618631
1.990608 -6.794141 -1.121322
1.980798 -6.765037 0.865516
2.042057 -6.978765 -0.892815
1.975962 -6.757262 1.115065
2.054492 -7.025812 -0.640420
1.979735 -6.774555 1.371917
1.983148 -6.790635 -0.370748
1.980770 -6.786890 1.632245
1.971995 -6.761217 -0.122935
1.981796 -6.799234 1.897661
1.579396 -5.450513 -1.310115
1.962252 -6.771754 0.369492
1.579278 -5.453671 -1.103639
1.961755 -6.778892 0.617411
1.959746 -6.776379 -1.117255
1.960480 -6.783352 0.866979
2.008870 -6.955337 -0.888915
1.952447 -6.759983 1.114439
1.971387 -6.830031 -0.621943
1.947370 -6.751243 1.365811
1.957220 -6.789840 -0.370329
1.948974 -6.765674 1.625496
1.957313 -6.794621 -0.123423
1.945343 -6.757501 1.884203
1.942785 -6.784231 0.123179
1.555951 -5.436985 -1.305616
1.940248 -6.784323 0.369806
1.559153 -5.455374 -1.102876
