# This PCD file was generated using the MATLAB® pcwrite function
# from Computer Vision Toolbox®.
# .PCD v.7 - Point Cloud Data file format
VERSION .7
FIELDS x y z
SIZE 4 4 4
TYPE F F F
COUNT 1 1 1
WIDTH 1725
HEIGHT 1
VIEWPOINT 0 0 0 1 0 0 0
POINTS 1725
DATA ascii
0.508414 5.674299 -1.526515
3.704936 41.350033 0.724659
0.588784 6.558417 -1.520219
2.016043 22.412628 1.179339
0.692224 7.680532 -1.498996
1.827915 20.241999 1.778151
0.691629 7.658977 -1.217999
1.360371 15.035212 1.853633
0.707395 7.803161 -0.962037
0.699395 7.699926 1.224569
0.697200 7.660957 -0.673017
0.699104 7.681880 1.499377
0.698793 7.663646 -0.403301
0.702629 7.690828 1.782962
0.701595 7.664785 -0.134349
0.705372 7.691266 2.069517
0.527765 5.678353 -1.528068
3.848892 41.332863 0.724589
0.611491 6.554382 -1.519769
2.032189 21.741264 1.144378
0.717510 7.676239 -1.498614
1.894664 20.231859 1.777803
0.717251 7.644716 -1.216122
1.417308 15.077802 1.859483
0.736493 7.820407 -0.964474
0.727934 7.715138 1.227385
0.732518 7.763732 -0.682255
0.724993 7.669621 1.497469
0.725731 7.663148 -0.403406
0.730202 7.696089 1.784762
0.728726 7.666270 -0.134418
0.731851 7.684911 2.068482
0.546837 5.668785 -1.525997
0.632678 6.534750 -1.515720
2.047914 21.113804 1.111720
0.744302 7.673688 -1.498614
1.941762 19.983192 1.756537
0.744699 7.650030 -1.217373
1.467238 15.045102 1.856070
0.765329 7.833594 -0.966424
0.755054 7.714517 1.227698
0.750495 7.667931 -0.674062
0.752720 7.676812 1.499377
0.752279 7.658581 -0.403301
0.757827 7.701251 1.786561
0.755288 7.661690 -0.134384
0.759810 7.693844 2.071588
0.565854 5.659153 -1.523927
3.888226 38.817810 0.680958
0.654510 6.522807 -1.513471
2.070850 20.601768 1.085134
0.769115 7.651510 -1.494798
1.961207 19.476734 1.712610
0.772190 7.655246 -1.218625
1.521731 15.059642 1.858508
0.793071 7.834825 -0.966911
0.782379 7.715764 1.228324
0.778794 7.667111 -0.674237
0.779508 7.674138 1.499377
0.780223 7.667830 -0.403929
0.784312 7.694681 1.785661
0.783038 7.668954 -0.134558
0.787057 7.694988 2.072623
0.587986 5.670491 -1.527550
3.906526 37.674236 0.661132
0.677277 6.520483 -1.513471
2.142757 20.594414 1.085134
0.796542 7.642782 -1.493653
1.978373 18.950232 1.666941
0.800244 7.652364 -1.218625
1.576772 15.077929 1.861433
0.821029 7.837933 -0.967643
0.810130 7.720845 1.229575
0.806179 7.670290 -0.674760
0.807833 7.673182 1.499759
0.808739 7.668892 -0.404138
0.812916 7.695631 1.786561
0.808965 7.658218 -0.134418
0.814321 7.696036 2.073658
0.605924 5.651117 -1.522891
4.038205 37.600014 0.660085
0.700544 6.512143 -1.512121
2.619229 24.347918 1.283382
0.822586 7.634099 -1.492508
1.989356 18.432140 1.621968
0.827799 7.657380 -1.219876
1.635868 15.107573 1.865820
0.852326 7.858552 -0.970568
0.837717 7.723861 1.230514
0.844782 7.776370 -0.684347
0.836526 7.687881 1.503193
0.835289 7.664036 -0.404034
0.840196 7.696621 1.787461
0.836124 7.659325 -0.134488
0.841595 7.696989 2.074694
0.624372 5.637446 -1.519786
4.184874 37.785172 0.663575
0.722134 6.509785 -1.512121
2.705092 24.346563 1.283801
0.848146 7.621425 -1.490600
2.001144 17.953815 1.580482
0.852310 7.646739 -1.218625
1.686842 15.109956 1.866795
0.877276 7.845819 -0.969349
0.865547 7.728743 1.231765
0.859486 7.662495 -0.674585
0.860486 7.671408 1.500522
0.861143 7.665194 -0.404243
0.866370 7.699602 1.788811
0.863977 7.666295 -0.134663
0.868026 7.690164 2.073658
0.643938 5.643022 -1.521856
4.297662 37.603443 0.660643
0.742639 6.487863 -1.507622
2.787852 24.355318 1.284743
0.872746 7.612718 -1.489455
2.011584 17.519533 1.542831
0.879902 7.651568 -1.219876
1.742759 15.131584 1.870207
0.906021 7.854541 -0.970811
0.891401 7.727792 1.232078
0.886262 7.671478 -0.675631
0.888840 7.682009 1.503193
0.889502 7.676029 -0.404976
0.894587 7.708145 1.791510
0.889393 7.663388 -0.134663
0.894863 7.698756 2.076764
0.662728 5.633066 -1.519786
4.423263 37.596931 0.660783
0.763695 6.481494 -1.506722
2.871442 24.333540 1.284115
0.897465 7.594028 -1.486402
2.024489 17.104816 1.506923
0.906201 7.656454 -1.221128
1.796189 15.153321 1.873619
0.932065 7.851493 -0.970811
0.920704 7.744249 1.235207
0.923166 7.753409 -0.683127
0.914076 7.677070 1.502812
0.913772 7.663121 -0.404452
0.918759 7.693526 1.788811
0.916615 7.664207 -0.134733
0.922419 7.701341 2.078317
0.681870 5.634673 -1.520821
4.555927 37.593174 0.660992
0.785844 6.474920 -1.505822
2.958539 24.341211 1.285057
0.921224 7.579317 -1.484113
2.029197 16.670807 1.469272
0.933159 7.655205 -1.221440
1.852445 15.174545 1.877032
0.962355 7.871837 -0.973736
0.946770 7.733145 1.233955
0.941009 7.674992 -0.676503
0.941584 7.679679 1.503957
0.941244 7.665833 -0.404766
0.946083 7.694141 1.789711
0.943361 7.660961 -0.134733
0.949531 7.699991 2.078835
0.699647 5.609132 -1.514609
4.689343 37.594902 0.661307
0.808926 6.476005 -1.506722
3.044734 24.340645 1.285581
0.947532 7.564201 -1.481823
2.043171 16.287645 1.436152
0.962198 7.659574 -1.222692
1.909860 15.203439 1.881419
0.987843 7.852673 -0.971786
0.974500 7.735672 1.234894
0.967297 7.667706 -0.676154
0.970215 7.680071 1.504720
0.969838 7.666293 -0.404976
0.974769 7.694489 1.790610
0.970601 7.661589 -0.134802
0.975672 7.690880 2.077282
0.719223 5.606655 -1.514609
4.828897 37.591343 0.661551
0.831660 6.465265 -1.504923
3.131204 24.341753 1.286209
0.974935 7.568636 -1.483349
2.052092 15.908926 1.403382
0.988421 7.652250 -1.222066
1.965058 15.192401 1.880932
1.017640 7.856874 -0.972761
1.003018 7.743978 1.236771
1.005331 7.751220 -0.683824
0.996514 7.672745 1.503957
0.998394 7.676726 -0.405708
1.003634 7.706498 1.794210
0.997854 7.662120 -0.134872
1.003514 7.695090 2.079352
0.739294 5.607942 -1.515644
4.956657 37.598915 0.661970
0.851309 6.448948 -1.501773
3.216945 24.336615 1.286523
1.000320 7.557401 -1.481823
2.059440 15.538243 1.371308
1.014309 7.652847 -1.222692
1.991665 15.006726 1.858751
1.045260 7.865263 -0.974224
1.032126 7.756095 1.239274
1.021594 7.666691 -0.676677
1.020918 7.661613 1.502430
1.023319 7.669413 -0.405499
1.029956 7.708922 1.795559
1.026717 7.674447 -0.135151
1.031653 7.701114 2.081941
0.757885 5.605459 -1.515644
5.090564 37.601200 0.662319
0.873293 6.442075 -1.500873
3.293263 24.261909 1.283173
1.024843 7.550153 -1.481060
2.069637 15.227295 1.344464
1.042616 7.661004 -1.224569
2.006501 14.724317 1.824628
1.071633 7.853700 -0.973249
1.059463 7.754401 1.239587
1.048899 7.677080 -0.677897
1.050581 7.679399 1.506628
1.050354 7.667774 -0.405604
1.055537 7.695627 1.793310
1.052413 7.662891 -0.135012
1.059053 7.701293 2.082976
0.778245 5.608520 -1.517197
5.224548 37.603004 0.662668
0.894162 6.427407 -1.498174
3.295275 23.656816 1.251772
1.048485 7.527085 -1.477243
2.077095 14.892412 1.315529
1.069897 7.661231 -1.225195
2.016106 14.418395 1.787580
1.099594 7.853842 -0.973736
1.086523 7.750657 1.239587
1.075689 7.673372 -0.677897
1.076560 7.669853 1.505483
1.077671 7.668015 -0.405813
1.082120 7.689965 1.792860
1.079150 7.659172 -0.135012
1.087281 7.707114 2.085564
0.794825 5.584731 -1.511503
1.098232 7.706959 0.135884
0.916043 6.420387 -1.497274
3.303750 23.155403 1.225813
1.074755 7.523379 -1.477243
2.084483 14.573446 1.287988
1.097755 7.665270 -1.226446
2.025290 14.124379 1.751994
1.128448 7.869802 -0.976174
1.113902 7.758743 1.241464
1.100485 7.655766 -0.676677
1.106685 7.689367 1.510062
1.106134 7.676069 -0.406441
1.109837 7.701766 1.796459
1.105402 7.661489 -0.135117
1.110621 7.688171 2.081423
0.812228 5.574418 -1.509433
1.121476 7.687445 0.135605
0.937891 6.421171 -1.498174
3.314121 22.689775 1.201738
1.098563 7.512002 -1.475717
2.090083 14.274690 1.262189
1.121734 7.651815 -1.224882
2.031762 13.842619 1.717870
1.155118 7.869945 -0.976661
1.140201 7.758915 1.242090
1.128475 7.669815 -0.678246
1.129604 7.668174 1.506628
1.133042 7.682238 -0.406964
1.135373 7.698043 1.796459
1.131093 7.659759 -0.135151
1.138373 7.699734 2.085564
0.829566 5.564051 -1.507362
1.147551 7.687639 0.135675
0.956589 6.400679 -1.494125
3.321774 22.200054 1.176408
1.122882 7.504436 -1.474954
2.094899 13.983943 1.237089
1.148569 7.657821 -1.226446
2.037266 13.566863 1.684478
1.181986 7.861939 -0.976174
1.169926 7.772468 1.244906
1.155388 7.675881 -0.679118
1.156781 7.676034 1.508918
1.156722 7.666589 -0.406336
1.163986 7.705593 1.799158
1.160517 7.673559 -0.135466
1.164948 7.693804 2.085046
0.849859 5.566850 -1.508915
1.175892 7.693470 0.135850
0.978335 6.393449 -1.493225
3.332712 21.753992 1.153380
1.148775 7.498529 -1.474572
2.112290 13.771732 1.218960
1.175891 7.657671 -1.227072
2.045396 13.304604 1.652792
1.206405 7.838146 -0.973736
1.197951 7.774193 1.245844
1.183386 7.679678 -0.679815
1.182668 7.666129 1.507773
1.183783 7.664478 -0.406441
1.189687 7.693779 1.797359
1.188517 7.677366 -0.135605
1.194758 7.708780 2.090223
0.868094 5.556215 -1.506845
1.204901 7.703149 0.136094
1.001549 6.395771 -1.494575
3.383267 21.580427 1.144797
1.172208 7.477017 -1.471137
2.160346 13.764276 1.218960
1.203532 7.659374 -1.228011
2.051109 13.038534 1.620619
1.236844 7.853497 -0.976174
1.224464 7.766063 1.245219
1.211116 7.681405 -0.680338
1.214321 7.692981 1.513879
1.212710 7.674109 -0.407174
1.217749 7.697279 1.799158
1.214373 7.667244 -0.135500
1.223473 7.716012 2.093328
0.886873 5.549335 -1.505809
1.233365 7.708769 0.136268
1.022637 6.384539 -1.492775
3.401652 21.213516 1.125956
1.198610 7.474819 -1.471519
2.211541 13.776321 1.220703
1.231831 7.664878 -1.229575
2.058137 12.792189 1.590883
1.263621 7.845211 -0.975686
1.253768 7.775392 1.247409
1.237289 7.673196 -0.679989
1.239914 7.680943 1.512352
1.241086 7.679687 -0.407697
1.245857 7.700677 1.800958
1.240808 7.660985 -0.135466
1.247619 7.694531 2.088670
0.904991 5.538580 -1.503739
1.259622 7.700469 0.136199
1.044916 6.380930 -1.492775
3.399422 20.736370 1.101253
1.223740 7.464777 -1.470374
3.266978 19.906647 1.764904
1.258577 7.660532 -1.229575
1.309925 7.964380 0.991042
1.292936 7.852505 -0.977149
1.283149 7.784612 1.249599
1.281886 7.776953 -0.689576
1.265437 7.668820 1.510826
1.268539 7.679248 -0.407906
1.274636 7.707818 1.803658
1.271463 7.680281 -0.135884
1.276999 7.705376 2.092811
0.925590 5.543009 -1.505809
1.287811 7.703915 0.136338
1.064612 6.361868 -1.489176
1.332482 7.954094 0.422665
1.250112 7.462397 -1.470756
1.332599 7.946259 0.704916
1.285312 7.656091 -1.229575
1.338378 7.963675 0.991529
1.320337 7.847944 -0.977149
1.312285 7.791773 1.251476
1.292151 7.672230 -0.680686
1.293507 7.672100 1.512352
1.294338 7.668866 -0.407592
1.301860 7.705243 1.804107
1.299264 7.681711 -0.135989
1.305499 7.710395 2.095399
0.943635 5.532127 -1.503739
1.320752 7.734855 0.136966
1.085169 6.348508 -1.486926
1.273837 7.444441 -1.468084
1.361336 7.947451 0.705439
1.313362 7.659346 -1.230826
2.078467 12.108644 1.508499
1.343351 7.817854 -0.973980
1.338784 7.791273 1.252102
1.320274 7.675527 -0.681384
1.321277 7.673342 1.513497
1.322458 7.672174 -0.408011
1.328088 7.696811 1.803208
1.326772 7.689184 -0.136199
1.332046 7.711735 2.096952
0.962610 5.526896 -1.503221
1.343995 7.716641 0.136722
1.106884 6.348715 -1.487826
4.286501 24.560535 1.306620
1.298128 7.430280 -1.466176
3.279601 18.752661 1.665546
1.341475 7.670515 -1.233329
2.085408 11.912017 1.484856
1.371327 7.825088 -0.975442
1.367336 7.794334 1.253353
1.350162 7.688533 -0.682952
1.347057 7.670852 1.513879
1.349966 7.679550 -0.408639
1.355288 7.701961 1.805457
1.352215 7.676629 -0.136059
1.360971 7.718453 2.100058
0.980256 5.519869 -1.502186
1.371271 7.713871 0.136757
1.130064 6.350568 -1.489176
4.375705 24.565086 1.307666
1.321726 7.420135 -1.465032
3.283018 18.412157 1.636262
1.368938 7.669675 -1.233955
2.093112 11.715113 1.461214
1.401078 7.833932 -0.977149
1.394537 7.789514 1.253353
1.372489 7.666363 -0.681384
1.377637 7.687360 1.518076
1.376763 7.674790 -0.408639
1.384233 7.708691 1.808156
1.380774 7.681702 -0.136233
1.385851 7.702247 2.096952
0.998139 5.508811 -1.500115
1.394979 7.691329 0.136443
1.152575 6.348502 -1.489626
4.439281 24.427830 1.301177
1.348320 7.419340 -1.465795
3.290219 18.086950 1.608372
1.393935 7.655132 -1.232391
2.098745 11.514397 1.437083
1.430555 7.840711 -0.978611
1.424915 7.802087 1.256169
1.398886 7.659565 -0.681209
1.403751 7.678642 1.517313
1.406782 7.687619 -0.409581
1.412891 7.713396 1.810406
1.410820 7.694539 -0.136548
1.413777 7.703063 2.098505
1.015609 5.495794 -1.497527
1.422541 7.690347 0.136513
1.169760 6.317614 -1.483327
4.512881 24.349340 1.297827
1.373854 7.412658 -1.465413
3.300262 17.789349 1.582923
1.422089 7.657989 -1.233642
2.103376 11.315737 1.413197
1.462275 7.859088 -0.981536
1.454309 7.808719 1.258046
1.458079 7.828961 -0.696723
1.433066 7.687206 1.519985
1.433977 7.684624 -0.409686
1.439805 7.708417 1.810406
1.439143 7.697430 -0.136687
1.442436 7.707575 2.101093
1.036931 5.503606 -1.500633
1.451973 7.699089 0.136757
1.191084 6.309661 -1.482427
4.598215 24.335402 1.297932
1.398626 7.402030 -1.464268
3.307544 17.487982 1.557124
1.451018 7.664623 -1.235520
2.107010 11.119140 1.389554
1.488214 7.846135 -0.980561
1.481560 7.803594 1.258046
1.464218 7.712250 -0.686787
1.460622 7.686014 1.520748
1.460041 7.675649 -0.409477
1.467070 7.705258 1.810856
1.467128 7.698252 -0.136792
1.470412 7.708188 2.102646
1.055045 5.494261 -1.499080
1.479973 7.699865 0.136862
1.213097 6.305466 -1.482427
4.687294 24.340775 1.299083
1.421858 7.383607 -1.461597
3.316535 17.206348 1.533069
1.479630 7.669211 -1.237084
2.115325 10.953841 1.369812
1.515595 7.840893 -0.980561
1.510286 7.806133 1.259298
1.485447 7.677751 -0.684173
1.491177 7.700142 1.524564
1.486827 7.670505 -0.409477
1.494695 7.703918 1.811756
1.495133 7.698973 -0.136897
1.499524 7.714386 2.105752
1.071622 5.477273 -1.495457
1.508377 7.702502 0.137001
1.233977 6.295456 -1.481078
4.742245 24.171392 1.290919
1.444980 7.365113 -1.458926
3.323591 16.924870 1.509014
1.508298 7.673690 -1.238648
2.119064 10.771091 1.347875
1.545255 7.847241 -0.982023
1.538673 7.806628 1.260236
1.510699 7.664700 -0.683475
1.516529 7.687186 1.523037
1.517074 7.682904 -0.410419
1.524980 7.715859 1.815805
1.521224 7.689783 -0.136827
1.524940 7.701524 2.103681
1.090731 5.473500 -1.495457
1.534866 7.695229 0.136966
1.255946 6.291110 -1.481078
4.749085 23.766903 1.270194
1.471444 7.363876 -1.459689
3.326387 16.631832 1.483914
1.534302 7.664504 -1.238023
2.125053 10.605971 1.328132
1.575763 7.857369 -0.983973
1.568249 7.812829 1.262113
1.540976 7.676960 -0.685044
1.544125 7.685695 1.523801
1.544278 7.679519 -0.410523
1.553444 7.718130 1.817604
1.551215 7.700109 -0.137106
1.553344 7.703729 2.105752
1.109448 5.467766 -1.494939
1.561716 7.689825 0.136966
1.276345 6.279049 -1.479278
4.753183 23.362661 1.249469
1.496359 7.354846 -1.458926
3.339893 16.401461 1.464391
1.563412 7.670716 -1.239900
2.127941 10.431216 1.307171
1.607154 7.871271 -0.986411
1.596300 7.811179 1.262739
1.567364 7.669582 -0.684870
1.568975 7.670642 1.521893
1.571077 7.674081 -0.410523
1.582330 7.722206 1.819854
1.580091 7.704442 -0.137281
1.581781 7.705828 2.107822
1.130480 5.473320 -1.497527
1.589357 7.688242 0.137036
1.298257 6.274556 -1.479278
4.760177 22.986069 1.230209
1.522022 7.349579 -1.458926
3.346178 16.143887 1.442428
1.590983 7.669079 -1.240525
2.134474 10.279895 1.289134
1.633002 7.857838 -0.985436
1.625972 7.817162 1.264616
1.595751 7.671866 -0.685567
1.602942 7.699715 1.528762
1.600298 7.680283 -0.411151
1.607687 7.709004 1.818055
1.608612 7.706709 -0.137420
1.609458 7.704043 2.108858
1.147195 5.457996 -1.494421
1.618656 7.694389 0.137246
1.319347 6.266172 -1.478378
4.773672 22.652710 1.213252
1.542811 7.321168 -1.454346
3.353988 15.902067 1.421859
1.622229 7.684740 -1.243967
2.146957 10.161675 1.275241
1.658777 7.844322 -0.984461
1.653248 7.811440 1.264616
1.625820 7.681844 -0.686962
1.630625 7.697914 1.529525
1.630410 7.690280 -0.411989
1.637012 7.714784 1.820754
1.635502 7.701048 -0.137420
1.639552 7.713495 2.112999
1.165030 5.448291 -1.492868
1.648014 7.700425 0.137455
1.342030 6.265339 -1.479278
4.826182 22.531294 1.207600
1.567948 7.313818 -1.453965
3.350119 15.613639 1.397107
1.650290 7.684824 -1.244906
2.183252 10.158000 1.275728
1.690322 7.857892 -0.986898
1.679556 7.807846 1.264929
1.651788 7.672226 -0.686613
1.656247 7.686417 1.528380
1.657243 7.684543 -0.411989
1.667223 7.724261 1.824353
1.661876 7.699491 -0.137490
1.663085 7.698574 2.110410
1.182398 5.436641 -1.490798
1.671843 7.687101 0.137316
1.359482 6.245621 -1.475679
5.309526 24.372126 1.307248
1.593467 7.308300 -1.453965
3.363826 15.414977 1.380373
1.676606 7.683170 -1.245531
2.218617 10.158462 1.276703
1.718068 7.859999 -0.987873
1.710180 7.817373 1.267432
1.678983 7.668361 -0.686787
1.683825 7.690472 1.530288
1.686139 7.694613 -0.412826
1.693662 7.722497 1.825253
1.691313 7.705362 -0.137699
1.694091 7.711591 2.115587
1.200002 5.430803 -1.490280
1.700827 7.690980 0.137490
1.379589 6.233227 -1.473879
5.397155 24.365145 1.307876
1.616418 7.297226 -1.452820
3.369219 15.197549 1.361896
1.704269 7.681128 -1.246157
2.254491 10.152595 1.276947
1.747219 7.861705 -0.988848
1.740033 7.822924 1.269309
1.708731 7.682199 -0.688530
1.711937 7.690296 1.531433
1.711252 7.680882 -0.412407
1.723155 7.727950 1.827952
1.718633 7.701363 -0.137734
1.721422 7.707515 2.116105
1.218953 5.426581 -1.490280
1.728096 7.686948 0.137525
1.399629 6.220768 -1.472080
5.483933 24.353949 1.308294
1.641019 7.287708 -1.452057
3.373179 14.968010 1.342373
1.733681 7.686693 -1.248034
3.303096 14.633176 1.841933
1.772895 7.847814 -0.987873
1.769941 7.828364 1.271187
1.739050 7.691734 -0.689925
1.740506 7.691933 1.532960
1.738489 7.676810 -0.412512
1.747964 7.712386 1.825703
1.747277 7.703118 -0.137874
1.750884 7.712762 2.119210
1.237457 5.420410 -1.489762
1.757593 7.692565 0.137734
1.421337 6.215844 -1.472080
5.573362 24.354130 1.309341
1.664257 7.272367 -1.450148
3.381820 14.765817 1.325290
1.764035 7.695998 -1.250537
3.311987 14.437749 1.818778
1.802946 7.853186 -0.989335
1.797701 7.824062 1.271500
1.767675 7.693383 -0.690622
1.769544 7.695378 1.534868
1.768413 7.684319 -0.413245
1.777938 7.719530 1.828852
1.773705 7.695024 -0.137839
1.779962 7.716016 2.121799
1.252879 5.401002 -1.485621
1.787149 7.698071 0.137944
1.442139 6.207050 -1.471180
5.665131 24.363703 1.310911
1.686522 7.253127 -1.447477
3.383672 14.540462 1.306116
1.793571 7.701338 -1.252414
3.315506 14.225039 1.793429
1.832153 7.854578 -0.990310
1.827690 7.829283 1.273377
1.792703 7.679406 -0.689925
1.798630 7.698713 1.536776
1.796137 7.681989 -0.413454
1.806201 7.718970 1.830202
1.801924 7.694626 -0.137944
1.805565 7.704113 2.120246
1.270834 5.392836 -1.484586
1.812631 7.685947 0.137839
1.463799 6.201978 -1.471180
5.751853 24.370058 1.312272
1.712283 7.249106 -1.447859
3.392236 14.350181 1.290079
1.821354 7.698874 -1.253040
3.329928 14.064636 1.774661
1.861389 7.855861 -0.991285
1.856833 7.836633 1.275567
1.819500 7.673101 -0.689925
1.826855 7.698117 1.537921
1.824324 7.681502 -0.413768
1.834938 7.720201 1.832001
1.829279 7.696390 -0.138083
1.832893 7.705601 2.122316
1.290552 5.392125 -1.485621
1.839038 7.683784 0.137909
1.480728 6.181928 -1.467581
5.845725 24.386734 1.314261
1.737571 7.243086 -1.447859
3.429288 14.284005 1.285199
1.848721 7.700475 -1.254292
3.328310 13.852783 1.749313
1.890213 7.861226 -0.992748
1.887414 7.843548 1.277757
1.853272 7.695759 -0.692540
1.850073 7.682473 1.536012
1.851657 7.683177 -0.414187
1.862816 7.723546 1.834251
1.860358 7.707452 -0.138398
1.862496 7.710425 2.125422
1.307516 5.384060 -1.484586
1.867739 7.685090 0.138049
1.500914 6.171041 -1.466231
5.931767 24.370060 1.314470
1.758333 7.223931 -1.445187
3.484178 14.303528 1.287988
1.879331 7.709329 -1.256795
3.333365 13.663654 1.726889
1.916702 7.850722 -0.992260
1.918062 7.850344 1.279947
1.882563 7.705054 -0.693934
1.880607 7.691226 1.539065
1.878942 7.678606 -0.414291
1.888836 7.713211 1.833351
1.887725 7.702854 -0.138432
1.892161 7.715132 2.128528
1.326303 5.379463 -1.484586
1.897426 7.690172 0.138258
1.523846 6.171441 -1.467581
6.016325 24.347263 1.314365
1.783540 7.217749 -1.445187
3.472861 14.043710 1.265676
1.908601 7.712310 -1.258359
3.339526 13.484296 1.705683
1.943138 7.840131 -0.991773
1.945451 7.843602 1.279947
1.908007 7.692635 -0.693411
1.910756 7.697952 1.541737
1.910547 7.691385 -0.415338
1.916217 7.708463 1.833801
1.913155 7.690396 -0.138328
1.920946 7.715980 2.130599
1.342726 5.365431 -1.481998
1.927661 7.697080 0.138502
1.542539 6.154741 -1.464881
6.044909 24.101397 1.302223
1.806334 7.201958 -1.443279
3.452990 13.757095 1.240923
1.937919 7.715179 -1.259923
3.345921 13.310841 1.685210
1.973401 7.844851 -0.993235
1.976678 7.852087 1.282450
1.933391 7.680131 -0.692888
1.942410 7.710273 1.545553
1.937873 7.686605 -0.415443
1.945499 7.711174 1.836051
1.942924 7.695304 -0.138537
1.947870 7.709227 2.130599
1.359544 5.353222 -1.479927
1.955008 7.692243 0.138537
1.564973 6.153098 -1.465781
6.048202 23.762718 1.285057
1.831946 7.197512 -1.443661
3.452800 13.555743 1.223841
1.966788 7.716024 -1.261175
3.351147 13.137506 1.664735
2.005685 7.857148 -0.995673
2.006029 7.852796 1.283701
1.962158 7.681057 -0.693585
1.965906 7.690132 1.542882
1.968160 7.693338 -0.416176
1.974819 7.713775 1.838300
1.972753 7.700098 -0.138747
1.977649 7.713608 2.133704
1.377739 5.346572 -1.479410
1.982349 7.687308 0.138572
1.582548 6.132502 -1.462182
6.062191 23.474596 1.270612
1.855584 7.185371 -1.442516
3.463204 13.400863 1.210942
1.997174 7.722499 -1.263365
3.353214 12.956614 1.643286
2.033098 7.850099 -0.995673
2.035909 7.855306 1.285266
1.994459 7.695376 -0.695503
1.992740 7.683222 1.542882
1.991489 7.672889 -0.415443
2.004674 7.718151 1.840999
2.002636 7.704777 -0.138956
2.007965 7.719746 2.137328
1.398349 5.349207 -1.481480
2.013723 7.697752 0.138886
1.603450 6.125055 -1.461732
6.131955 23.406921 1.268100
1.879661 7.175051 -1.441753
3.479643 13.273057 1.200483
2.028127 7.730766 -1.265868
3.358099 12.791226 1.623787
2.060489 7.842954 -0.995673
2.065324 7.855794 1.286517
2.020800 7.686441 -0.695328
2.025540 7.699004 1.547461
2.021822 7.679410 -0.416176
2.031106 7.709223 1.840549
2.031556 7.705475 -0.139096
2.036874 7.720161 2.139398
1.419490 5.353630 -1.484068
2.043657 7.702274 0.139096
1.623322 6.113770 -1.460382
6.474688 24.367887 1.321378
1.902177 7.158959 -1.439845
3.502399 13.172258 1.192465
2.055610 7.725549 -1.266181
3.366978 12.645148 1.606726
2.090914 7.847224 -0.997135
2.093244 7.850445 1.286830
2.050187 7.688966 -0.696200
2.052910 7.693783 1.547843
2.055309 7.697392 -0.417536
2.060521 7.711499 1.842799
2.056893 7.692540 -0.138991
2.069796 7.735399 2.145610
1.433151 5.329986 -1.478892
2.075209 7.712472 0.139410
1.644654 6.108065 -1.460382
6.568537 24.377924 1.323158
1.923578 7.139006 -1.437173
4.760022 17.653687 1.599656
2.088227 7.739304 -1.269622
3.372285 12.489584 1.588445
2.124509 7.862873 -1.000060
2.120637 7.843090 1.286830
2.074936 7.674068 -0.695503
2.079240 7.684676 1.547461
2.081123 7.686316 -0.417327
2.091506 7.719306 1.846398
2.086871 7.696894 -0.139200
2.094258 7.718805 2.143022
1.448700 5.313768 -1.475786
2.101063 7.701323 0.139340
1.665961 6.102288 -1.460382
6.659388 24.376038 1.324309
1.946935 7.126566 -1.436029
4.764878 17.429401 1.580831
2.114182 7.728159 -1.268997
3.377602 12.337966 1.570652
2.155092 7.866897 -1.001522
2.153741 7.856597 1.290272
2.106447 7.684073 -0.697072
2.111766 7.698196 1.551659
2.112172 7.694411 -0.418164
2.121530 7.723235 1.849098
2.118498 7.706915 -0.139515
2.124778 7.724486 2.146645
1.470324 5.319852 -1.478892
2.127402 7.692015 0.139305
1.681016 6.073898 -1.454983
6.755081 24.391146 1.326403
1.971795 7.119728 -1.436029
4.774603 17.228342 1.564097
2.141675 7.722635 -1.269309
3.377112 12.169254 1.550666
2.187849 7.878453 -1.003960
2.183270 7.856644 1.291523
2.136459 7.688191 -0.698117
2.137575 7.686995 1.550896
2.139552 7.688917 -0.418269
2.150569 7.723291 1.850897
2.147536 7.707179 -0.139654
2.155358 7.730048 2.150269
1.487844 5.310966 -1.477857
2.159639 7.703796 0.139654
1.702207 6.067994 -1.454983
6.837552 24.374374 1.326717
1.997698 7.116581 -1.436792
4.781913 17.023590 1.547014
2.170756 7.722720 -1.270561
3.384636 12.033179 1.534823
2.212887 7.867334 -1.003472
2.211990 7.858868 1.293087
2.165442 7.688359 -0.698815
2.168118 7.692715 1.553567
2.169633 7.692935 -0.418897
2.176171 7.716116 1.850897
2.175250 7.707714 -0.139794
2.185179 7.737732 2.154410
1.504395 5.302286 -1.476822
2.187357 7.704287 0.139794
1.723916 6.067939 -1.456333
6.923796 24.370783 1.327763
2.015920 7.091033 -1.432976
4.784909 16.819838 1.529932
2.199597 7.726879 -1.272438
3.384281 11.880612 1.516786
2.241141 7.867588 -1.004447
2.236954 7.847689 1.292462
2.195842 7.698379 -0.700384
2.194157 7.687370 1.553949
2.197872 7.695299 -0.419420
2.203350 7.714479 1.852247
2.200250 7.698535 -0.139759
2.212953 7.737872 2.156481
1.521435 5.295411 -1.476304
2.219526 7.720052 0.140213
1.745647 6.067807 -1.457683
7.017118 24.375254 1.329333
2.040119 7.082066 -1.432594
4.787719 16.620081 1.513198
2.227946 7.729032 -1.274002
3.388997 11.749163 1.501430
2.274648 7.880695 -1.007128
2.267621 7.851220 1.294339
2.219937 7.681097 -0.699512
2.229161 7.707953 1.559673
2.227495 7.697174 -0.419944
2.232973 7.716101 1.854496
2.230445 7.702333 -0.139968
2.238877 7.726388 2.155445
1.535429 5.271252 -1.471128
2.244447 7.700347 0.140003
1.765690 6.053885 -1.455883
7.114240 24.376213 1.330799
2.064409 7.068888 -1.431449
4.791629 16.407347 1.495418
2.256261 7.720813 -1.274002
3.396940 11.616627 1.486075
2.305187 7.878022 -1.007860
2.298604 7.850440 1.295590
2.250318 7.680556 -0.700209
2.258500 7.703500 1.560436
2.258505 7.698541 -0.420467
2.263983 7.717215 1.856746
2.262605 7.707537 -0.140213
2.270990 7.731106 2.159068
1.556929 5.273000 -1.473198
2.276053 7.703576 0.140213
1.782344 6.028685 -1.451384
7.211750 24.393368 1.333102
2.090741 7.067287 -1.432594
4.800830 16.217735 1.479730
2.284543 7.712492 -1.274002
3.398874 11.467066 1.468526
2.334928 7.877542 -1.008835
2.328238 7.849944 1.296842
2.279380 7.680295 -0.700907
2.283143 7.688040 1.558910
2.283656 7.684867 -0.420153
2.295347 7.724209 1.860345
2.291204 7.705342 -0.140317
2.301270 7.734241 2.162174
1.571086 5.256702 -1.470092
2.303881 7.703650 0.140352
1.802327 6.022741 -1.451384
7.300051 24.394190 1.334462
2.108533 7.041508 -1.428778
4.804264 16.033772 1.464391
2.314079 7.718118 -1.276192
3.397519 11.324538 1.451708
2.361037 7.869756 -1.008835
2.361075 7.864882 1.300596
2.308851 7.686051 -0.702127
2.316531 7.706750 1.564252
2.311430 7.684901 -0.420572
2.318144 7.707223 1.858096
2.317898 7.701531 -0.140387
2.333585 7.748765 2.168386
1.591307 5.260709 -1.472680
2.332309 7.705536 0.140527
1.822289 6.016731 -1.451384
7.389788 24.383852 1.335300
2.128457 7.023203 -1.426488
4.808836 15.857594 1.449749
2.346542 7.733085 -1.279947
3.402183 11.204939 1.437815
2.390803 7.869062 -1.009809
2.385065 7.845253 1.298719
2.340699 7.699321 -0.704044
2.344363 7.706539 1.565779
2.340971 7.690569 -0.421304
2.348439 7.710270 1.860795
2.345932 7.697220 -0.140457
2.364566 7.753507 2.172009
1.606268 5.244039 -1.469575
2.362124 7.706908 0.140701
1.842707 6.008471 -1.450934
7.469005 24.338814 1.334253
2.151233 7.010099 -1.425343
4.806849 15.654059 1.432666
2.376420 7.734289 -1.281511
3.409776 11.090532 1.424653
2.417091 7.856874 -1.009322
2.413596 7.840657 1.299345
2.365801 7.685391 -0.703521
2.374141 7.707689 1.567687
2.372510 7.697619 -0.422142
2.377059 7.707613 1.862145
2.375736 7.698537 -0.140631
2.391048 7.743360 2.171492
1.619982 5.223640 -1.465433
2.389011 7.698616 0.140701
1.860782 5.992697 -1.448685
7.563383 24.343115 1.335928
2.175685 7.002549 -1.425343
4.814140 15.484978 1.418721
2.403992 7.727832 -1.281824
3.414247 10.968630 1.410516
2.453945 7.878714 -1.013222
2.445067 7.845385 1.301535
2.399293 7.693786 -0.705090
2.402199 7.703104 1.568450
2.404719 7.706451 -0.423084
2.407436 7.710429 1.864844
2.407363 7.705468 -0.140911
2.417485 7.733122 2.170974
1.644331 5.234253 -1.470092
2.416470 7.692136 0.140736
1.876428 5.969433 -1.444636
7.569215 24.065071 1.322111
2.200163 6.990781 -1.424580
4.819393 15.303801 1.403730
2.433486 7.722737 -1.282450
3.413136 10.831687 1.394429
2.482628 7.873886 -1.013709
2.473624 7.840570 1.302161
2.427933 7.691065 -0.705613
2.432784 7.701735 1.569977
2.430542 7.689967 -0.422665
2.439792 7.714560 1.867994
2.435450 7.700830 -0.140981
2.447380 7.733846 2.173563
1.661417 5.224800 -1.469057
2.449496 7.698473 0.141015
1.899478 5.966228 -1.445535
7.779206 24.434355 1.343883
2.222759 6.977448 -1.423435
4.829221 15.150206 1.391180
2.465233 7.729252 -1.284953
3.422635 10.724550 1.382242
2.510261 7.860952 -1.013222
2.509393 7.858232 1.306541
2.458405 7.693930 -0.706659
2.462636 7.702547 1.571885
2.462846 7.698557 -0.423607
2.467302 7.707852 1.868443
2.469024 7.713232 -0.141364
2.479660 7.741816 2.178221
1.682014 5.226325 -1.471128
2.479298 7.703633 0.141260
1.918060 5.956187 -1.444636
7.880372 24.456478 1.346604
2.245296 6.964041 -1.422290
4.839260 15.000524 1.378978
2.493278 7.728554 -1.286204
3.423424 10.605461 1.368349
2.536314 7.852585 -1.013222
2.533165 7.838146 1.304664
2.489537 7.698572 -0.707879
2.492397 7.707416 1.574556
2.491435 7.699850 -0.424131
2.494652 7.705189 1.869793
2.494083 7.698860 -0.141260
2.511436 7.747814 2.182362
1.696348 5.211533 -1.468539
2.508034 7.700636 0.141364
1.937627 5.945751 -1.443736
7.994842 24.532759 1.352257
2.267162 6.952822 -1.421527
4.830882 14.806346 1.362593
2.527592 7.742339 -1.289959
3.431455 10.504757 1.356893
2.566178 7.851231 -1.014197
2.564051 7.844725 1.307166
2.515670 7.692168 -0.708053
2.521119 7.704265 1.575701
2.520163 7.696799 -0.424445
2.525774 7.709399 1.872942
2.522088 7.698148 -0.141399
2.537117 7.739442 2.182362
1.710295 5.192737 -1.464916
2.538556 7.707472 0.141644
1.957335 5.939292 -1.443736
8.132974 24.664028 1.361049
2.292032 6.946731 -1.421909
4.846306 14.679661 1.352483
2.552016 7.730162 -1.289333
3.430779 10.385880 1.343000
2.598431 7.861525 -1.016634
2.597000 7.852606 1.309982
2.548141 7.700362 -0.709622
2.548502 7.701453 1.576846
2.549442 7.699776 -0.425073
2.557457 7.719479 1.877442
2.552722 7.700686 -0.141609
2.566552 7.737873 2.184433
1.728117 5.188869 -1.465433
2.566079 7.700461 0.141679
1.973742 5.919483 -1.440587
8.286014 24.836319 1.372144
2.314433 6.937231 -1.421527
4.902526 14.686189 1.354575
2.582115 7.730574 -1.290897
3.456312 10.341836 1.338857
2.629630 7.863705 -1.018097
2.627531 7.852859 1.311547
2.574929 7.695649 -0.709971
2.578484 7.701820 1.578754
2.574395 7.685150 -0.424759
2.586247 7.716047 1.878791
2.582768 7.701208 -0.141783
2.599072 7.745351 2.189091
1.751772 5.199281 -1.470092
2.595500 7.699035 0.141818
1.993146 5.908864 -1.439687
8.413542 24.928354 1.378843
2.336125 6.921668 -1.420001
6.050210 17.915756 1.654390
2.612244 7.730871 -1.292462
3.502566 10.359797 1.342757
2.657065 7.854477 -1.018097
2.659358 7.856738 1.313737
2.606246 7.699825 -0.711191
2.610393 7.707648 1.581807
2.608258 7.696924 -0.425910
2.615667 7.714356 1.880591
2.615415 7.709188 -0.142097
2.629200 7.745378 2.191680
1.774274 5.205935 -1.473716
2.630102 7.712642 0.142237
2.014387 5.903716 -1.440137
8.568914 25.099186 1.389938
2.355833 6.900465 -1.417329
6.059895 17.739925 1.640097
2.645601 7.740399 -1.295590
3.538710 10.347506 1.342757
2.689606 7.860181 -1.020047
2.682926 7.836194 1.311860
2.637623 7.703876 -0.712411
2.638557 7.702203 1.582570
2.636403 7.691551 -0.426119
2.646370 7.716238 1.883290
2.642960 7.701903 -0.142132
2.662493 7.754426 2.196856
1.789916 5.192404 -1.471645
2.660923 7.714756 0.142447
2.034349 5.894805 -1.439687
8.664291 25.091780 1.391194
2.376700 6.882921 -1.415421
6.065833 17.556711 1.625106
2.677769 7.746051 -1.298093
4.790850 13.850785 1.799523
2.720924 7.861998 -1.021509
2.718022 7.849181 1.315614
2.664501 7.694622 -0.712411
2.673137 7.715208 1.587149
2.667163 7.693624 -0.426747
2.679039 7.723523 1.887339
2.671139 7.696409 -0.142202
2.688913 7.743258 2.196338
1.808665 5.187949 -1.472163
2.687176 7.703533 0.142412
2.053627 5.883989 -1.438787
8.834789 25.298969 1.404383
2.400063 6.872730 -1.415040
6.065299 17.358627 1.608721
2.703486 7.732929 -1.297468
3.490911 9.979651 1.298152
2.750976 7.859947 -1.022484
2.746708 7.843374 1.316240
2.697927 7.704078 -0.714154
2.694211 7.689153 1.583715
2.703916 7.712537 -0.428317
2.709206 7.723320 1.889589
2.704612 7.705906 -0.142551
2.717847 7.739293 2.197891
1.836397 5.208934 -1.479927
2.719373 7.709191 0.142691
2.071561 5.869434 -1.436987
8.868505 25.113550 1.395800
2.420115 6.853204 -1.412750
6.072758 17.187063 1.594776
2.734415 7.734619 -1.299345
3.489976 9.866347 1.284990
2.786342 7.872753 -1.025409
2.780006 7.850496 1.319056
2.726800 7.700247 -0.714677
2.724964 7.690807 1.586004
2.729486 7.699288 -0.428108
2.743317 7.734017 1.894538
2.734168 7.703957 -0.142691
2.750663 7.746143 2.202550
1.858462 5.213409 -1.483033
2.753655 7.720370 0.143075
2.090725 5.858496 -1.436087
8.867466 24.834150 1.381983
2.443364 6.842865 -1.412368
6.076414 17.008156 1.580134
2.765386 7.736188 -1.301222
3.490304 9.758778 1.272560
2.809795 7.851763 -1.023946
2.814716 7.861202 1.322497
2.757019 7.695829 -0.715200
2.757754 7.697881 1.589439
2.761064 7.702874 -0.428841
2.770954 7.726230 1.894988
2.767795 7.713188 -0.143040
2.782256 7.749221 2.206174
1.876901 5.204745 -1.482516
2.781942 7.714475 0.143145
2.106534 5.838331 -1.432938
8.863229 24.551311 1.367957
2.463758 6.820939 -1.409697
6.085886 16.839617 1.566537
2.799769 7.742718 -1.304038
3.495323 9.666262 1.262079
2.843933 7.860576 -1.026384
2.838780 7.842041 1.320933
2.787939 7.697397 -0.716246
2.795982 7.715410 1.595163
2.791319 7.698336 -0.429155
2.803242 7.727013 1.897687
2.794704 7.703478 -0.143040
2.813239 7.750359 2.209280
1.893735 5.194532 -1.481480
2.813631 7.713618 0.143319
2.129922 5.836063 -1.434288
2.483514 6.801231 -1.407407
6.089937 16.668556 1.552592
2.828812 7.738464 -1.304976
3.506178 9.586271 1.253304
2.879539 7.872972 -1.029309
2.871569 7.846924 1.323436
2.815474 7.689490 -0.716420
2.823574 7.707445 1.595545
2.824362 7.705421 -0.430097
2.831535 7.724991 1.899487
2.822265 7.695554 -0.143075
2.840278 7.740491 2.209280
1.915626 5.200913 -1.485104
2.842646 7.713628 0.143494
2.149262 5.828969 -1.434288
9.252616 25.093824 1.401662
2.508774 6.800325 -1.408934
6.088593 16.495007 1.538299
2.855826 7.732749 -1.305602
3.513870 9.509419 1.244774
2.907010 7.867104 -1.029796
2.903738 7.854035 1.326252
2.843721 7.687586 -0.717117
2.854571 7.712769 1.598598
2.854059 7.707252 -0.430725
2.863903 7.733836 1.903986
2.858188 7.714281 -0.143598
2.871304 7.745520 2.213420
1.937577 5.207206 -1.488727
2.872395 7.715404 0.143703
2.164500 5.810851 -1.431589
9.245301 24.806847 1.387426
2.529938 6.788289 -1.408170
6.093135 16.340313 1.525748
2.884216 7.730637 -1.306854
3.527333 9.449362 1.238436
2.944171 7.882945 -1.033208
2.935975 7.856804 1.328442
2.876872 7.698642 -0.719035
2.880130 7.703260 1.598598
2.880296 7.699617 -0.430830
2.893612 7.731092 1.905785
2.887205 7.709874 -0.143703
2.901037 7.742686 2.215491
1.954381 5.196795 -1.487692
2.901424 7.710945 0.143808
2.180652 5.792317 -1.428889
9.251573 24.561354 1.375494
2.550848 6.772069 -1.406644
6.100957 16.188438 1.513547
2.917459 7.737157 -1.309669
4.808253 12.744863 1.672535
2.973074 7.876333 -1.033696
2.965478 7.852050 1.329380
2.907250 7.697873 -0.719906
2.916716 7.718872 1.603940
2.912807 7.704461 -0.431667
2.919894 7.719121 1.905335
2.918345 7.710971 -0.143913
2.930778 7.739742 2.217562
1.978001 5.204387 -1.491833
2.935432 7.719460 0.144157
2.205012 5.795599 -1.431589
9.254835 24.312380 1.363352
2.567489 6.744774 -1.402828
6.099283 16.014364 1.499253
2.948664 7.738004 -1.311547
4.818063 12.637112 1.660592
2.997722 7.858488 -1.032721
2.992163 7.839806 1.329067
2.946104 7.715086 -0.722521
2.947846 7.719648 1.606230
2.942537 7.701709 -0.432086
2.953082 7.725266 1.909385
2.945246 7.700736 -0.143913
2.963302 7.743897 2.221703
1.996369 5.195300 -1.491315
2.965228 7.716634 0.144296
2.226629 5.791505 -1.432488
9.260775 24.074873 1.351838
2.592191 6.735319 -1.402828
6.109249 15.865468 1.487400
2.980561 7.736358 -1.313111
4.823611 12.520187 1.647430
3.032273 7.866499 -1.035158
3.023774 7.840373 1.330945
2.965847 7.686166 -0.720778
2.979654 7.717949 1.608138
2.978659 7.711367 -0.433237
2.984890 7.723477 1.911634
2.977877 7.705330 -0.144192
2.988920 7.729903 2.220668
2.015192 5.190100 -1.491833
2.994937 7.709442 0.144366
2.242195 5.768774 -1.428889
9.270766 23.839733 1.340533
2.614976 6.724400 -1.402446
6.111129 15.706646 1.474501
3.010413 7.733271 -1.314363
4.833443 12.409937 1.635243
3.066853 7.870128 -1.037108
3.058233 7.843961 1.333447
2.997723 7.688761 -0.721998
3.008719 7.712987 1.609283
3.011370 7.715806 -0.434074
3.018919 7.731164 1.916133
3.011190 7.707402 -0.144436
3.027080 7.744086 2.227915
2.038939 5.197421 -1.495974
3.024754 7.706387 0.144506
2.259467 5.753656 -1.427089
9.280884 23.621336 1.330066
2.636278 6.709749 -1.401301
6.116356 15.559127 1.462648
3.043894 7.739260 -1.317178
4.833116 12.282158 1.620619
3.095758 7.863070 -1.037596
3.088489 7.840590 1.334699
3.036955 7.709765 -0.724961
3.038502 7.709744 1.610810
3.039748 7.708964 -0.434284
3.048746 7.727829 1.917933
3.043217 7.709864 -0.144680
3.059059 7.746049 2.231538
2.060630 5.199252 -1.498562
3.057535 7.710651 0.144785
2.282411 5.752981 -1.428889
9.266356 23.356514 1.316877
2.660409 6.702330 -1.401683
6.122098 15.415467 1.451143
3.073807 7.735932 -1.318430
4.831963 12.154531 1.605994
3.126124 7.859594 -1.038571
3.114474 7.830305 1.334699
3.069004 7.712075 -0.726182
3.073386 7.719155 1.615008
3.068859 7.703873 -0.434598
3.077144 7.720763 1.918833
3.076906 7.720166 -0.145064
3.088309 7.744834 2.234126
2.079483 5.193821 -1.499080
3.089032 7.715322 0.145064
2.299304 5.739952 -1.427539
9.279478 23.153463 1.307248
2.675750 6.672959 -1.397485
6.123939 15.264566 1.438941
3.106800 7.744029 -1.321558
4.836746 12.050014 1.594295
3.152169 7.849185 -1.038571
3.145469 7.828550 1.336263
3.099623 7.710557 -0.727053
3.103359 7.719851 1.617297
3.101095 7.710331 -0.435540
3.109280 7.726786 1.922882
3.100851 7.701958 -0.144925
3.120376 7.746552 2.237750
2.098866 5.192270 -1.500633
3.118942 7.711908 0.145204
2.317865 5.728278 -1.426640
9.267812 22.904093 1.294896
2.697865 6.664048 -1.397485
6.123659 15.118602 1.427088
3.141976 7.753275 -1.325000
4.845217 11.950273 1.583327
3.182531 7.845492 -1.039546
3.174380 7.825398 1.337515
3.128174 7.707620 -0.727750
3.133244 7.716246 1.618824
3.133251 7.712412 -0.436273
3.142838 7.732131 1.926931
3.130141 7.700893 -0.145099
3.144594 7.732581 2.236714
2.116979 5.184911 -1.500633
3.146768 7.707075 0.145309
2.336847 5.720561 -1.426640
9.272129 22.686729 1.284429
2.720366 6.652774 -1.397104
6.132643 14.990179 1.416978
3.167668 7.742814 -1.325000
3.671880 8.970817 1.190176
3.214551 7.849591 -1.041496
3.205424 7.823410 1.339079
3.158837 7.705873 -0.728622
3.163281 7.716713 1.621113
3.159569 7.703827 -0.436377
3.172899 7.732485 1.929630
3.163081 7.704719 -0.145379
3.177436 7.735854 2.240855
2.139313 5.190366 -1.504256
3.176704 7.703439 0.145448
2.350854 5.697957 -1.423040
9.285733 22.495451 1.275427
2.741662 6.641901 -1.396722
6.177760 14.958708 1.415932
3.200709 7.746315 -1.327503
4.844538 11.718891 1.557003
3.251038 7.860333 -1.044420
3.240264 7.830427 1.342208
3.185895 7.699038 -0.728971
3.190947 7.707439 1.621495
3.189500 7.700131 -0.436796
3.204346 7.732165 1.932330
3.197610 7.712105 -0.145728
3.210344 7.738990 2.244997
2.162616 5.195351 -1.507880
3.214332 7.718149 0.145937
2.370731 5.689716 -1.423040
9.279671 22.260115 1.263914
2.762565 6.626854 -1.395577
6.237597 14.955445 1.417675
3.230014 7.740564 -1.328442
4.846414 11.608482 1.544572
3.275390 7.841613 -1.043445
3.271388 7.828180 1.343772
3.221971 7.709929 -0.731062
3.226922 7.717988 1.626074
3.221749 7.701851 -0.437529
3.234328 7.728122 1.934129
3.230691 7.715651 -0.146007
3.244051 7.743774 2.249655
2.182234 5.191332 -1.508915
3.246682 7.719784 0.146181
2.389067 5.677813 -1.422141
9.284469 22.054556 1.254074
2.782632 6.609933 -1.394051
7.520962 17.856764 1.695179
3.265454 7.749264 -1.331883
4.849115 11.501865 1.532629
3.312002 7.852079 -1.046370
3.297928 7.814893 1.343459
3.255063 7.713319 -0.732457
3.263768 7.730190 1.631035
3.257942 7.712636 -0.438785
3.265838 7.727555 1.936829
3.259161 7.708012 -0.146077
3.277086 7.746637 2.253796
2.199589 5.181904 -1.508397
3.278298 7.719449 0.146391
2.405820 5.662266 -1.420341
9.297330 21.871286 1.245491
2.800313 6.587532 -1.391379
7.517753 17.676390 1.680537
3.294799 7.743274 -1.332822
4.852693 11.399023 1.521173
3.347172 7.858733 -1.048808
3.329828 7.814239 1.345337
3.279620 7.696414 -0.731934
3.296124 7.731391 1.633707
3.292683 7.719586 -0.439831
3.299671 7.732241 1.940878
3.288404 7.702104 -0.146181
3.306385 7.740479 2.255349
2.220707 5.181298 -1.510468
3.309955 7.718985 0.146600
2.426340 5.655624 -1.420791
9.291059 21.656790 1.235024
2.821741 6.574110 -1.390616
7.519656 17.510906 1.667289
3.324929 7.738986 -1.334073
4.859527 11.305418 1.510936
3.381052 7.865829 -1.051245
3.361968 7.817670 1.347839
3.315129 7.705050 -0.733851
3.324646 7.723444 1.634470
3.325137 7.720887 -0.440564
3.333005 7.739155 1.945377
3.322630 7.711360 -0.146565
3.336626 7.740115 2.258455
2.244010 5.188090 -1.514609
3.340297 7.718978 0.146810
2.436566 5.627874 -1.415842
9.297762 21.475565 1.226441
2.840404 6.557510 -1.389090
7.525393 17.365221 1.655785
3.357649 7.744227 -1.336889
4.855909 11.194543 1.498262
3.411855 7.865500 -1.052707
3.392591 7.817351 1.349717
3.343045 7.699496 -0.734374
3.361185 7.737590 1.639813
3.350721 7.709818 -0.440564
3.363309 7.738783 1.948076
3.356159 7.718636 -0.146914
3.372288 7.752040 2.265184
2.264295 5.187702 -1.516680
3.372280 7.722518 0.147089
2.454434 5.617979 -1.415392
9.285763 21.254274 1.215555
2.863708 6.551652 -1.389853
7.525464 17.208733 1.643234
3.388060 7.743909 -1.338766
4.861168 11.105638 1.488512
3.441106 7.861416 -1.053682
3.422459 7.815105 1.351281
3.378951 7.712092 -0.736640
3.392345 7.738987 1.642484
3.380282 7.707809 -0.441087
3.390521 7.731156 1.948976
3.386556 7.718452 -0.147124
3.403414 7.753196 2.268808
2.286157 5.190773 -1.519786
3.403513 7.724103 0.147333
2.473838 5.611591 -1.415842
3.519955 7.984575 0.457312
2.883040 6.536732 -1.388708
7.521357 17.045153 1.629987
3.418510 7.743473 -1.340644
4.856262 10.995032 1.475838
3.473571 7.864490 -1.055632
3.445960 7.798293 1.350342
3.406926 7.706311 -0.737163
3.426723 7.747445 1.646682
3.417945 7.723954 -0.442658
3.418504 7.725216 1.950326
3.417801 7.719978 -0.147368
3.432233 7.748932 2.270878
2.306072 5.181956 -1.519786
3.441282 7.729245 0.147682
2.494570 5.600273 -1.415392
3.558481 7.984976 0.458149
2.904124 6.516646 -1.386800
7.531583 16.892403 1.618133
3.458677 7.753743 -1.344711
4.869323 10.911043 1.467063
3.514827 7.872233 -1.058557
3.483683 7.798825 1.352845
3.442990 7.707726 -0.738558
3.464458 7.752154 1.650498
3.452471 7.721712 -0.443286
3.457446 7.729220 1.954825
3.455297 7.720798 -0.147647
3.467261 7.743908 2.273467
2.324937 5.175637 -1.520303
3.469059 7.719010 0.147717
2.514105 5.591530 -1.415392
3.591246 7.983436 0.458777
2.924436 6.501099 -1.385655
7.534897 16.742464 1.606280
3.484098 7.738021 -1.344085
4.869878 10.810721 1.455851
3.548808 7.874396 -1.060507
3.515755 7.797423 1.354723
3.473148 7.702927 -0.739255
3.492307 7.741802 1.650880
3.483514 7.718716 -0.443809
3.490819 7.731313 1.958424
3.483875 7.712334 -0.147717
3.495069 7.733518 2.273984
2.350965 5.185085 -1.525479
3.500941 7.717779 0.147927
2.529583 5.573846 -1.413142
3.628998 7.992674 0.460033
2.949545 6.496214 -1.386800
7.543857 16.607218 1.595822
3.522531 7.750988 -1.348465
4.876356 10.724993 1.446589
3.577918 7.865572 -1.060995
3.547863 7.795890 1.356600
3.505794 7.703449 -0.740475
3.524185 7.740287 1.653169
3.512090 7.710145 -0.444018
3.523444 7.731493 1.961573
3.517406 7.714685 -0.147996
3.531662 7.742362 2.280196
2.380306 5.201440 -1.532727
3.533685 7.718240 0.148171
2.546588 5.559669 -1.411793
3.658542 7.983588 0.460242
2.969751 6.480524 -1.385655
3.878530 8.459730 0.814209
3.548740 7.736850 -1.348152
3.868091 8.429204 1.138747
3.605355 7.853034 -1.060995
3.578351 7.790639 1.357851
3.543472 7.714702 -0.742741
3.561022 7.749345 1.657749
3.548161 7.717799 -0.445170
3.557738 7.735082 1.965622
3.552675 7.720525 -0.148345
3.568363 7.751045 2.286407
2.400880 5.198360 -1.534279
3.568991 7.724011 0.148520
2.567616 5.554282 -1.412693
2.983291 6.450516 -1.381457
3.882094 8.390090 0.808805
3.574068 7.720830 -1.347527
3.711461 8.013961 1.084394
3.641085 7.858416 -1.063432
3.611341 7.790645 1.360041
3.580437 7.723977 -0.744833
3.597964 7.758240 1.662328
3.579278 7.714427 -0.445693
3.587180 7.727918 1.966972
3.583816 7.717144 -0.148520
3.600276 7.749056 2.289513
2.419826 5.191700 -1.534797
3.602694 7.726004 0.148799
2.586985 5.545288 -1.412693
3.744598 8.023006 0.464011
3.005787 6.440063 -1.381457
3.732650 7.993766 0.771851
3.600999 7.708306 -1.347527
3.784798 8.098069 1.097555
3.673541 7.856446 -1.064894
3.639352 7.779779 1.360354
3.609911 7.716844 -0.745356
3.625854 7.747412 1.662710
3.614655 7.719973 -0.446740
3.624882 7.738289 1.972821
3.616671 7.717263 -0.148764
3.629766 7.741688 2.291066
2.442046 5.191961 -1.537385
3.628788 7.711573 0.148764
2.604667 5.532697 -1.411793
3.772583 8.009885 0.464011
3.024905 6.422427 -1.379931
3.871783 8.216794 0.794686
3.619456 7.677824 -1.344398
3.880786 8.228441 1.117054
3.709412 7.861529 -1.067332
3.670697 7.775963 1.361919
3.702311 7.842933 -0.758778
3.656231 7.741807 1.664236
3.646702 7.718143 -0.447368
3.656863 7.736162 1.975520
3.653848 7.726283 -0.149183
3.661726 7.739447 2.294172
2.463464 5.190388 -1.539456
3.663406 7.715116 0.149078
2.618112 5.511248 -1.408643
3.910252 8.227570 0.477409
3.045615 6.408285 -1.379167
3.897021 8.196031 0.793989
3.637751 7.647303 -1.341269
3.875358 8.143149 1.107305
3.747073 7.870039 -1.070257
3.701219 7.770236 1.363170
3.673975 7.713042 -0.747448
3.692522 7.748494 1.668434
3.673620 7.705367 -0.447368
3.690559 7.737420 1.979119
3.685100 7.722506 -0.149358
3.700370 7.751025 2.301419
2.493250 5.206150 -1.546703
3.699821 7.722116 0.149462
2.631436 5.489776 -1.405494
3.908723 8.150838 0.473745
3.068816 6.399384 -1.379549
3.890275 8.108727 0.786842
3.664421 7.634559 -1.341269
3.877982 8.075886 1.099993
3.783120 7.874804 -1.072694
3.735163 7.771512 1.365673
3.703464 7.705559 -0.747971
3.728053 7.753252 1.672250
3.706557 7.705095 -0.448101
3.722614 7.735027 1.981819
3.718105 7.722208 -0.149602
3.735790 7.755466 2.306596
2.507207 5.188716 -1.544114
3.734581 7.725362 0.149777
2.655675 5.491082 -1.408194
3.909317 8.079612 0.470396
3.086007 6.378029 -1.377259
3.904660 8.066407 0.784053
3.685884 7.611053 -1.339392
3.710541 7.658560 1.044908
3.815778 7.872269 -1.074156
3.762270 7.758425 1.365673
3.739903 7.712302 -0.749888
3.765378 7.761385 1.676829
3.747382 7.720860 -0.449775
3.754701 7.732503 1.984518
3.748535 7.716377 -0.149742
3.772970 7.763229 2.312807
2.527842 5.185143 -1.545667
3.772046 7.733844 0.150195
2.671407 5.474774 -1.406394
3.917343 8.024636 0.467988
3.106527 6.363689 -1.376496
3.857602 7.898761 0.769062
3.709830 7.592816 -1.338454
3.888065 7.954095 1.087075
3.857187 7.887435 -1.078056
3.792804 7.752343 1.366925
3.769431 7.704569 -0.750411
3.801941 7.767593 1.681027
3.782214 7.723876 -0.450717
3.791960 7.740348 1.989917
3.784246 7.721202 -0.150091
3.800044 7.750012 2.312807
2.551896 5.188422 -1.549291
3.797252 7.717042 0.150126
2.688781 5.461918 -1.405494
3.917977 7.955367 0.464743
3.126121 6.347522 -1.375351
3.782120 7.676143 0.748668
3.736310 7.579821 -1.338454
3.890347 7.888842 1.080006
3.893476 7.891726 -1.080494
3.827708 7.754999 1.369740
3.800709 7.700298 -0.751283
3.833380 7.763075 1.682935
3.818000 7.728532 -0.451764
3.824135 7.737549 1.992617
3.815609 7.716908 -0.150265
3.838211 7.759210 2.319536
2.576001 5.191597 -1.552914
3.835727 7.727025 0.150579
2.702629 5.442027 -1.402795
3.830624 7.713364 0.451345
3.148258 6.336572 -1.375351
3.902897 7.852012 0.767145
3.760984 7.563195 -1.337828
3.894870 7.829006 1.073669
3.926309 7.888749 -1.081956
3.863965 7.763485 1.373495
3.839108 7.710171 -0.753549
3.866580 7.761949 1.685607
3.841390 7.708009 -0.451345
3.861552 7.745080 1.998015
3.852776 7.727478 -0.150719
3.864781 7.748169 2.320054
2.599297 5.192937 -1.556020
