# This PCD file was generated using the MATLAB® pcwrite function
# from Computer Vision Toolbox®.
# .PCD v.7 - Point Cloud Data file format
VERSION .7
FIELDS x y z
SIZE 4 4 4
TYPE F F F
COUNT 1 1 1
WIDTH 1622
HEIGHT 1
VIEWPOINT 0 0 0 1 0 0 0
POINTS 1622
DATA ascii
-9.472669 1.390355 -2.210369
-11.881618 1.746051 -2.334357
-15.964565 2.351746 -2.555827
-23.813616 3.512244 -2.955575
-53.029236 7.859038 -2.809499
-7.840825 1.174615 -2.124387
-9.475716 1.422918 -2.212169
-11.879645 1.786027 -2.335121
-15.968397 2.406440 -2.557704
-23.746252 3.587040 -2.948751
-7.834766 1.201687 -2.123869
-9.495730 1.459836 -2.218017
-11.873340 1.827481 -2.335121
-15.940376 2.459153 -2.554575
-23.662960 3.658989 -2.939976
-7.828616 1.228728 -2.123352
-9.484800 1.492065 -2.216668
-11.858804 1.869764 -2.333594
-15.923892 2.513550 -2.553324
-23.650045 3.741566 -2.939976
-7.808802 1.254959 -2.119210
-9.496585 1.529608 -2.220717
-11.859624 1.914467 -2.335121
-15.914572 2.571897 -2.553324
-23.734150 3.844092 -2.952163
-7.817492 1.285768 -2.122834
-44.902481 7.393295 0.794329
-9.481299 1.562819 -2.218467
-11.879989 1.960329 -2.340463
-45.092327 7.448805 3.998531
-15.869958 2.624408 -2.547692
-23.622663 3.910706 -2.939976
-45.139954 7.480952 7.246984
-45.257893 7.524858 10.592046
-7.799850 1.309446 -2.119210
-9.483752 1.595546 -2.220267
-11.838573 1.993845 -2.333594
-15.904018 2.684254 -2.554575
-43.874023 7.412859 5.463403
-23.609568 3.989021 -2.939976
-44.673313 7.579975 -2.374692
-7.818314 1.339219 -2.125422
-44.951004 7.707836 0.796074
-9.466886 1.625006 -2.217567
-11.831897 2.033092 -2.333594
-15.875565 2.733624 -2.551446
-23.595499 4.071404 -2.939976
-45.232029 7.812929 7.270136
-43.092060 7.451038 8.500542
-44.722710 7.741020 -2.378669
-7.817397 1.367166 -2.126457
-9.453477 1.656699 -2.215768
-11.828595 2.075057 -2.334357
-15.858142 2.787659 -2.550195
-23.581142 4.153744 -2.939976
-42.091892 7.421938 6.769546
-44.746559 7.906122 -2.381391
-7.793559 1.391051 -2.121281
-9.457229 1.691401 -2.218017
-11.821280 2.116334 -2.334357
-15.828874 2.839506 -2.547066
-23.566500 4.236039 -2.939976
-41.291958 7.429589 6.645024
-7.809314 1.423417 -2.126975
-9.445515 1.723353 -2.216668
-11.813444 2.159647 -2.334357
-15.795043 2.893232 -2.543312
-40.647385 7.445521 5.073909
-23.551571 4.318270 -2.939976
-40.890186 7.519503 8.081525
-40.104691 7.389536 -0.711814
-7.806197 1.451021 -2.127493
-39.729996 7.392211 0.705391
-9.423809 1.755107 -2.213068
-11.801973 2.200152 -2.333594
-15.800381 2.951251 -2.545815
-23.484852 4.395068 -2.933639
-39.781528 7.452102 6.410372
-39.988190 7.512489 9.393506
-39.192978 7.370165 -0.696107
-7.812215 1.481781 -2.130599
-9.421454 1.788719 -2.213968
-39.260517 7.460940 2.094380
-11.805403 2.245592 -2.335884
-15.785578 3.008404 -2.545189
-23.422571 4.468098 -2.927789
-39.263725 7.525468 9.229742
-38.507122 7.380454 -0.684379
-7.792346 1.503391 -2.126457
-9.407818 1.818473 -2.212169
-11.775159 2.278197 -2.331304
-15.764413 3.055726 -2.543312
-23.380344 4.540437 -2.924377
-38.276871 7.433326 6.175720
-38.570431 7.518290 9.072276
-37.839962 7.375905 -0.672930
-7.798425 1.532816 -2.129563
-9.413208 1.851915 -2.214868
-11.778692 2.321561 -2.333594
-15.734813 3.104159 -2.540183
-40.599285 8.016787 5.081221
-37.739101 7.465698 6.093123
-37.761574 7.490691 8.887816
-37.229485 7.391894 -0.662528
-7.789509 1.557910 -2.128528
-36.935478 7.393839 0.657502
-9.387578 1.880936 -2.210369
-37.158134 7.451902 1.986150
-11.774778 2.361381 -2.334357
-15.716135 3.157513 -2.538932
-37.052448 7.450889 4.640542
-23.278839 4.685377 -2.915602
-36.996319 7.453048 5.977362
-36.502434 7.353553 -3.257707
-37.020096 7.464561 7.340804
-37.360806 7.546832 8.799635
-36.446880 7.368841 -0.649055
-7.780238 1.584321 -2.127493
-9.386684 1.914860 -2.211719
-36.650501 7.483274 1.960400
-11.758770 2.400898 -2.332831
-15.705018 3.212350 -2.538932
-36.773392 7.528423 4.608855
-23.262342 4.766613 -2.915602
-36.304405 7.445622 5.869735
-35.851978 7.352835 -3.201928
-36.786118 7.551098 7.299589
-35.827473 7.360842 -1.916857
-35.892105 7.387169 -0.639631
-7.774661 1.611469 -2.127493
-35.755146 7.417549 0.637397
-9.383759 1.948407 -2.212619
-36.628067 7.611976 1.960610
-11.754162 2.442728 -2.333594
-15.693709 3.267152 -2.538932
-36.816853 7.671320 4.617630
-35.930130 7.499645 5.813418
-35.348915 7.384775 -3.159395
-35.771748 7.473110 7.103437
-35.285442 7.377943 -1.889224
-35.891907 7.511279 8.465808
-35.294590 7.392715 -0.629439
-7.764922 1.639156 -2.126457
-35.169453 7.424187 0.627414
-9.378807 1.981553 -2.213068
-36.671616 7.754670 1.964378
-11.741289 2.484980 -2.332831
-15.689357 3.326293 -2.540183
-36.836456 7.809679 4.623480
-23.228498 4.928893 -2.915602
-35.343365 7.506012 5.722686
-34.718781 7.379708 -3.105359
-35.206440 7.489777 6.996585
-34.672127 7.382432 -1.857822
-35.658291 7.598922 8.417219
-34.705307 7.395837 -0.619386
-7.751597 1.664629 -2.124387
-34.625874 7.442100 0.618199
-9.365767 2.014686 -2.211719
-36.640423 7.881784 1.964169
-11.724866 2.524297 -2.331304
-15.685375 3.382701 -2.541435
-36.842510 7.952168 4.627867
-23.097734 4.989690 -2.901465
-34.509861 7.454996 5.591907
-34.155334 7.384640 -3.057249
-34.608265 7.488890 6.882863
-34.138622 7.393509 -1.830607
-34.175068 7.407639 -0.610380
-7.749515 1.692500 -2.125422
-34.093060 7.445948 0.609124
-9.338092 2.041156 -2.206770
-36.682926 8.025002 1.967937
-11.727489 2.567726 -2.333594
-34.087864 7.469757 3.053066
-15.639339 3.427087 -2.535803
-22.821245 5.009224 -2.868804
-33.970417 7.462662 5.508684
-33.568924 7.380603 -3.007047
-34.057858 7.488102 6.778299
-33.606758 7.395072 -1.803393
-33.578777 7.401203 -0.600188
-34.302151 7.566930 9.412213
-7.743860 1.718189 -2.125422
-33.504642 7.440064 0.599071
-9.349933 2.077967 -2.211269
-36.650791 8.152133 1.967728
-11.715077 2.605752 -2.332831
-33.506699 7.458939 3.003212
-15.654273 3.487671 -2.540183
-33.602257 7.492523 4.227160
-22.478130 5.016219 -2.827856
-33.566296 7.496803 5.447362
-33.077587 7.387654 -2.965213
-33.537193 7.496449 6.679842
-33.054493 7.394609 -1.775131
-36.490948 8.170065 8.633172
-33.068813 7.409934 -0.591532
-7.730276 1.743509 -2.123352
-32.990810 7.446904 0.590345
-9.335019 2.108874 -2.209469
-38.990990 8.815598 2.095009
-11.686762 2.642298 -2.329015
-32.998531 7.466805 2.959983
-15.634298 3.540549 -2.538932
-33.057056 7.492170 4.161839
-22.057816 5.003316 -2.777159
-33.536068 7.613052 5.446736
-32.495914 7.376925 -2.915359
-32.986252 7.494292 6.575279
-32.537697 7.398354 -1.748754
-36.477409 8.300854 8.636770
-32.691784 7.445392 -0.585249
-33.186176 7.564080 9.120266
-7.731676 1.772209 -2.125422
-9.323803 2.140573 -2.208570
-38.961540 8.944850 2.095009
-11.673640 2.682200 -2.328252
-32.634407 7.504257 2.929653
-15.610293 3.592440 -2.537054
-32.593517 7.506834 4.106753
-21.742323 5.011618 -2.739623
-32.070038 7.398049 -2.879452
-32.454880 7.492799 6.474532
-32.060200 7.407574 -1.724470
-32.238297 7.454642 -0.577570
-32.904945 7.614853 9.049868
-7.725442 1.799189 -2.125422
-32.035683 7.460835 0.574149
-9.312857 2.170595 -2.207669
-11.687148 2.728288 -2.332831
-32.169540 7.515681 2.890259
-15.582908 3.640592 -2.534552
-32.042683 7.491940 4.040457
-21.420189 5.012230 -2.701113
-33.545017 7.855553 5.456748
-31.535778 7.390844 -2.833782
-31.978750 7.494661 6.384470
-31.475447 7.382500 -1.694324
-36.484570 8.564088 8.652067
-32.144733 7.557238 8.847988
-7.726953 1.826576 -2.127493
-31.511272 7.454753 0.565214
-9.305223 2.203090 -2.207669
-39.022522 9.246115 2.101707
-11.685678 2.768840 -2.334357
-31.756714 7.530378 2.855396
-15.604699 3.703174 -2.540183
-31.564388 7.496418 3.983422
-21.120596 5.019948 -2.665527
-33.598110 7.991800 5.469888
-31.115686 7.401320 -2.798222
-31.474922 7.492581 6.289065
-31.049255 7.396969 -1.672762
-31.503124 7.510907 7.476923
-31.655920 7.559015 8.720649
-7.705502 1.849927 -2.123352
-31.037855 7.457257 0.557186
-9.295582 2.235103 -2.207220
-38.978363 9.379461 2.101080
-11.660672 2.805937 -2.331304
-31.052277 7.477921 2.794387
-15.560952 3.750221 -2.535177
-31.078751 7.495774 3.925412
-21.033474 5.076874 -2.656752
-33.619926 8.121099 5.478023
-30.628723 7.398555 -2.756736
-31.024939 7.499986 6.204346
-30.615580 7.406683 -1.650781
-31.147154 7.541046 7.398641
-31.505430 7.639423 8.686484
-7.702752 1.877728 -2.124387
-30.588123 7.462236 0.549576
-9.282044 2.266151 -2.205870
-39.026871 9.535375 2.105476
-11.650805 2.846623 -2.331304
-30.604076 7.483106 2.756387
-15.563116 3.808269 -2.537680
-30.608929 7.495616 3.869352
-20.984776 5.142704 -2.652852
-33.683464 8.260983 5.493041
-30.238926 7.416198 -2.723966
-30.682060 7.530555 6.140997
-30.197737 7.417279 -1.629637
-30.704308 7.547379 7.299662
-33.354408 8.204969 -0.599560
-7.688650 1.902748 -2.122316
-30.130974 7.462235 0.541827
-9.283535 2.300882 -2.208120
-11.610311 2.879713 -2.325199
-30.183292 7.491974 2.720828
-15.526722 3.856857 -2.533926
-30.185724 7.503765 3.819142
-20.789469 5.171835 -2.630428
-33.639091 8.374694 5.490538
-30.312683 7.552178 6.072306
-29.171690 7.273316 -1.575626
-30.227772 7.542230 7.192585
-33.352722 8.328130 -0.600049
-7.681961 1.929574 -2.122316
-29.759537 7.480601 0.535614
-9.279226 2.334224 -2.209019
-38.947731 9.804667 2.104848
-11.607803 2.922138 -2.326725
-29.747366 7.494103 2.683874
-15.501672 3.908135 -2.532048
-29.805189 7.519728 3.774294
-20.636562 5.210356 -2.613366
-33.624973 8.495936 5.493041
-29.015814 7.331352 -2.618333
-29.688482 7.506826 5.952477
-29.091909 7.361382 -1.572696
-29.819660 7.551069 7.101705
-32.125504 8.140932 -0.578477
-7.682666 1.958287 -2.124387
-29.287582 7.470757 0.527586
-9.240811 2.358887 -2.201821
-38.990669 9.960342 2.109035
-11.608945 2.965558 -2.329015
-29.446922 7.527824 2.659122
-15.476456 3.959282 -2.530171
-29.328758 7.508523 3.717259
-20.625940 5.284331 -2.614341
-33.648693 8.626987 5.501801
-28.963028 7.425658 -2.615892
-29.304588 7.518686 5.880733
-28.953835 7.434080 -1.566625
-29.370338 7.546476 7.000927
-28.951694 7.444303 -0.521792
-32.439659 8.347194 8.975327
-7.664562 1.982191 -2.121281
-28.858658 7.468725 0.520326
-9.251387 2.396015 -2.206320
-39.002064 10.108413 2.111547
-11.590921 3.004092 -2.327488
-28.934464 7.504510 2.615195
-15.454890 4.011299 -2.528920
-28.941160 7.517036 3.671436
-20.592001 5.352297 -2.612391
-28.888666 7.514166 4.727763
-28.574421 7.432429 -2.583122
-28.890574 7.520046 5.802883
-28.572083 7.442462 -1.547365
-28.951584 7.546717 6.907347
-28.619810 7.465570 -0.516277
-29.064432 7.586961 8.048755
-7.672546 2.012854 -2.125422
-28.522945 7.488172 0.514741
-9.231656 2.425325 -2.203620
-28.578300 7.513367 1.548621
-11.561377 3.039539 -2.323672
-28.549704 7.511177 2.582773
-15.456076 4.069246 -2.531423
-28.530828 7.516860 3.622689
-20.557833 5.420095 -2.610441
-28.598677 7.545419 4.684587
-28.189981 7.437589 -2.550700
-28.568031 7.542658 5.743351
-28.152002 7.438080 -1.526012
-28.578407 7.556077 6.824565
-28.307468 7.489720 -0.511111
-28.682945 7.594429 7.950404
-7.639336 2.032669 -2.118175
-28.152674 7.496106 0.508528
-9.225018 2.458035 -2.204070
-28.209700 7.516562 1.529989
-11.558285 3.081902 -2.325199
-28.438608 7.588195 2.575104
-15.430326 4.120112 -2.529546
-28.182222 7.530315 3.581740
-20.555090 5.492339 -2.612391
-28.138399 7.523875 4.613253
-27.855902 7.453540 -2.522810
-28.533939 7.640303 5.741825
-27.759319 7.438088 -1.506124
-28.116489 7.533792 6.720188
-28.294065 7.586659 -0.511321
-28.642675 7.685493 7.946263
-7.636284 2.058997 -2.119210
-27.722221 7.480028 0.501198
-9.228104 2.491661 -2.206770
-27.825974 7.513232 1.510521
-11.548001 3.120214 -2.325199
-28.447908 7.691814 2.578241
-15.408953 4.169196 -2.528294
-27.770044 7.518934 3.532505
-20.536764 5.560472 -2.612391
-27.751034 7.518985 4.553808
-27.461823 7.445770 -2.489342
-28.576658 7.753391 5.755563
-27.387554 7.435904 -1.487283
-27.790445 7.545291 6.648203
-28.307344 7.690937 -0.512019
-27.819164 7.563508 7.724713
-7.629414 2.084309 -2.119210
-27.303768 7.464343 0.494078
-9.204753 2.518135 -2.203171
-27.465698 7.513764 1.492308
-11.541377 3.159528 -2.325962
-28.452991 7.794532 2.581030
-15.410283 4.224449 -2.530797
-27.354425 7.503852 3.482782
-20.510555 5.626445 -2.611417
-27.360205 7.510572 4.493737
-27.095001 7.442857 -2.458315
-28.512928 7.837705 5.747931
-27.019968 7.432389 -1.468652
-27.389484 7.534032 6.558223
-28.300964 7.790073 -0.512368
-27.514555 7.578767 7.647068
-7.622460 2.109598 -2.119210
-26.958954 7.466247 0.488283
-9.192597 2.547603 -2.202271
-27.098034 7.509850 1.473676
-11.511918 3.192537 -2.322146
-28.465384 7.899498 2.584516
-15.365735 4.267068 -2.525791
-27.019547 7.508420 3.443297
-20.491785 5.694430 -2.611417
-27.015417 7.512351 4.441175
-26.724665 7.436532 -2.426939
-28.505693 7.937482 5.751747
-26.687336 7.436175 -1.451904
-27.003922 7.524389 6.471842
-28.301943 7.891400 -0.512856
-27.124559 7.568208 7.545611
-7.623976 2.140130 -2.121799
-26.596426 7.470911 0.482210
-9.198205 2.585499 -2.205870
-26.757528 7.526234 1.456719
-11.496360 3.233643 -2.321382
-28.428568 8.001617 2.583819
-15.342386 4.321219 -2.524540
-26.655571 7.512619 3.400398
-20.443020 5.765527 -2.608004
-26.701206 7.535548 4.394245
-26.359755 7.439185 -2.396260
-28.551987 8.063244 5.767011
-26.348537 7.445950 -1.434947
-26.701052 7.550601 6.406156
-28.317612 8.013082 -0.513694
-26.753286 7.575458 7.450365
-7.599736 2.161973 -2.117140
-26.231689 7.467345 0.476067
-9.192873 2.618657 -2.206770
-26.393042 7.523230 1.438297
-11.492555 3.275906 -2.322909
-28.465605 8.119386 2.589746
-15.365202 4.385588 -2.530797
-26.342869 7.523850 3.363838
-20.430405 5.839034 -2.608979
-26.283499 7.516810 4.329793
-26.027132 7.443492 -2.368370
-28.655788 8.200679 5.793725
-26.011335 7.448803 -1.417991
-26.438492 7.576121 6.349469
-26.403576 7.576089 7.360296
-7.595855 2.189560 -2.118175
-25.909576 7.473512 0.470691
-9.176187 2.648568 -2.204970
-26.091623 7.530955 1.423224
-11.484821 3.317096 -2.323672
-15.311846 4.428220 -2.524540
-26.099062 7.552851 3.336052
-20.413713 5.911414 -2.609467
-25.966223 7.519312 4.281612
-25.698631 7.446685 -2.340829
-28.645842 8.306124 5.797541
-25.674435 7.449394 -1.401034
-26.097479 7.577078 6.273885
-26.059221 7.570903 7.271263
-7.588167 2.216059 -2.118175
-25.604401 7.477547 0.465595
-9.152390 2.674611 -2.201371
-25.739288 7.526698 1.405430
-11.480710 3.359368 -2.325199
-29.482836 8.632552 2.687709
-15.281913 4.474532 -2.522037
-25.799553 7.558985 3.300953
-20.382565 5.975730 -2.608004
-25.591045 7.507588 4.224044
-25.362780 7.445437 -2.312590
-29.552488 8.675358 5.986824
-25.327652 7.439926 -1.383449
-25.612276 7.528383 6.163209
-25.695345 7.562551 7.177052
-7.584482 2.242306 -2.119210
-25.286674 7.480652 0.460290
-9.131785 2.703223 -2.198672
-25.368156 7.514388 1.386589
-11.465741 3.396306 -2.324435
-29.450226 8.729142 2.687360
-15.243474 4.521109 -2.518282
-25.460909 7.556371 3.260980
-20.346359 6.042317 -2.606054
-25.318521 7.523729 4.183371
-25.042536 7.446473 -2.285747
-29.582245 8.796369 5.999035
-25.022039 7.445126 -1.368167
-25.264593 7.522102 6.085826
-25.966021 7.735873 -0.472925
-25.387386 7.568303 7.098371
-7.572511 2.268981 -2.118175
-24.965414 7.480484 0.454914
-9.120427 2.734524 -2.198222
-25.081602 7.524839 1.372354
-11.423131 3.429276 -2.318329
-29.471460 8.853081 2.692241
-15.264634 4.588321 -2.524540
-25.145416 7.558337 3.223932
-20.325144 6.113303 -2.606054
-24.970537 7.515281 4.130183
-24.730227 7.447657 -2.259600
-29.561087 8.908126 6.001325
-24.723045 7.454915 -1.353303
-24.949543 7.527955 6.016541
-32.118698 9.691084 -0.585598
-25.079704 7.572010 7.019691
-7.560848 2.294276 -2.117140
-24.646984 7.483627 0.449609
-9.121531 2.771333 -2.200921
-24.745598 7.518286 1.355397
-11.418605 3.471411 -2.319856
-29.467066 8.964014 2.694681
-15.240968 4.639277 -2.523288
-24.673189 7.515110 3.166897
-20.302601 6.187757 -2.606054
-24.656940 7.514858 4.082627
-24.425844 7.449084 -2.234150
-29.601164 9.033042 6.015826
-24.421806 7.457171 -1.338231
-24.751656 7.562613 5.975150
-32.061729 9.796130 -0.585179
-24.724276 7.558972 6.927551
-7.554639 2.321224 -2.117657
-24.346777 7.480744 0.444583
-9.108565 2.800420 -2.200021
-24.455770 7.523571 1.340952
-11.398911 3.508940 -2.318329
-29.488911 9.083241 2.699562
-15.214170 4.686303 -2.521411
-24.401520 7.520868 3.135211
-20.259207 6.248030 -2.603129
-24.370077 7.520498 4.039451
-24.114138 7.446126 -2.208004
-24.152687 7.462647 -1.324833
-24.722715 7.643500 5.974250
-32.073185 9.922180 -0.586017
-24.461523 7.572103 6.861293
-7.537676 2.343394 -2.115069
-24.064651 7.486090 0.439905
-9.078267 2.825825 -2.195072
-24.181459 7.531686 1.327345
-11.390962 3.547889 -2.319093
-15.201493 4.740559 -2.522037
-24.083288 7.514944 3.097675
-20.222115 6.313977 -2.601180
-24.083481 7.524230 3.996275
-23.872515 7.458319 -2.188132
-28.261044 8.834809 5.755563
-23.844378 7.458664 -1.309341
-24.692163 7.728588 5.973350
-32.087971 10.049606 -0.586924
-24.114182 7.556923 6.771224
-7.534978 2.371433 -2.116622
-23.782789 7.489554 0.435228
-9.075783 2.859840 -2.196872
-23.895966 7.534369 1.313109
-11.385997 3.589992 -2.320619
-29.487202 9.302938 2.705140
-15.181085 4.792400 -2.521411
-23.791903 7.515256 3.063552
-20.215094 6.389314 -2.603129
-23.774553 7.518903 3.949345
-23.572784 7.455092 -2.163031
-23.801424 7.531971 4.852654
-23.566856 7.462266 -1.295524
-24.676184 7.818265 5.976050
-32.090820 10.173641 -0.587623
-23.833540 7.560442 6.699790
-7.526655 2.397721 -2.116622
-23.558355 7.509366 0.431598
-9.062031 2.890321 -2.195972
-23.595530 7.530295 1.298037
-11.358434 3.624939 -2.317566
-29.469734 9.410653 2.706534
-15.156736 4.842962 -2.520159
-23.512157 7.517254 3.030891
-20.162418 6.450156 -2.599230
-23.503588 7.523558 3.908672
-23.277164 7.451079 -2.138279
-23.550625 7.543147 4.806860
-23.270588 7.457924 -1.280661
-24.645031 7.903164 5.975150
-32.100811 10.300261 -0.588460
-23.564207 7.565638 6.631462
-7.510885 2.421607 -2.114552
-23.318850 7.522792 0.427689
-9.055595 2.923133 -2.196872
-23.348635 7.541400 1.285895
-11.338240 3.662150 -2.316040
-29.444288 9.515917 2.707232
-15.113425 4.887331 -2.515779
-23.270468 7.529609 3.003105
-20.102005 6.508273 -2.594355
-23.244158 7.530066 3.869876
-23.042519 7.464744 -2.119105
-23.266424 7.541760 4.754197
-23.012632 7.463938 -1.267891
-25.362427 8.230966 6.156011
-32.087486 10.419656 -0.588879
-23.364948 7.591731 6.582804
-7.495040 2.445413 -2.112481
-23.102352 7.542091 0.424198
-9.047191 2.955329 -2.197322
-23.057703 7.531962 1.271240
-11.329119 3.702925 -2.316803
-29.452553 9.632272 2.711066
-15.051215 4.925309 -2.508271
-23.142166 7.577436 2.989943
-20.105577 6.587057 -2.597767
-22.986288 7.530845 3.831081
-22.762627 7.461961 -2.095747
-22.986256 7.539713 4.702297
-22.747332 7.465747 -1.254702
-25.359465 8.327954 6.162309
-32.079353 10.534740 -0.589368
-23.130419 7.600422 6.523793
-7.493796 2.473982 -2.114552
-22.815168 7.532138 0.419381
-9.018835 2.979202 -2.192823
-22.796122 7.534680 1.258261
-11.301212 3.737520 -2.313750
-29.471714 9.752541 2.715947
-15.019798 4.970230 -2.505768
-23.105606 7.650393 2.988480
-20.053471 6.643704 -2.593867
-22.689856 7.521526 3.786027
-22.539770 7.476139 -2.077619
-22.759874 7.549145 4.661082
-22.506351 7.469421 -1.242770
-25.368696 8.424287 6.171308
-32.110703 10.669355 -0.590624
-22.880098 7.606761 6.460641
-7.481886 2.497597 -2.113516
-22.580101 7.542051 0.415542
-9.004684 3.009430 -2.191923
-22.542383 7.538200 1.245701
-11.303652 3.779955 -2.316803
-29.476999 9.862864 2.719434
-14.972385 5.012595 -2.500762
-20.007574 6.706089 -2.590942
-22.446209 7.527822 3.749735
-22.265505 7.467219 -2.054610
-22.465364 7.538614 4.606130
-22.237789 7.466561 -1.229372
-25.401943 8.533890 6.186604
-32.096004 10.789030 -0.591043
-22.468885 7.557246 6.351937
-7.476783 2.524933 -2.114552
-22.318722 7.541448 0.411214
-9.001510 3.043341 -2.193723
-22.266197 7.532360 1.231884
-11.275510 3.814356 -2.313750
-14.879957 5.039481 -2.488247
-23.077953 7.820434 2.991893
-19.969004 6.770789 -2.588993
-22.187836 7.527434 3.710939
-22.016666 7.469364 -2.034041
-22.197233 7.534944 4.556519
-22.003563 7.473484 -1.217858
-25.372000 8.622508 6.186604
-32.084656 10.910007 -0.591532
-22.237532 7.565939 6.293962
-7.449642 2.544774 -2.109375
-22.072765 7.544287 0.407165
-9.000051 3.077894 -2.195972
-22.031900 7.538909 1.220370
-11.269558 3.856235 -2.315277
-29.448896 10.082609 2.723268
-14.735200 5.047856 -2.466972
-23.050514 7.900944 2.991893
-19.930225 6.835301 -2.587043
-21.933475 7.526617 3.672769
-21.771854 7.471156 -2.013821
-21.966543 7.542250 4.514541
-21.769562 7.478864 -1.206344
-25.363861 8.718622 6.192003
-32.103107 11.041450 -0.592579
-21.977165 7.563052 6.227704
-7.460798 2.577702 -2.115069
-21.823282 7.544190 0.403046
-8.972677 3.103561 -2.191923
-21.790285 7.541304 1.208437
-11.244896 3.891697 -2.312987
-29.485067 10.210113 2.729892
-14.579368 5.051409 -2.443820
-23.968088 8.309065 3.114737
-19.879990 6.895717 -2.583630
-21.683126 7.525412 3.635225
-21.519773 7.468718 -1.992903
-21.710108 7.539022 4.467220
-21.535797 7.482697 -1.194830
-25.362722 8.817345 6.199201
-32.098366 11.165269 -0.593207
-21.768179 7.576227 6.175941
-7.428049 2.595444 -2.108340
-21.577848 7.543769 0.398997
-8.947074 3.129715 -2.188324
-21.564005 7.547377 1.197342
-11.220125 3.927031 -2.310697
-29.501896 10.331418 2.734773
-14.412505 5.050012 -2.418790
-23.961418 8.400555 3.117662
-19.859541 6.966388 -2.584118
-21.507614 7.548720 3.610195
-21.324373 7.484406 -1.977215
-21.479904 7.543200 4.425242
-21.298500 7.483676 -1.183107
-25.379589 8.922629 6.210898
-32.096924 11.290510 -0.593905
-21.683289 7.631636 6.159376
-7.424407 2.623288 -2.109893
-21.381701 7.559062 0.395855
-8.939769 3.162225 -2.189224
-21.307825 7.541308 1.184572
-11.210051 3.967483 -2.311460
-21.382271 7.571861 1.984536
-14.257006 5.051468 -2.395638
-23.961885 8.494758 3.121562
-19.820137 7.030361 -2.582168
-21.350822 7.577497 3.588294
-21.084068 7.482825 -1.957344
-21.242533 7.543244 4.381738
-21.076519 7.488435 -1.172221
-25.373997 9.020300 6.217197
-32.117607 11.423934 -0.595022
-21.674719 7.713757 6.164552
-7.406109 2.645938 -2.107305
-21.121693 7.550183 0.391527
-8.936016 3.196037 -2.191023
-21.100845 7.551044 1.174524
-11.188739 4.003947 -2.309934
-21.059338 7.540331 1.956995
-14.123988 5.059898 -2.376240
-23.965723 8.590412 3.125949
-19.765579 7.088777 -2.578268
-21.119719 7.578588 3.553879
-20.862791 7.486392 -1.939215
-21.027599 7.549681 4.342813
-20.854769 7.491732 -1.161335
-25.379034 9.122001 6.226195
-32.100113 11.544097 -0.595441
-21.662203 7.794602 6.168694
-7.389560 2.669149 -2.105234
-20.918427 7.559977 0.388246
-8.906479 3.220583 -2.186524
-20.867765 7.549904 1.163010
-11.174695 4.042976 -2.309934
-20.838055 7.543267 1.938866
-13.953941 5.054009 -2.350585
-20.807632 7.540471 2.717443
-19.744448 7.159082 -2.578756
-20.907440 7.584902 3.522592
-20.637995 7.487152 -1.920738
-20.794430 7.548005 4.300072
-20.633251 7.493577 -1.150449
-20.834059 7.570627 5.117637
-20.629490 7.500367 -0.383150
-20.839691 7.580904 5.941967
-7.385642 2.696915 -2.106787
-20.636467 7.539624 0.383499
-8.920806 3.261020 -2.192823
-20.638706 7.548608 1.151705
-11.142076 4.075215 -2.306118
-20.605782 7.540643 1.919692
-13.795238 5.051069 -2.326807
-20.613432 7.551602 2.695507
-19.719337 7.227960 -2.578756
-20.673122 7.581656 3.487550
-20.424681 7.490541 -1.903307
-20.598391 7.558327 4.264963
-20.441980 7.504982 -1.141238
-20.712385 7.608365 5.094242
-20.441769 7.513002 -0.380148
-20.635412 7.588265 5.891239
-7.383432 2.725356 -2.108858
-20.366161 7.521545 0.378962
-8.891089 3.285386 -2.188324
-20.462362 7.565197 1.143331
-11.127782 4.114083 -2.306118
-20.437317 7.559992 1.906445
-13.666368 5.058053 -2.308034
-20.419405 7.561470 2.673570
-19.656757 7.282961 -2.573881
-20.353882 7.545285 3.438117
-20.222801 7.496693 -1.886922
-20.354677 7.549621 4.219932
-20.205938 7.498470 -1.129515
-20.422632 7.582936 5.029456
-20.246712 7.521637 -0.377007
-20.438581 7.596982 5.842581
-7.370254 2.749760 -2.107822
-20.122465 7.511475 0.374913
-8.874090 3.314356 -2.186974
-20.216385 7.550554 1.130980
-11.135423 4.161146 -2.310697
-20.194323 7.550347 1.886225
-13.526519 5.060049 -2.287385
-20.214409 7.565895 2.650171
-19.616341 7.345958 -2.571931
-20.128960 7.537923 3.404327
-20.006205 7.495936 -1.869142
-20.160910 7.557919 4.185205
-19.988895 7.497407 -1.118838
-20.188046 7.576123 4.978167
-20.086857 7.538150 -0.374494
-20.290295 7.618541 5.807382
-7.349764 2.771381 -2.104717
-19.917820 7.510426 0.371562
-8.857580 3.341702 -2.185624
-20.010521 7.553360 1.120932
-11.091444 4.188895 -2.304591
-20.011288 7.561635 1.871582
-13.465315 5.088118 -2.279876
-20.189209 7.632887 2.650171
-19.573309 7.403945 -2.569494
-19.906691 7.534024 3.371163
-19.804771 7.499398 -1.852757
-19.930103 7.546857 4.142464
-19.773418 7.491477 -1.108162
-19.984234 7.575337 4.934077
-20.060423 7.608221 -0.374494
-20.296089 7.701653 5.816700
-7.335118 2.793676 -2.103164
-19.734518 7.520099 0.368630
-8.842221 3.371210 -2.184725
-19.808622 7.556251 1.111092
-11.070155 4.222852 -2.303065
-19.799957 7.556910 1.854151
-13.443784 5.133678 -2.279250
-20.199530 7.717485 2.655046
-19.525093 7.463718 -2.566569
-19.703148 7.535718 3.341128
-19.597422 7.495282 -1.835674
-19.738615 7.553237 4.108118
-19.571814 7.493326 -1.098322
-19.779327 7.576733 4.889986
-20.050549 7.684640 -0.374808
-7.330729 2.821347 -2.104717
-19.514072 7.514203 0.365000
-8.848583 3.409061 -2.189224
-19.629307 7.566450 1.102509
-11.066337 4.265707 -2.305354
-19.598721 7.558583 1.837766
-13.422094 5.179152 -2.278625
-20.183575 7.792242 2.656508
-19.450775 7.513232 -2.560231
-19.514578 7.541785 3.313595
-19.377861 7.488949 -1.817546
-19.543663 7.556952 4.073009
-19.377895 7.496742 -1.088902
-19.611010 7.590857 4.854894
-20.064625 7.770471 -0.375576
-20.285059 7.859910 5.829123
-7.328040 2.849718 -2.106787
-19.316273 7.515566 0.361788
-8.813023 3.430737 -2.183375
-19.401779 7.556634 1.091205
-11.047722 4.302883 -2.304591
-19.368011 7.547375 1.818592
-13.359762 5.208755 -2.271116
-20.215433 7.885735 2.664308
-19.291286 7.529113 -2.542682
-19.307804 7.539448 3.282934
-19.206841 7.500022 -1.803950
-19.345272 7.557970 4.037137
-19.176750 7.495983 -1.079063
-19.377491 7.578355 4.803605
-19.979650 7.817874 -0.374494
-20.289881 7.943343 5.838440
-7.314452 2.873868 -2.105752
-19.122423 7.517104 0.358647
-8.797364 3.460056 -2.182475
-19.204298 7.557029 1.081575
-11.021674 4.337108 -2.302302
-19.248854 7.578443 1.809876
-13.255117 5.221331 -2.256411
-20.202559 7.962070 2.666258
-19.098684 7.530871 -2.520746
-19.115992 7.541556 3.254776
-18.998911 7.495366 -1.786867
-19.136160 7.553367 3.998975
-18.964703 7.489521 -1.068596
-19.180557 7.578635 4.761314
-20.065681 7.932409 -0.376623
-20.301550 8.029757 5.849828
-7.297193 2.896531 -2.103681
-18.936237 7.520329 0.355645
-8.801534 3.497218 -2.186524
-18.995918 7.551712 1.071317
-11.006467 4.375554 -2.302302
-19.070473 7.585211 1.795583
-13.190926 5.249305 -2.248589
-20.189398 8.038417 2.668208
-18.909992 7.532849 -2.499297
-18.953760 7.554113 3.231624
-18.783850 7.486394 -1.769087
-18.949200 7.556127 3.965393
-18.804876 7.502387 -1.061059
-18.969379 7.571849 4.715424
-20.069437 8.015011 -0.377216
-20.327215 8.122078 5.865357
-7.274487 2.916951 -2.100058
-18.765106 7.528311 0.352923
-8.778420 3.523564 -2.183825
-18.847118 7.568846 1.064409
-10.969264 4.405165 -2.297722
-18.818336 7.561106 1.774317
-13.161526 5.290898 -2.246712
-20.212782 8.129582 2.675032
-18.717842 7.532113 -2.477360
-18.886961 7.603997 3.224740
-18.606049 7.490901 -1.754794
-18.762451 7.557680 3.931810
-18.597033 7.494815 -1.050801
-18.794632 7.578262 4.678532
-20.065445 8.094749 -0.377670
-20.313076 8.198765 5.869499
-7.262469 2.941603 -2.099540
-18.568211 7.524673 0.349711
-8.766068 3.554183 -2.183825
-18.694727 7.583541 1.057291
-10.964735 4.447859 -2.300012
-18.658905 7.572801 1.761766
-13.121013 5.327890 -2.242958
-20.217386 8.213539 2.679420
-18.544315 7.537606 -2.457861
-18.874943 7.675833 3.227243
-18.409992 7.486753 -1.738757
-18.572292 7.556532 3.897465
-18.430168 7.502456 -1.042846
-18.605629 7.577667 4.638041
-20.077810 8.181339 -0.378438
-20.323689 8.285666 5.880887
-7.262885 2.971325 -2.102646
-18.386377 7.525813 0.346779
-8.731968 3.575899 -2.178426
-18.494417 7.577572 1.047452
-10.952776 4.487595 -2.300775
-18.451693 7.563829 1.744684
-13.102335 5.373659 -2.242958
-20.225323 8.299132 2.684294
-18.367310 7.540473 -2.437875
-18.840725 7.738670 3.225992
-18.262110 7.501009 -1.727252
-18.386005 7.555648 3.863883
-18.248701 7.502947 -1.034054
-18.442099 7.586225 4.603848
-20.076864 8.262789 -0.378962
-20.408966 8.403633 5.914015
-7.252468 2.996659 -2.102646
-18.204763 7.525771 0.343847
-8.715831 3.604870 -2.177526
-18.290684 7.568771 1.037403
-10.926160 4.521296 -2.298485
-18.292637 7.573313 1.732133
-13.068897 5.413314 -2.240455
-22.576572 9.356139 3.000667
-18.164841 7.531548 -2.414475
-18.820896 7.807417 3.227243
-18.088589 7.503636 -1.713308
-18.221708 7.562586 3.834879
-18.071146 7.503796 -1.025471
-18.257139 7.584762 4.564257
-30.665512 12.745985 -0.579664
-21.346310 8.876868 6.194575
-7.231267 3.017491 -2.099540
-18.023373 7.524557 0.340915
-8.710387 3.638277 -2.179326
-18.087246 7.558637 1.027355
-10.895821 4.553350 -2.295432
-18.093298 7.564881 1.715748
-13.075436 5.469573 -2.244835
-22.540115 9.433352 3.000180
-17.999279 7.536645 -2.395952
-18.771664 7.863908 3.223489
-17.907923 7.502067 -1.698665
-18.082939 7.579090 3.811219
-17.908543 7.509675 -1.017725
-18.068819 7.580593 4.523766
-30.646652 12.863779 -0.580153
-7.208229 3.037464 -2.095917
-17.868013 7.533051 0.338472
-8.694043 3.667143 -2.178426
-17.929583 7.562689 1.019819
-10.869006 4.586776 -2.293143
-17.941969 7.575295 1.703895
-13.052626 5.513642 -2.244209
-22.602131 9.552158 3.012854
-17.833904 7.540674 -2.377427
-17.734831 7.502427 -1.684721
-17.951509 7.597788 3.789085
-17.731409 7.508282 -1.009142
-17.909470 7.587362 4.490473
-30.640650 12.980937 -0.580851
-17.923697 7.597085 5.216239
-7.195804 3.061852 -2.095399
-17.688370 7.526495 0.335540
-8.685421 3.697480 -2.179326
-17.770771 7.568879 1.012282
-10.863766 4.629309 -2.295432
-17.790789 7.584742 1.692042
-13.012463 5.547600 -2.240455
-22.555723 9.620828 3.010904
-17.691950 7.549908 -2.361828
-19.765951 8.439046 3.404014
-17.563789 7.502459 -1.670950
-17.807056 7.606372 3.763899
-17.570507 7.508960 -1.001396
-17.756990 7.592316 4.458530
-30.653986 13.112983 -0.581968
-17.786953 7.612477 5.184145
-7.187386 3.086458 -2.095917
-17.522356 7.528197 0.332887
-8.650977 3.718541 -2.173927
-17.606119 7.567824 1.004327
-10.826713 4.655999 -2.290853
-17.611801 7.577551 1.677399
-12.989390 5.591426 -2.239829
-22.522001 9.699509 3.010904
-17.497768 7.539348 -2.339404
-19.768698 8.517834 3.409333
-17.408909 7.504663 -1.658574
-17.632570 7.604733 3.732606
-17.393816 7.505357 -0.992813
-17.578302 7.588602 4.420289
-30.650723 13.232001 -0.582736
-17.619732 7.610141 5.142735
-7.174796 3.110760 -2.095399
-17.372538 7.532172 0.330514
-8.642173 3.748759 -2.174827
-17.429359 7.564035 0.995744
-10.817598 4.696891 -2.292379
-17.439051 7.575476 1.663454
-12.963530 5.631322 -2.238577
-22.544331 9.797873 3.018216
-17.334316 7.537173 -2.320880
-19.785940 8.607276 3.417468
-17.240110 7.503368 -1.644977
-17.474049 7.605184 3.704366
-17.229662 7.502398 -0.984858
-17.406540 7.583031 4.383396
-30.655674 13.361293 -0.583713
-17.447855 7.608275 5.100288
-7.173290 3.138405 -2.097987
-17.206917 7.531826 0.327861
-8.629035 3.778904 -2.174827
-17.263817 7.563910 0.987789
-10.783981 4.724857 -2.288563
-17.275150 7.572474 1.650207
-12.947412 5.678126 -2.239203
-22.542713 9.890866 3.022604
-17.173393 7.538591 -2.302843
-19.781096 8.687410 3.421848
-17.093426 7.510605 -1.633473
-17.317980 7.609271 3.676889
-17.079037 7.507839 -0.977740
-17.233690 7.579413 4.346504
-30.652779 13.487541 -0.584551
-17.276207 7.605309 5.057842
-7.156437 3.162335 -2.096434
-17.041508 7.530417 0.325208
-8.626487 3.813728 -2.177526
-17.120407 7.572425 0.981090
-10.763000 4.762764 -2.287800
-17.116112 7.577664 1.637656
-12.915677 5.720744 -2.237326
-22.544350 9.985573 3.027478
-17.023561 7.543804 -2.286269
-19.765099 8.762807 3.424351
-16.917761 7.503985 -1.619179
-17.121290 7.597838 3.641017
-16.919973 7.512035 -0.970204
-17.082909 7.587944 4.315461
-17.520452 7.782293 -0.334632
-17.122446 7.609084 5.020572
-7.131242 3.180999 -2.092293
-16.878662 7.532521 0.322625
-8.607112 3.842938 -2.176177
-16.940678 7.563743 0.972297
-10.746310 4.800303 -2.287800
-16.973135 7.585342 1.626500
-12.881202 5.759342 -2.234823
-22.543844 10.084342 3.032353
-16.872585 7.551007 -2.269695
-19.779465 8.851926 3.432173
-16.780539 7.513328 -1.608546
-16.890411 7.566057 3.597513
-16.766066 7.513874 -0.962877
-16.921177 7.586935 4.281269
-30.652754 13.743752 -0.586366
-17.000599 7.626105 4.992620
-7.120095 3.205873 -2.092293
-16.733250 7.534263 0.320321
-8.592544 3.870660 -2.175727
-16.793995 7.568666 0.965389
-10.740227 4.842628 -2.290090
-16.815792 7.585557 1.613950
-12.858431 5.800402 -2.234197
-22.535608 10.170478 3.035766
-16.717190 7.548101 -2.252146
-19.779049 8.934740 3.437491
-16.621674 7.511954 -1.595822
-16.729263 7.560578 3.568510
-16.613667 7.511832 -0.955550
-16.782290 7.591604 4.252475
-30.655605 13.873745 -0.587343
-16.808449 7.610505 4.943962
-7.112942 3.231065 -2.093328
-16.601255 7.544645 0.318297
-8.580755 3.901434 -2.176177
-16.658390 7.577622 0.959109
-10.709812 4.871714 -2.287037
-16.659979 7.581859 1.601400
-12.830916 5.841974 -2.232946
-22.532486 10.263892 3.040153
-16.539005 7.537260 -2.231672
-18.629778 8.494001 3.242887
-16.404509 7.479420 -1.577345
-16.577736 7.561894 3.541797
-16.452885 7.508418 -0.947804
-16.649328 7.601573 4.225481
-30.650644 14.000618 -0.588181
-16.655270 7.611317 4.906692
-7.108645 3.259094 -2.095399
-16.476669 7.557524 0.316412
-8.551144 3.924048 -2.172127
-16.483000 7.567393 0.950526
-10.678467 4.902515 -2.283984
-16.513916 7.585077 1.589895
-12.803265 5.883428 -2.231694
-16.504902 7.587918 2.230453
-16.357498 7.523605 -2.210710
-18.571302 8.545768 3.237881
-16.437101 7.567175 3.517373
-16.310474 7.512326 -0.941105
-16.463400 7.586244 4.184989
-30.663324 14.135987 -0.589368
-16.502295 7.611155 4.869422
-7.084952 3.278210 -2.091776
-16.370342 7.578032 0.314876
-8.544467 3.957150 -2.173927
-16.358627 7.579543 0.944873
-10.650600 4.934808 -2.281694
-16.339113 7.573966 1.575601
-12.779066 5.926422 -2.231069
-16.370274 7.595353 2.215829
-16.187092 7.513795 -2.191211
-18.541359 8.610543 3.237881
-16.282394 7.564947 3.489897
-16.168238 7.515335 -0.934406
-16.309593 7.584507 4.152596
-30.650055 14.259808 -0.590066
-16.356529 7.613274 4.834222
-7.061213 3.297200 -2.088152
-16.314800 7.621587 0.314318
-8.535898 3.989424 -2.175277
-16.201805 7.575690 0.937337
-10.629753 4.970293 -2.280931
-16.215124 7.585367 1.566189
-12.743987 5.964295 -2.228566
-16.217815 7.593527 2.198767
-16.049311 7.518044 -2.176099
-18.550537 8.693659 3.244764
-16.242296 7.611907 -1.569326
-16.142124 7.568394 3.465473
-16.033415 7.520838 -0.928126
-16.170113 7.588407 4.123803
-30.658020 14.393898 -0.591183
-16.207453 7.612830 4.797987
-7.064221 3.327183 -2.092293
-16.285820 7.673943 0.314248
-8.499707 4.006906 -2.169428
-16.068207 7.578258 0.931057
-10.599009 4.998816 -2.277878
-16.074558 7.584683 1.555033
-12.731285 6.009893 -2.229817
-16.070486 7.589621 2.182193
-15.869934 7.498294 -2.155138
-18.507322 8.748364 3.242261
-15.999801 7.566486 3.440286
-15.872981 7.509902 -0.920276
-16.033894 7.589463 4.095459
-30.671568 14.524585 -0.592370
-16.052929 7.605328 4.759683
-7.041512 3.348073 -2.089187
-16.298666 7.749632 0.315016
-8.482149 4.034880 -2.168528
-15.911807 7.572505 0.923520
-10.580616 5.037628 -2.277878
-15.895557 7.571578 1.540391
-12.684207 6.044622 -2.225437
-15.929208 7.591018 2.166594
-15.750489 7.509218 -2.142463
-18.494499 8.821423 3.245390
-15.759004 7.520035 -1.527666
-15.881606 7.581938 3.420824
-15.751633 7.523268 -0.914833
-15.884647 7.590203 4.064415
-30.671202 14.655701 -0.593347
-15.928679 7.614658 4.730695
-7.040233 3.377646 -2.092293
-16.262939 7.805860 0.314876
-8.472574 4.068470 -2.169878
-15.773652 7.574396 0.917031
-10.541731 5.064329 -2.273299
-15.807975 7.597673 1.534464
-12.673712 6.093994 -2.227314
-15.801100 7.601160 2.152944
-15.611958 7.513527 -2.127352
-18.484953 8.896207 3.249144
-15.612382 7.517087 -1.515987
-15.793136 7.607513 3.407467
-15.602929 7.519246 -0.907715
-15.743957 7.590595 4.035172
-30.663086 14.783518 -0.594185
-15.783680 7.613142 4.695495
-7.007533 3.392102 -2.086082
-16.269363 7.875432 0.315505
-8.445004 4.089748 -2.166279
-15.657246 7.585868 0.911797
-10.474522 5.077121 -2.262613
-15.641526 7.584995 1.520868
-12.653435 6.135989 -2.227314
-15.665076 7.599792 2.137832
-15.465519 7.506317 -2.110777
-18.489328 8.977935 3.255402
-15.485690 7.522782 -1.506226
-15.750164 7.651261 3.403651
-15.484498 7.525549 -0.902272
-15.622307 7.595896 4.010427
-30.658051 14.913207 -0.595092
-15.631940 7.607327 4.658226
-6.989302 3.411930 -2.084011
-16.220213 7.921640 0.315086
-8.449937 4.128613 -2.171227
-15.538688 7.592155 0.906354
-10.402949 5.085098 -2.250783
-15.508898 7.584306 1.510409
-12.624840 6.176648 -2.226063
-15.531472 7.602069 2.123208
-15.350081 7.516606 -2.098590
-18.494934 9.056574 3.261659
-15.355095 7.522379 -1.495941
-15.733933 7.711381 3.405941
-15.346951 7.525038 -0.895782
-15.483727 7.595450 3.981634
-30.680243 15.050011 -0.596488
-15.512978 7.613163 4.630273
-6.987748 3.441428 -2.087117
-16.888107 8.317301 0.328594
-8.415222 4.146276 -2.165829
-15.422519 7.602197 0.901121
-10.316464 5.087519 -2.235900
-15.392990 7.594321 1.501693
-12.597201 6.214984 -2.224811
-15.381575 7.592026 2.106146
-15.221834 7.516490 -2.084453
-18.488005 9.133323 3.266039
-15.219788 7.522084 -1.485308
-15.708278 7.763511 3.405941
-15.205536 7.518348 -0.888979
-15.402558 7.619106 3.967237
-30.663361 15.174760 -0.597186
-15.375504 7.612409 4.597144
-6.976298 3.464579 -2.087117
-16.919859 8.406453 0.329781
-8.398952 4.174758 -2.165379
-15.313623 7.615081 0.896306
-10.231849 5.090267 -2.221398
-15.260691 7.592077 1.491235
-12.571894 6.257158 -2.224185
-15.266128 7.601435 2.093959
-15.078235 7.511158 -2.068367
-18.493137 9.216306 3.272609
-15.100718 7.528942 -1.476244
-15.676205 7.819280 3.405178
-15.084950 7.527652 -0.883536
-15.295658 7.632798 3.946541
-15.599415 7.787783 -0.304335
-15.253786 7.618555 4.568674
-6.949735 3.483203 -2.082976
-16.922899 8.485436 0.330444
-8.394046 4.210757 -2.168078
-15.182076 7.619195 0.890235
-10.128907 5.085449 -2.203081
-15.133053 7.597894 1.481473
-12.545345 6.301422 -2.223560
-15.122872 7.599398 2.078116
-14.940641 7.511096 -2.053255
-18.492764 9.300888 3.278554
-14.978693 7.536771 -1.467005
-15.650944 7.878453 3.405941
-14.957365 7.532583 -0.877674
-15.171852 7.640600 3.921797
-15.460046 7.789118 -0.302171
-15.117076 7.619635 4.536063
-6.933474 3.506908 -2.081941
-16.907743 8.555536 0.330758
-8.378557 4.241492 -2.168078
-15.080548 7.634254 0.885838
-10.034029 5.081748 -2.186290
-14.977137 7.588476 1.468923
-12.532737 6.352719 -2.225437
-15.013478 7.613476 2.066904
-14.836431 7.523694 -2.042530
-18.484848 9.377897 3.282934
-14.831481 7.527693 -1.455152
-15.614595 7.928589 3.404032
-14.827703 7.532285 -0.871603
-15.044319 7.642324 3.895702
-15.322231 7.786869 -0.300007
-14.966399 7.609314 4.498793
-6.921808 3.529879 -2.081941
-16.891748 8.617920 0.331002
-8.364445 4.269256 -2.168078
-14.944853 7.627930 0.879349
-9.966416 5.089100 -2.175223
-14.852531 7.587344 1.459161
-12.479939 6.378064 -2.219805
-14.903309 7.619844 2.055205
-14.701818 7.516825 -2.027419
-18.495857 9.460733 3.290443
-14.710660 7.527824 -1.445740
-15.612684 7.992852 3.409375
-14.713758 7.535891 -0.866369
-14.925231 7.644200 3.871408
-15.203784 7.790215 -0.298192
-14.851688 7.613079 4.471875
-6.904909 3.550163 -2.080388
-16.198011 8.331797 0.317948
-8.339845 4.291620 -2.165379
-14.831126 7.635253 0.874220
-9.893629 5.093367 -2.163011
-14.745810 7.594592 1.451143
-12.469257 6.424843 -2.221683
-14.770329 7.613739 2.040337
-14.587274 7.522606 -2.015232
-18.489052 9.538824 3.295136
-14.602851 7.537088 -1.437721
-15.729152 8.118415 3.440668
-14.587531 7.532411 -0.860403
-14.804963 7.647956 3.847113
-15.087674 7.797335 -0.296447
-14.728924 7.615190 4.442888
-6.900424 3.579897 -2.082976
-16.062328 8.333036 0.315854
-8.324815 4.320704 -2.165379
-14.689165 7.627156 0.867416
-9.815658 5.098826 -2.150036
-14.615338 7.595296 1.441033
-12.435108 6.465035 -2.219805
-14.620370 7.601156 2.023275
-14.462305 7.522185 -2.001582
-18.492443 9.622450 3.301706
-14.486321 7.541101 -1.428831
-15.735854 8.195058 3.448682
-14.465953 7.536913 -0.854856
-14.671419 7.647223 3.819669
-14.961061 7.798194 -0.294492
-14.620032 7.623683 4.418042
-6.894734 3.607543 -2.085046
-15.982074 8.365882 0.314876
-8.308922 4.351189 -2.165379
-14.565578 7.630890 0.861764
-9.709109 5.086591 -2.130573
-14.511089 7.605571 1.433363
-12.415964 6.510237 -2.220431
-14.504519 7.608582 2.011088
-14.336202 7.523483 -1.987933
-18.485033 9.704860 3.306712
-14.364651 7.541610 -1.419418
-15.754083 8.274581 3.458986
-14.351151 7.540914 -0.849622
-14.458343 7.600459 3.771079
-14.836807 7.802711 -0.292607
-14.496249 7.626845 4.389053
-6.861596 3.620770 -2.078835
-16.923626 8.934146 0.334039
-8.293683 4.380164 -2.165379
-14.457620 7.638767 0.856949
-9.646162 5.096605 -2.120651
-14.371717 7.596593 1.422207
-12.389673 6.551688 -2.219805
-14.397154 7.616464 1.999876
-14.218617 7.525195 -1.975258
-18.485962 9.787808 3.312969
-14.237874 7.538563 -1.409483
-14.225913 7.538593 -0.843760
-14.343917 7.604328 3.748134
-14.703482 7.798241 -0.290513
-14.385918 7.633032 4.363689
-6.848916 3.644699 -2.078835
-15.947991 8.490410 0.315365
-8.285223 4.412753 -2.167179
-14.338780 7.636908 0.851401
-9.565938 5.097011 -2.106913
-14.253688 7.597975 1.413143
-12.363241 6.593037 -2.219180
-14.265393 7.610614 1.985252
-14.108205 7.529913 -1.963559
-18.498713 9.873240 3.321104
-14.114806 7.536602 -1.399895
-15.744416 8.410268 3.469671
-14.113198 7.542075 -0.838631
-14.233077 7.609331 3.726089
-14.638746 7.826211 -0.289745
-14.242985 7.617829 4.327972
-6.836151 3.668584 -2.078835
-15.838696 8.499753 0.313759
-8.258526 4.433751 -2.164029
-14.224057 7.639662 0.846168
-9.482370 5.095060 -2.092412
-14.135825 7.598630 1.404079
-12.320431 6.622776 -2.215425
-14.145669 7.607105 1.972090
-13.999245 7.531512 -1.951860
-18.502403 9.958349 3.327987
-14.012981 7.545211 -1.392400
-15.737185 8.473598 3.474250
-13.996675 7.539582 -0.833189
-14.109982 7.603794 3.700445
-29.414536 15.857970 -0.583294
-14.132993 7.622561 4.302608
-6.822250 3.690313 -2.078317
-8.234429 4.457913 -2.161780
-14.087991 7.626884 0.839573
-9.410180 5.096558 -2.080200
-14.019455 7.596108 1.395015
-12.304184 6.669508 -2.216677
-14.028288 7.607230 1.959416
-13.889116 7.534896 -1.940160
-18.495323 10.033781 3.332680
-13.896825 7.542218 -1.383336
-15.748918 8.550962 3.483409
-13.889539 7.544541 -0.828374
-13.990891 7.602756 3.676150
-29.396929 15.974514 -0.583992
-14.021078 7.622330 4.276208
-6.817805 3.718732 -2.080905
-15.805049 8.620771 0.314248
-8.221312 4.486128 -2.162230
-13.982398 7.632946 0.834863
-9.344087 5.103027 -2.069515
-13.908929 7.599147 1.386648
-12.268130 6.702696 -2.214174
-13.919375 7.608005 1.947716
-13.770000 7.529485 -1.926998
-18.486181 10.112501 3.337373
-13.788267 7.545727 -1.375143
-15.735975 8.611625 3.486844
-13.773346 7.540685 -0.822931
-13.886979 7.606048 3.655454
-29.379562 16.098179 -0.584760
-13.901214 7.620153 4.247738
-6.781736 3.728289 -2.073658
-15.676739 8.621924 0.312293
-8.214140 4.519494 -2.164479
-13.875179 7.637408 0.830048
-9.272075 5.103691 -2.057303
-13.810351 7.604865 1.379327
-12.237741 6.741665 -2.212922
-13.817975 7.615350 1.937235
-13.660191 7.531501 -1.915299
-18.492285 10.199863 3.344882
-13.679430 7.545217 -1.366776
-15.733324 8.681678 3.492950
-13.670004 7.546247 -0.818325
-13.780170 7.610195 3.634309
-29.386211 16.235443 -0.586017
-13.789990 7.621905 4.221856
-6.772059 3.753815 -2.074694
-15.534625 8.614525 0.310059
-8.196610 4.547194 -2.164029
-13.759373 7.636366 0.824710
-9.250771 5.134120 -2.056540
-13.693143 7.602732 1.370263
-12.202044 6.777627 -2.210732
-13.694136 7.609541 1.923586
-13.560947 7.538625 -1.905062
-18.497997 10.287397 3.352391
-13.565945 7.544507 -1.358061
-15.744095 8.759452 3.502108
-13.559813 7.547291 -0.813301
-13.671795 7.612749 3.612714
-29.371286 16.361277 -0.586855
-13.682302 7.624853 4.197010
-6.755542 3.775544 -2.073658
-15.403229 8.612100 0.308035
-8.161978 4.565316 -2.159080
-13.657688 7.642408 0.820209
-9.232794 5.166378 -2.056540
-13.590026 7.607662 1.362593
-12.164523 6.812461 -2.208229
-13.589561 7.613633 1.912618
-13.444505 7.535447 -1.892387
-18.499880 10.373160 3.359274
-13.459585 7.546991 -1.350042
-15.737397 8.827800 3.507451
-13.453265 7.549616 -0.808486
-13.565272 7.615589 3.591568
-29.394199 16.508739 -0.588460
-13.571391 7.625256 4.171128
-6.742322 3.799102 -2.073658
-15.265069 8.604932 0.305871
-8.139203 4.589947 -2.157280
-13.540472 7.639005 0.814766
-9.207864 5.194717 -2.055013
-13.507862 7.623720 1.357015
-12.132069 6.850023 -2.206665
-13.471294 7.609279 1.899699
-13.342074 7.539364 -1.881663
-18.494513 10.455167 3.364906
-13.368987 7.557646 -1.343593
-15.744083 8.903942 3.515847
-13.343389 7.549327 -0.803462
-13.455505 7.615860 3.569523
-29.392075 16.642773 -0.589577
-13.465689 7.627831 4.146799
-6.729019 3.822614 -2.073658
-15.137580 8.602836 0.303916
-8.131602 4.623147 -2.159530
-13.407824 7.625990 0.808381
-9.172609 5.217121 -2.051197
-13.401512 7.625497 1.348997
-12.106367 6.891353 -2.206352
-13.373925 7.615981 1.889706
-13.239785 7.542653 -1.870938
-18.499094 10.543137 3.372415
-13.259437 7.556913 -1.335226
-15.729959 8.968574 3.519663
-13.244090 7.554297 -0.799065
-13.398375 7.645394 3.561425
-29.378952 16.771053 -0.590485
-13.355103 7.626887 4.120917
-6.705577 3.840318 -2.070552
-15.010291 8.599954 0.301962
-8.098508 4.641813 -2.155031
-13.304886 7.629033 0.803776
-9.132201 5.236412 -2.046236
-13.260749 7.606800 1.337492
-12.082238 6.933570 -2.206352
-13.268067 7.617155 1.878494
-13.134192 7.543345 -1.859726
-13.251868 7.614005 2.420667
-13.139690 7.549552 -1.325813
-15.768344 9.063540 3.535309
-13.143191 7.557668 -0.794565
-13.374983 7.694060 3.562325
-29.393024 16.915398 -0.591951
-13.271477 7.640683 4.103317
-6.688785 3.861771 -2.069517
-13.553331 7.828173 0.273200
-8.089005 4.673952 -2.156831
-13.175756 7.613154 0.797495
-9.095170 5.257450 -2.042038
-13.147877 7.603173 1.328776
-12.030605 6.959874 -2.201346
-13.169238 7.621660 1.868257
-13.042500 7.551350 -1.850464
-13.154746 7.616339 2.407527
-13.046016 7.556431 -1.319015
-15.723021 9.110648 3.532256
-13.044156 7.561430 -0.790168
-13.346357 7.739727 3.561875
-29.402506 17.050898 -0.593277
-13.200949 7.658477 4.089341
-6.681942 3.888983 -2.071588
-13.433969 7.818757 0.271315
-8.059989 4.692906 -2.153232
-13.059355 7.606830 0.792052
-9.061496 5.280270 -2.038604
-13.045523 7.604868 1.321107
-12.007459 6.999730 -2.201346
-13.058150 7.615287 1.856070
-12.941943 7.550544 -1.839740
-13.051310 7.617400 2.393448
-12.947298 7.559728 -1.311694
-15.728327 9.183527 3.540270
-12.934504 7.555284 -0.785039
-13.317254 7.781974 3.560975
-29.391150 17.181677 -0.594254
-13.114100 7.669401 4.070706
-6.667343 3.910143 -2.071070
-13.316910 7.812981 0.269500
-8.028433 4.712135 -2.149183
-12.943163 7.599783 0.786609
-9.042243 5.309296 -2.038222
-12.954950 7.609741 1.314483
-11.960811 7.028594 -2.197279
-12.951058 7.613540 1.844615
-12.823109 7.541330 -1.826578
-12.941212 7.613832 2.378117
-12.853467 7.562208 -1.304721
-15.752007 9.271236 3.552864
-12.828883 7.553773 -0.780225
-13.279934 7.822478 3.558276
-29.403351 17.326807 -0.595720
-13.024010 7.677851 4.051036
-6.650328 3.931425 -2.070035
-13.224150 7.820737 0.268174
-8.016966 4.743110 -2.150532
-12.837494 7.598118 0.781795
-9.020277 5.338825 -2.037459
-12.846017 7.606191 1.306116
-11.941301 7.073324 -2.198217
-12.856094 7.618219 1.834865
-12.738648 7.551628 -1.818291
-12.841496 7.615631 2.364664
-12.763586 7.569426 -1.298272
-15.744876 9.341190 3.558588
