# This PCD file was generated using the MATLAB® pcwrite function
# from Computer Vision Toolbox®.
# .PCD v.7 - Point Cloud Data file format
VERSION .7
FIELDS x y z
SIZE 4 4 4
TYPE F F F
COUNT 1 1 1
WIDTH 1623
HEIGHT 1
VIEWPOINT 0 0 0 1 0 0 0
POINTS 1623
DATA ascii
-20.415623 5.861797 -2.608004
-26.209742 7.530374 4.319156
-25.894165 7.444597 -2.357214
-25.898567 7.450763 -1.412338
-26.331835 7.580380 6.326074
-26.271786 7.573030 7.326132
-7.605780 2.203925 -2.121799
-25.789026 7.472878 0.468667
-9.161714 2.656523 -2.202271
-25.996683 7.542894 1.418619
-11.450012 3.324369 -2.317566
-15.305648 4.449598 -2.524540
-25.983072 7.553697 3.322402
-20.368353 5.925263 -2.604592
-25.849485 7.524647 4.264091
-25.604038 7.458047 -2.333159
-29.567204 8.618052 5.986442
-25.533628 7.447206 -1.393916
-25.967150 7.578566 6.245091
-26.584707 7.758801 -0.483397
-25.911400 7.567204 7.232957
-7.581357 2.225565 -2.117140
-25.450644 7.476054 0.463012
-9.146307 2.688434 -2.200921
-25.609953 7.527699 1.398940
-11.449639 3.367641 -2.319856
-29.474575 8.674839 2.688057
-15.259706 4.494066 -2.519534
-25.661974 7.562464 3.284867
-20.354116 6.002123 -2.605567
-25.523699 7.526556 4.214658
-25.260637 7.453775 -2.304224
-29.570833 8.731215 5.993311
-25.235487 7.455930 -1.379053
-25.503242 7.539879 6.139814
-25.625481 7.580882 7.160488
-7.580950 2.254218 -2.119210
-25.165033 7.482897 0.458265
-9.128002 2.715971 -2.198672
-25.277245 7.525868 1.382193
-11.434051 3.406466 -2.319093
-29.444117 8.777665 2.688057
-15.252290 4.546901 -2.520785
-25.378050 7.570348 3.251718
-20.337902 6.070723 -2.606054
-25.171717 7.518361 4.160844
-24.959574 7.459749 -2.279123
-29.568054 8.837100 5.998653
-24.946558 7.460602 -1.364608
-25.168190 7.531663 6.065130
-25.798111 7.725082 -0.470063
-25.276863 7.573804 7.070419
-7.569733 2.278232 -2.118175
-24.855377 7.485347 0.453099
-9.120333 2.748379 -2.199121
-24.952513 7.524107 1.365864
-11.426451 3.445498 -2.319856
-29.449181 8.885617 2.691195
-15.259017 4.606969 -2.524540
-24.975214 7.545219 3.203458
-20.305189 6.138228 -2.604592
-24.850359 7.516965 4.112037
-24.644829 7.454795 -2.252627
-29.559574 8.947083 6.003233
-24.610701 7.453843 -1.347651
-24.869457 7.536958 5.999445
-32.082172 9.728963 -0.585179
-24.932312 7.565503 6.981385
-7.541408 2.298445 -2.112481
-24.542189 7.484565 0.447864
-9.121865 2.783613 -2.201821
-24.662491 7.530663 1.351419
-11.406844 3.483067 -2.318329
-29.467527 9.003499 2.695727
-15.235287 4.657896 -2.523288
-24.584263 7.520850 3.156660
-20.295027 6.212556 -2.606054
-24.574652 7.527298 4.070738
-24.325281 7.450915 -2.225783
-29.535671 9.052506 6.004759
-24.332481 7.462412 -1.333834
-24.738668 7.591707 5.974250
-32.082428 9.851451 -0.585808
-24.621365 7.565113 6.901669
-7.546260 2.328743 -2.116105
-24.217848 7.478149 0.442418
-9.097198 2.810834 -2.198222
-24.368914 7.534116 1.336765
-11.390865 3.521704 -2.317566
-29.496824 9.125155 2.701305
-15.218936 4.711045 -2.523288
-24.273428 7.518519 3.120099
-20.246670 6.275139 -2.602642
-24.272764 7.527601 4.025059
-24.040319 7.455513 -2.202077
-24.050688 7.467938 -1.319808
-24.685965 7.669915 5.967951
-32.086037 9.975253 -0.586506
-24.329178 7.568380 6.827129
-7.539929 2.355646 -2.116622
-23.977833 7.495816 0.438509
-9.074312 2.838499 -2.195072
-24.060368 7.530837 1.321274
-11.378503 3.561444 -2.317566
-15.202399 4.764142 -2.523288
-23.989431 7.522427 3.086951
-20.239796 6.350525 -2.604592
-23.982487 7.529444 3.981257
-23.778439 7.465383 -2.180462
-28.250551 8.874854 5.755945
-23.738674 7.462002 -1.304107
-24.688786 7.765394 5.975150
-32.073906 10.094405 -0.586924
-24.037271 7.569694 6.752589
-7.527977 2.380786 -2.115587
-23.730364 7.509483 0.434460
-9.062491 2.869569 -2.194623
-23.772497 7.527381 1.306829
-11.362259 3.599955 -2.316803
-29.474186 9.344098 2.705140
-15.212036 4.825541 -2.527668
-23.701921 7.523243 3.053315
-20.194803 6.413927 -2.601667
-23.693808 7.525220 3.937456
-23.482601 7.462652 -2.155710
-23.725403 7.544372 4.839298
-23.480286 7.470941 -1.291337
-24.654100 7.849163 5.973350
-32.093609 10.217690 -0.587902
-23.758018 7.568449 6.681155
-7.512260 2.404693 -2.113516
-23.499647 7.522296 0.430690
-9.062204 2.902579 -2.196872
-23.502626 7.532289 1.293431
-11.345884 3.638397 -2.316040
-29.448977 9.449362 2.705837
-15.154570 4.862682 -2.520785
-23.427353 7.521699 3.021141
-20.154522 6.474788 -2.599230
-23.419157 7.528085 3.896158
-23.209839 7.465269 -2.133049
-23.431124 7.536444 4.784345
-23.204422 7.467996 -1.277521
-24.650196 7.938045 5.978749
-32.099621 10.343158 -0.588670
-23.451982 7.561223 6.602474
-7.504245 2.429592 -2.113516
-23.241158 7.529094 0.426432
-9.046457 2.932389 -2.195522
-23.230526 7.530124 1.279824
-11.341226 3.678424 -2.317566
-29.470543 9.564188 2.710718
-15.096172 4.902127 -2.513902
-23.193283 7.535954 2.994330
-20.131798 6.545102 -2.599230
-23.153603 7.527528 3.856110
-22.946230 7.464532 -2.111086
-23.165718 7.540409 4.735498
-22.950323 7.474728 -1.264960
-25.363468 8.265574 6.158710
-32.087955 10.456983 -0.589089
-23.298210 7.597028 6.566239
-7.492047 2.454570 -2.112481
-22.980423 7.528923 0.422104
-9.025572 2.958730 -2.192823
-22.980164 7.537715 1.267472
-11.313394 3.713092 -2.314513
-29.459696 9.674455 2.712810
-15.038544 4.938602 -2.507019
-23.134218 7.601670 2.989943
-20.091124 6.605626 -2.596792
-22.890755 7.530519 3.816689
-22.700500 7.472326 -2.090866
-22.894428 7.536161 4.685124
-22.648443 7.459572 -1.249678
-25.369238 8.360603 6.166808
-32.100639 10.585201 -0.589996
-23.062408 7.609303 6.507229
-7.495303 2.481736 -2.115587
-22.746523 7.535911 0.418264
-9.024960 2.991710 -2.195072
-22.704807 7.530880 1.253656
-11.297947 3.747377 -2.313750
-29.463190 9.778261 2.715947
-15.003336 4.982219 -2.503890
-23.105116 7.677088 2.989455
-20.061573 6.669709 -2.595817
-22.606991 7.520340 3.773513
-22.446270 7.466876 -2.069600
-22.694212 7.553754 4.649252
-22.418928 7.466478 -1.238374
-25.426416 8.473025 6.187503
-32.107098 10.705511 -0.590764
-22.754833 7.591587 6.427513
-7.479267 2.505430 -2.113516
-22.492559 7.539001 0.414076
-9.016310 3.023815 -2.195522
-22.409506 7.519870 1.238792
-11.299686 3.791792 -2.316803
-14.967129 5.028270 -2.500762
-19.989250 6.723239 -2.589480
-22.344706 7.519820 3.734091
-22.201025 7.471466 -2.049380
-22.373730 7.533940 4.588956
-22.165606 7.468160 -1.225813
-25.385605 8.557995 6.184804
-32.077110 10.820077 -0.590904
-22.398722 7.559770 6.334338
-7.470475 2.531523 -2.113516
-22.257786 7.546834 0.410236
-8.998319 3.052765 -2.193723
-22.197775 7.535127 1.228534
-11.252253 3.821814 -2.309934
-29.488535 10.015746 2.724663
-14.848489 5.046161 -2.483867
-23.069750 7.844595 2.991893
-19.961903 6.791696 -2.588993
-22.097660 7.522659 3.697173
-21.939629 7.473128 -2.027766
-22.134121 7.543688 4.545452
-21.918800 7.474578 -1.213671
-25.366644 8.650334 6.187503
-32.073212 10.943606 -0.591532
-22.145498 7.560509 6.270151
-7.446528 2.553873 -2.109375
-21.991657 7.546583 0.405838
-8.990754 3.086991 -2.194623
-21.958452 7.543756 1.216811
-11.249310 3.866859 -2.312224
-29.466703 10.128942 2.726057
-14.687926 5.051723 -2.460089
-23.052105 7.932974 2.993355
-19.933121 6.863526 -2.588505
-21.871971 7.535390 3.664008
-21.693592 7.478171 -2.007545
-21.894743 7.551793 4.501948
-21.687355 7.484491 -1.202366
-25.371611 8.755960 6.196502
-32.082031 11.078058 -0.592439
-21.902174 7.567189 6.209069
-7.444417 2.583682 -2.111446
-21.744720 7.551042 0.401789
-8.957291 3.112246 -2.189224
-21.728231 7.549559 1.205506
-11.243160 3.908682 -2.313750
-29.489597 10.257821 2.731635
-14.527524 5.056179 -2.436311
-23.963964 8.345133 3.115712
-19.890295 6.926532 -2.586068
-21.636612 7.538898 3.628967
-21.471695 7.485643 -1.989417
-21.608730 7.537642 4.448521
-21.457441 7.489069 -1.191062
-25.381371 8.858598 6.206400
-32.092251 11.207119 -0.593347
-21.711494 7.586241 6.162482
-7.444923 2.611552 -2.114034
-21.519554 7.552911 0.398089
-8.961630 3.147098 -2.192823
-21.480713 7.543484 1.193155
-11.237546 3.948548 -2.315277
-29.504288 10.372738 2.736167
-14.357877 5.050570 -2.410655
-23.947392 8.428509 3.117174
-19.841002 6.983226 -2.582655
-21.462435 7.558115 3.603938
-21.243809 7.485287 -1.970591
-21.405869 7.546593 4.411886
-21.244137 7.493744 -1.180595
-25.348179 8.941422 6.205500
-32.092625 11.326791 -0.594045
-21.671644 7.653051 6.158340
-7.427118 2.632997 -2.111446
-21.298386 7.554707 0.394459
-8.941962 3.173540 -2.190573
-21.243454 7.543571 1.181432
-11.205889 3.979222 -2.311460
-21.250422 7.550222 1.973032
-14.210760 5.051838 -2.388755
-23.971678 8.526503 3.123999
-19.809027 7.049781 -2.581681
-21.260996 7.570693 3.574528
-21.022360 7.489859 -1.952463
-21.158798 7.538469 4.366092
-21.000938 7.486358 -1.168453
-25.360865 9.045561 6.216297
-32.090565 11.452183 -0.594743
-21.673906 7.739048 6.166623
-7.408326 2.656941 -2.108858
-21.083656 7.561495 0.390969
-8.921659 3.201443 -2.188324
-20.991417 7.536690 1.168871
-11.176449 4.014955 -2.308407
-20.971363 7.537749 1.949674
-14.036008 5.047740 -2.362474
-23.979130 8.623564 3.128874
-19.758144 7.109474 -2.578268
-21.048578 7.577954 3.543241
-20.789894 7.488921 -1.933289
-20.961105 7.554728 4.330983
-20.789234 7.496882 -1.158195
-20.946503 7.557727 5.141032
-32.125626 11.591277 -0.596139
-20.988981 7.577194 5.979238
-7.386294 2.678175 -2.105234
-20.822702 7.554161 0.386641
-8.917192 3.236781 -2.190123
-20.798454 7.553575 1.159660
-11.158675 4.052604 -2.307644
-20.768900 7.546949 1.933289
-13.910625 5.057556 -2.344327
-20.753637 7.549599 2.711593
-19.735685 7.183202 -2.578756
-20.820200 7.582049 3.509451
-20.580158 7.494634 -1.916206
-20.702185 7.543159 4.282899
-20.552776 7.492787 -1.146472
-20.806484 7.589395 5.113138
-20.575228 7.509110 -0.382312
-20.772345 7.585157 5.925404
-7.385969 2.707266 -2.107822
-20.563408 7.541418 0.382312
-8.891203 3.262518 -2.186524
-20.576971 7.554542 1.148774
-11.144461 4.091530 -2.307644
-20.562889 7.553450 1.916555
-13.755682 5.055652 -2.321175
-20.544569 7.554860 2.687707
-19.699312 7.247936 -2.577293
-20.608232 7.586433 3.478164
-20.374380 7.500345 -1.899472
-20.513607 7.555669 4.249316
-20.357832 7.502328 -1.137051
-20.582401 7.589162 5.064548
-20.383795 7.519979 -0.379241
-20.553633 7.586711 5.870534
-7.372850 2.731691 -2.106787
-20.296957 7.524183 0.377845
-8.885242 3.295568 -2.187874
-20.366972 7.558230 1.138517
-11.137472 4.133142 -2.309170
-20.386976 7.569696 1.902610
-13.619441 5.059611 -2.301151
-20.339443 7.560132 2.664308
-19.632959 7.301429 -2.571931
-20.281704 7.546723 3.427480
-20.146404 7.496379 -1.880647
-20.299442 7.557363 4.210392
-20.114412 7.492469 -1.124909
-20.314745 7.571134 5.005161
-20.188789 7.528205 -0.376099
-20.374989 7.601682 5.827053
-7.368698 2.759441 -2.108340
-20.060839 7.516407 0.373935
-8.864559 3.323145 -2.185624
-20.157200 7.560535 1.128259
-11.100921 4.163718 -2.304591
-20.151506 7.562411 1.883087
-13.524024 5.077961 -2.288011
-20.205149 7.590589 2.650171
-19.592489 7.364329 -2.569981
-20.040758 7.536820 3.391187
-19.959734 7.506349 -1.865656
-20.089188 7.559031 4.172230
-19.916170 7.497896 -1.115279
-20.116768 7.577430 4.962870
-20.059473 7.559841 -0.374180
-20.290485 7.650947 5.810488
-7.342760 2.778992 -2.103681
-19.862432 7.521232 0.370724
-8.856551 3.355447 -2.186524
-19.956453 7.560822 1.118420
-11.082646 4.201050 -2.303828
-19.923792 7.556402 1.864261
-13.458198 5.106914 -2.279876
-20.191521 7.666005 2.651877
-19.556824 7.425033 -2.568518
-19.845766 7.538702 3.362403
-19.735996 7.500940 -1.847179
-19.868164 7.555142 4.131778
-19.718136 7.502036 -1.105650
-19.913034 7.576188 4.918780
-20.052982 7.633434 -0.374529
-20.286665 7.726442 5.816700
-7.337112 2.804706 -2.104717
-19.658077 7.518481 0.367373
-8.852655 3.387584 -2.188324
-19.741005 7.554152 1.107743
-11.079654 4.241991 -2.306118
-19.716290 7.552585 1.847179
-13.430121 5.147274 -2.277999
-20.193790 7.743582 2.655533
-19.517267 7.484160 -2.566569
-19.639915 7.535123 3.331742
-19.510128 7.489234 -1.828353
-19.663391 7.552005 4.094379
-19.517902 7.500037 -1.095810
-19.716812 7.576471 4.876489
-20.049957 7.708502 -0.374948
-7.333178 2.831109 -2.106270
-19.442768 7.510139 0.363813
-8.819562 3.408490 -2.182925
-19.561762 7.563950 1.099160
-11.072104 4.283473 -2.307644
-19.546196 7.561853 1.833582
-13.401927 5.187500 -2.276122
-20.153191 7.804770 2.653583
-19.428089 7.527857 -2.558281
-19.444046 7.537943 3.302958
-19.324118 7.495329 -1.813362
-19.494152 7.565197 4.064614
-19.316589 7.500168 -1.085971
-19.534016 7.584589 4.837797
-20.045294 7.787133 -0.375366
-20.302027 7.890945 5.836370
-7.311955 2.853751 -2.103164
-19.269819 7.524615 0.361090
-8.810638 3.442213 -2.183825
-19.340448 7.559971 1.088274
-11.034389 4.315445 -2.303065
-19.336508 7.562326 1.816500
-13.325796 5.214275 -2.266423
-20.187302 7.903183 2.661870
-19.230318 7.532407 -2.535857
-19.250761 7.544290 3.274800
-19.114737 7.494826 -1.796280
-19.272560 7.560595 4.024162
-19.125362 7.506701 -1.076760
-19.302917 7.576391 4.787408
-20.033369 7.867128 -0.375681
-20.308929 7.979432 5.846722
-7.308634 2.883370 -2.105234
-19.070990 7.527643 0.357879
-8.805213 3.477346 -2.185624
-19.146749 7.561415 1.078853
-11.019258 4.353937 -2.303065
-19.175259 7.580405 1.803950
-13.216587 5.227481 -2.251092
-20.195116 7.991735 2.666745
-19.048861 7.538132 -2.515383
-19.051664 7.543082 3.245390
-18.958792 7.510144 -1.784078
-19.081791 7.562721 3.989816
-18.913383 7.499791 -1.066293
-19.113319 7.579072 4.746917
-20.054113 7.956183 -0.376588
-20.313274 8.063105 5.856040
-7.275701 2.898296 -2.098505
-18.878736 7.524212 0.354738
-8.786393 3.503636 -2.183825
-18.962027 7.561242 1.069852
-10.990171 4.384634 -2.300012
-18.950167 7.564180 1.785124
-13.177166 5.262486 -2.247338
-20.201681 8.071918 2.671133
-18.857853 7.534970 -2.493447
-18.920162 7.563690 3.227243
-18.737692 7.494543 -1.765601
-18.874334 7.553017 3.951654
-18.732658 7.500110 -1.057500
-18.921640 7.575774 4.705526
-20.070312 8.039745 -0.377391
-20.290009 8.131860 5.857075
-7.262465 2.920964 -2.097470
-18.690432 7.521082 0.351666
-8.778342 3.534210 -2.184725
-18.791012 7.569184 1.061687
-10.982854 4.423990 -2.301538
-18.762360 7.561443 1.769785
-13.141322 5.298768 -2.244209
-20.215303 8.155205 2.676495
-18.665764 7.533876 -2.471510
-18.878990 7.623770 3.224740
-18.553858 7.492475 -1.750610
-18.699919 7.555259 3.920362
-18.552141 7.499314 -1.048708
-18.743326 7.580402 4.667735
-20.075497 8.123257 -0.378019
-20.311642 8.222930 5.871569
-7.261174 2.949933 -2.100058
-18.504747 7.521523 0.348664
-8.746095 3.556756 -2.179776
-18.627577 7.579026 1.053942
-10.952798 4.456378 -2.298485
-18.614058 7.577312 1.758280
-13.115427 5.341627 -2.242958
-20.212454 8.236203 2.679907
-18.488619 7.537536 -2.451524
-18.866894 7.695598 3.227243
-18.380001 7.497000 -1.736665
-18.520746 7.558173 3.888306
-18.359434 7.496081 -1.039288
-18.550781 7.577990 4.626344
-20.087742 8.209923 -0.378787
-20.318577 8.308405 5.881922
-7.250833 2.975261 -2.100058
-18.337788 7.528353 0.346011
-8.739034 3.589485 -2.181125
-18.427355 7.572641 1.044102
-10.926279 4.490107 -2.296196
-18.395853 7.563448 1.740152
-13.100356 5.388879 -2.243583
-20.198263 8.312752 2.681857
-18.304337 7.537026 -2.430562
-18.828957 7.756889 3.225366
-18.217403 7.504950 -1.723766
-18.349039 7.562925 3.857776
-18.178055 7.496163 -1.030495
-18.369291 7.578775 4.587652
-30.681784 12.664911 -0.579385
-21.342936 8.814362 6.187329
-7.238619 2.999814 -2.099540
-18.148846 7.524916 0.342940
-8.726451 3.619968 -2.181125
-18.212652 7.558827 1.033426
-10.896033 4.522199 -2.293143
-18.255255 7.580244 1.729344
-13.077816 5.433060 -2.242958
-22.555763 9.375203 2.999205
-18.127615 7.538373 -2.410576
-18.783529 7.814981 3.222238
-18.025536 7.499614 -1.708078
-18.163029 7.560537 3.824194
-18.019030 7.504286 -1.022959
-18.188025 7.578392 4.548960
-30.637386 12.771934 -0.579385
-21.337000 8.899220 6.194575
-7.226322 3.024316 -2.099023
-17.985971 7.531073 0.340357
-8.717357 3.651914 -2.182025
-18.053534 7.566764 1.025890
-10.880182 4.560203 -2.293143
-18.052294 7.569955 1.712610
-13.051485 5.475620 -2.241706
-22.559511 9.469242 3.004080
-17.965755 7.544729 -2.392539
-18.774345 7.888151 3.225366
-17.859646 7.503836 -1.694831
-18.049652 7.587379 3.805876
-17.845440 7.505196 -1.014585
-18.021357 7.582882 4.513868
-30.647903 12.902084 -0.580432
-7.212161 3.048018 -2.097987
-17.797491 7.525278 0.337285
-8.695582 3.678522 -2.179776
-17.872505 7.564351 1.017097
-10.856965 4.595097 -2.291616
-17.901001 7.580095 1.700757
-13.025017 5.518060 -2.240455
-17.778482 7.539195 -2.371090
-17.682947 7.502318 -1.680537
-17.900169 7.598171 3.779927
-17.679419 7.508108 -1.006630
-17.851295 7.584774 4.477876
-30.650532 13.029320 -0.581340
-17.882402 7.605366 5.206922
-7.194907 3.068887 -2.095917
-17.640015 7.527745 0.334772
-8.681544 3.706573 -2.179326
-17.718756 7.568654 1.009770
-10.841668 4.631072 -2.291616
-17.696220 7.562685 1.683675
-12.988484 5.553457 -2.237326
-22.527386 9.636633 3.008467
-17.611034 7.537187 -2.352078
-19.762552 8.462071 3.404953
-17.535257 7.508372 -1.668858
-17.755770 7.606465 3.754740
-17.511232 7.505324 -0.998465
-17.695299 7.587866 4.445033
-30.654938 13.151390 -0.582247
-17.718616 7.605192 5.166546
-7.180602 3.092456 -2.094882
-17.477734 7.530715 0.332189
-8.645288 3.726826 -2.173477
-17.541840 7.565603 1.001187
-10.832646 4.672001 -2.293143
-17.570930 7.581781 1.674262
-12.972647 5.600327 -2.237952
-22.540989 9.735681 3.014804
-17.449776 7.540342 -2.334042
-19.772785 8.548249 3.411836
-17.357151 7.503913 -1.654390
-17.602974 7.613840 3.728026
-17.341955 7.504530 -0.990301
-17.505966 7.579131 4.404092
-30.649210 13.275801 -0.583015
-17.550154 7.605542 5.125135
-7.180392 3.122123 -2.097987
-17.319315 7.534245 0.329676
-8.637588 3.759314 -2.174827
-17.372496 7.564592 0.993023
-10.809073 4.706648 -2.291616
-17.394579 7.577819 1.659968
-12.974748 5.655051 -2.241706
-22.546902 9.831756 3.020166
-17.277788 7.537706 -2.314543
-19.757305 8.623544 3.414339
-17.195723 7.505481 -1.641491
-17.432354 7.612386 3.697497
-17.183880 7.507448 -0.982765
-17.340122 7.579319 4.368999
-30.646654 13.401936 -0.583853
-17.388992 7.607904 5.085794
-7.148224 3.137850 -2.091776
-17.157421 7.535152 0.327093
-8.635118 3.794146 -2.177526
-17.214340 7.567317 0.985486
-10.792579 4.744351 -2.291616
-17.214819 7.571114 1.645326
-12.922384 5.685984 -2.236074
-22.548780 9.926395 3.025041
-17.124203 7.541963 -2.297481
-19.763237 8.708388 3.420596
-17.034498 7.506010 -1.628592
-17.258369 7.608247 3.666204
-17.029646 7.510971 -0.975438
-17.181627 7.581584 4.335706
-30.643597 13.528209 -0.584691
-17.235090 7.612364 5.048524
-7.144291 3.165914 -2.093846
-16.995737 7.535017 0.324510
-8.614696 3.821105 -2.175727
-17.067329 7.573892 0.978578
-10.758006 4.774032 -2.287800
-17.053535 7.571333 1.632427
-12.913290 5.735868 -2.237952
-22.546646 10.019557 3.029428
-16.978052 7.548470 -2.281394
-19.768816 8.793374 3.426854
-16.869844 7.503881 -1.615344
-17.002117 7.566273 3.617357
-16.886551 7.518379 -0.968739
-17.028669 7.585210 4.303763
-17.525545 7.810203 -0.334912
-17.077847 7.614265 5.010220
-7.127907 3.188465 -2.092293
-16.837912 7.535489 0.321997
-8.587075 3.844782 -2.172127
-16.909552 7.574631 0.971041
-10.748444 4.814764 -2.289326
-16.917912 7.581925 1.621968
-12.864349 5.767979 -2.232946
-22.529648 10.106318 3.031866
-16.824829 7.550789 -2.264333
-19.777647 8.880128 3.433737
-16.721771 7.508045 -1.603666
-16.846659 7.567658 3.589881
-16.707182 7.508502 -0.959946
-16.881229 7.590265 4.273170
-30.646877 13.786117 -0.586575
-16.934895 7.621501 4.976055
-7.127297 3.218098 -2.095399
-16.705807 7.546472 0.319972
-8.586033 3.880349 -2.175277
-16.741056 7.569432 0.962877
-10.738727 4.855492 -2.290853
-16.738859 7.571957 1.607326
-12.862135 5.820991 -2.236074
-22.541248 10.206193 3.038203
-16.650093 7.542306 -2.244346
-18.656197 8.454973 3.244138
-16.559353 7.504686 -1.590592
-16.684250 7.564799 3.560878
-16.546272 7.505720 -0.952200
-16.733963 7.594382 4.242577
-30.649553 13.916152 -0.587553
-16.753407 7.610260 4.930503
-7.116021 3.242958 -2.095399
-16.548361 7.545007 0.317459
-8.556479 3.903018 -2.171227
-16.590977 7.571438 0.955759
-10.689563 4.878275 -2.283984
-16.603580 7.580687 1.596867
-12.829159 5.860110 -2.233884
-22.556038 10.307918 3.045028
-16.475626 7.532697 -2.224360
-18.612198 8.513472 3.241635
-16.536348 7.567440 3.534928
-16.400116 7.508559 -0.945292
-16.588648 7.598377 4.212434
-30.658962 14.049714 -0.588670
-16.607325 7.613946 4.895304
-7.087107 3.259703 -2.090223
-16.431093 7.560929 0.315714
-8.560504 3.941014 -2.175727
-16.438782 7.567949 0.948432
-10.676037 4.917200 -2.284747
-16.457590 7.583567 1.585363
-12.801448 5.901549 -2.232633
-16.459568 7.591449 2.225578
-16.309952 7.522442 -2.205348
-18.555168 8.561899 3.236629
-16.388634 7.569140 3.508978
-16.261400 7.513816 -0.938803
-16.416533 7.585497 4.175092
-30.652140 14.169767 -0.589438
-16.452232 7.608968 4.856998
-7.067496 3.279122 -2.087634
-16.347887 7.588435 0.314597
-8.540318 3.966094 -2.173927
-16.304909 7.571943 0.942152
-10.656109 4.950924 -2.283984
-16.309492 7.580994 1.573510
-12.758523 5.933140 -2.228566
-16.322712 7.594072 2.210466
-16.158930 7.517873 -2.188286
-18.533838 8.626719 3.237881
-16.238869 7.565410 3.482264
-16.133207 7.519606 -0.932836
-16.264112 7.580620 4.142698
-30.662973 14.298380 -0.590555
-16.293856 7.601412 4.817658
-7.058333 3.303360 -2.088152
-16.326254 7.644300 0.314667
-8.518295 3.990260 -2.171677
-16.166248 7.576268 0.935662
-10.625411 4.979569 -2.280931
-16.154379 7.574139 1.560959
-12.745932 5.978769 -2.229817
-16.186022 7.595873 2.195354
-15.996025 7.510112 -2.169762
-18.503613 8.691362 3.237881
-16.107084 7.569120 3.459367
-15.972623 7.509333 -0.924986
-16.142324 7.592561 4.118404
-30.659922 14.427464 -0.591462
-16.158857 7.607222 4.785564
-7.057239 3.332928 -2.091258
-16.303087 7.702952 0.314737
-8.500793 4.018303 -2.170778
-16.016930 7.574586 0.928545
-10.604417 5.014948 -2.280168
-16.041395 7.589582 1.552592
-12.721413 6.021537 -2.229192
-16.026649 7.589453 2.177318
-15.829782 7.499609 -2.150750
-18.519569 8.777901 3.246016
-15.859652 7.517154 -1.535510
-15.956390 7.566412 3.432654
-15.829019 7.509397 -0.918182
-15.980165 7.584523 4.083762
-30.670792 14.563555 -0.592649
-16.024015 7.612186 4.753471
-7.042075 3.355880 -2.090223
-16.276102 7.759810 0.314737
-8.486713 4.047954 -2.170778
-15.860608 7.568519 0.921008
-10.572672 5.045170 -2.277115
-15.878157 7.580291 1.539345
-12.696752 6.064201 -2.228566
-15.896174 7.595711 2.163181
-15.696051 7.503451 -2.136126
-18.495945 8.845898 3.247267
-15.729067 7.522607 -1.525400
-15.839562 7.578849 3.413191
-15.698221 7.514593 -0.912111
-15.841107 7.586385 4.054968
-30.652231 14.686083 -0.593277
-15.871917 7.607956 4.716201
-7.023355 3.377091 -2.088152
-16.266933 7.825251 0.315086
-8.476043 4.079244 -2.171677
-15.740517 7.578782 0.915565
-10.519618 5.065011 -2.269482
-15.715178 7.569961 1.526097
-12.679066 6.110200 -2.229192
-15.762277 7.599428 2.148557
-15.573211 7.511624 -2.122964
-18.479185 8.917275 3.249770
-15.575312 7.515988 -1.513024
-15.793562 7.624705 3.408994
-15.572979 7.521565 -0.906354
-15.703988 7.588221 4.026624
-30.654789 14.819100 -0.594324
-15.737440 7.611162 4.684107
-7.004570 3.398214 -2.086082
-16.239521 7.881985 0.315086
-8.454741 4.105402 -2.169878
-15.613362 7.584804 0.909704
-10.454195 5.078536 -2.259179
-15.613396 7.588194 1.518776
-12.643447 6.147511 -2.226688
-15.610698 7.593619 2.131495
-15.432661 7.510346 -2.107365
-18.487019 9.000750 3.256653
-15.434333 7.514493 -1.501868
-15.738610 7.666034 3.402888
-15.437109 7.522510 -0.899969
-15.568802 7.590047 3.998730
-30.678360 14.962832 -0.595790
-15.582297 7.603359 4.645802
-7.006546 3.429440 -2.090223
-16.219090 7.942142 0.315225
-8.436859 4.133173 -2.168978
-15.504292 7.598831 0.904889
-10.383515 5.089080 -2.247730
-15.483056 7.591774 1.508666
-12.614820 6.188125 -2.225437
-15.480734 7.597339 2.117358
-15.299436 7.511678 -2.092741
-18.490952 9.082642 3.262911
-15.302500 7.516493 -1.491583
-15.732900 7.731316 3.407467
-15.301423 7.522599 -0.893584
-15.461772 7.604782 3.978034
-30.658239 15.085722 -0.596418
-15.468999 7.615044 4.619920
-6.985872 3.449600 -2.087634
-16.180513 7.993391 0.315016
-8.415393 4.159144 -2.167179
-15.385902 7.604183 0.899446
-10.297051 5.091357 -2.232847
-15.342170 7.589234 1.497510
-12.589599 6.230371 -2.224811
-15.340263 7.594961 2.101759
-15.159279 7.508645 -2.077141
-18.499674 9.163198 3.269794
-15.176196 7.520328 -1.481822
-15.709333 7.787931 3.408231
-15.164137 7.520941 -0.887095
-15.361815 7.622329 3.959138
-30.694029 15.229969 -0.598094
-15.332917 7.611326 4.586791
-6.975518 3.474824 -2.088152
-16.919996 8.428623 0.329955
-8.412018 4.192243 -2.169878
-15.269892 7.613289 0.894212
-10.196648 5.086081 -2.214911
-15.205053 7.587585 1.486703
-12.568870 6.272084 -2.224811
-15.213758 7.595250 2.087866
-15.041947 7.512751 -2.064467
-18.479942 9.233899 3.271984
-15.050053 7.523368 -1.472061
-15.676396 7.836472 3.406704
-15.046224 7.524732 -0.881652
-15.249313 7.629631 3.936643
-15.551910 7.784421 -0.303567
-15.223345 7.623278 4.561945
-6.941514 3.486665 -2.081423
-16.917274 8.501102 0.330479
-8.383403 4.214581 -2.166279
-15.154011 7.621671 0.888979
-10.107816 5.083700 -2.199265
-15.090819 7.593190 1.477987
-12.550427 6.317699 -2.225437
-15.080778 7.594735 2.073241
-14.912808 7.513407 -2.050330
-18.484638 9.317027 3.278554
-14.928947 7.524811 -1.462648
-15.645442 7.889373 3.405941
-14.920006 7.526831 -0.875790
-15.140821 7.641547 3.915498
-15.413970 7.782776 -0.301403
-15.058693 7.606689 4.520534
-6.918962 3.505635 -2.078317
-16.916035 8.574570 0.331037
-8.379069 4.249105 -2.168978
-15.038257 7.629342 0.883745
-10.030478 5.088751 -2.186290
-14.954071 7.589913 1.467180
-12.514208 6.354312 -2.222934
-14.972761 7.605973 2.062029
-14.787386 7.515057 -2.036680
-18.488985 9.400290 3.285124
-14.797806 7.523597 -1.452363
-15.628307 7.949279 3.408231
-14.801077 7.531768 -0.870347
-15.006386 7.639535 3.887604
-15.290486 7.787527 -0.299518
-14.942540 7.613605 4.493617
-6.925604 3.539436 -2.084011
-16.245031 8.305847 0.318472
-8.353776 4.273003 -2.166279
-14.897743 7.623559 0.877046
-9.951486 5.092432 -2.172933
-14.821076 7.587591 1.456721
-12.484919 6.394355 -2.221683
-14.861320 7.614742 2.050330
-14.672741 7.521349 -2.024494
-18.496487 9.485504 3.292320
-14.675720 7.526111 -1.442950
-15.693042 8.051281 3.428456
-14.660978 7.525015 -0.863648
-14.889482 7.645582 3.864209
-15.156485 7.786033 -0.297424
-14.812780 7.612732 4.462558
-6.909774 3.561818 -2.082976
-16.128853 8.317593 0.316761
-8.331882 4.298563 -2.164479
-14.771651 7.624213 0.871184
-9.863867 5.091118 -2.157668
-14.705982 7.593574 1.448005
-12.451992 6.432457 -2.219805
-14.727077 7.610977 2.035462
-14.540595 7.517819 -2.009869
-18.491337 9.564533 3.297326
-14.559104 7.530610 -1.434061
-15.750279 8.150222 3.447155
-14.535295 7.524726 -0.857786
-14.755416 7.641945 3.836315
-15.036888 7.791055 -0.295609
-14.690070 7.614606 4.433570
-6.893870 3.584135 -2.081941
-16.028757 8.336933 0.315365
-8.320286 4.329419 -2.165379
-14.652825 7.627778 0.865742
-9.786825 5.094698 -2.144693
-14.598101 7.602529 1.439987
-12.432967 6.477706 -2.220431
-14.589518 7.604534 2.020106
-14.426256 7.522638 -1.997682
-18.489363 9.645463 3.302958
-14.453240 7.539913 -1.426216
-15.730436 8.209694 3.449064
-14.429270 7.533821 -0.853076
-14.612919 7.632958 3.806172
-14.920987 7.797186 -0.293864
-14.574376 7.619298 4.406653
-6.877894 3.606383 -2.080905
-16.911543 8.871225 0.333341
-8.301670 4.356627 -2.164479
-14.535922 7.631530 0.860403
-9.690761 5.087763 -2.127520
-14.476226 7.603407 1.430574
-12.405032 6.518312 -2.219492
-14.473272 7.608307 2.007676
-14.319092 7.530443 -1.986470
-18.481802 9.723746 3.307651
-14.317511 7.532806 -1.415409
-15.741643 8.285586 3.457841
-14.307456 7.533890 -0.847424
-14.415499 7.593999 3.761631
-14.794612 7.797013 -0.291909
-14.458831 7.623271 4.379736
-6.856727 3.625853 -2.078317
-8.296746 4.391048 -2.167179
-14.419177 7.634558 0.855065
-9.603540 5.084810 -2.112256
-14.340435 7.596071 1.419767
-12.375221 6.557875 -2.218241
-14.355427 7.610429 1.995001
-14.201524 7.532019 -1.973796
-14.194329 7.531377 -1.405822
-14.206983 7.544446 -0.843028
-14.320065 7.607702 3.743635
-14.682548 7.803557 -0.290234
-14.340021 7.624723 4.351784
-6.845733 3.650674 -2.078835
-15.933517 8.500562 0.315225
-8.260739 4.408969 -2.161780
-14.313156 7.642510 0.850355
-9.537241 5.092411 -2.101570
-14.218933 7.595394 1.410354
-12.333093 6.590789 -2.214799
-14.220235 7.602466 1.979890
-14.087623 7.534734 -1.961609
-18.505783 9.901926 3.324233
-14.083632 7.535757 -1.397455
-15.756113 8.434193 3.473869
-14.074918 7.537419 -0.836747
-14.195510 7.605186 3.717991
-14.602342 7.826426 -0.289186
-14.212868 7.620872 4.321243
-6.839753 3.678208 -2.080905
-15.833307 8.518228 0.313829
-8.250446 4.440549 -2.163129
-14.184396 7.637508 0.844284
-9.471006 5.099610 -2.090885
-14.108137 7.599623 1.401987
-12.318706 6.638485 -2.216364
-14.099253 7.601192 1.966728
-13.963396 7.531090 -1.947960
-18.498920 9.981471 3.329239
-13.976583 7.541351 -1.389437
-15.733484 8.492874 3.475395
-13.957138 7.537155 -0.831304
-14.081436 7.607449 3.695046
-29.397913 15.888762 -0.583294
-14.091016 7.618984 4.292255
-6.809890 3.692852 -2.075729
-15.901910 8.626844 0.315784
-8.234896 4.469321 -2.163129
-14.059356 7.633606 0.838422
-9.370330 5.087673 -2.072567
-13.986983 7.597471 1.392574
-12.283307 6.674842 -2.214174
-13.995898 7.608641 1.956003
-13.849828 7.532365 -1.935773
-18.486521 10.058256 3.333306
-13.864417 7.543435 -1.380896
-15.745127 8.570269 3.484554
-13.860583 7.547620 -0.827118
-13.955540 7.602490 3.668952
-29.377388 16.010422 -0.583992
-13.979529 7.621883 4.266374
-6.793568 3.714747 -2.074694
-15.752401 8.617041 0.313410
-8.212407 4.494298 -2.161330
-13.946362 7.632246 0.833189
-9.311184 5.097723 -2.063409
-13.883490 7.604136 1.384905
-12.266861 6.721479 -2.215425
-13.878736 7.607832 1.943329
-13.739904 7.534848 -1.924073
-18.499830 10.145152 3.341753
-13.752407 7.544831 -1.372354
-15.759867 8.649734 3.494476
-13.743114 7.545970 -0.821675
-13.857178 7.611752 3.650056
-29.394239 16.146263 -0.585389
-13.859366 7.616099 4.237386
-6.777175 3.736573 -2.073658
-15.615168 8.609371 0.311246
-8.204284 4.525270 -2.163129
-13.844442 7.639390 0.828688
-9.265833 5.115014 -2.057303
-13.762682 7.600537 1.375492
-12.218570 6.747791 -2.210732
-13.782191 7.614455 1.933335
-13.627974 7.532357 -1.911886
-18.500605 10.229744 3.348324
-13.642304 7.546496 -1.363987
-15.725940 8.699098 3.493331
-13.637630 7.547018 -0.816860
-13.736386 7.604805 3.624861
-29.386686 16.275894 -0.586366
-13.751586 7.619489 4.212539
-6.774879 3.764657 -2.076764
-15.473163 8.601639 0.309012
-8.173109 4.545358 -2.159080
-13.728679 7.638146 0.823349
-9.245389 5.143804 -2.056540
-13.667766 7.607376 1.368519
-12.189761 6.787520 -2.209794
-13.661882 7.610353 1.920174
-13.521834 7.535428 -1.900674
-18.501017 10.314456 3.354894
-13.533674 7.545125 -1.355620
-15.745204 8.781672 3.504398
-13.523995 7.545918 -0.811626
-13.636590 7.611863 3.605515
-29.396036 16.415421 -0.587692
-13.649010 7.625050 4.189245
-6.754957 3.784505 -2.074694
-15.352337 8.604759 0.307197
-8.153793 4.571954 -2.158180
-13.614840 7.637164 0.818116
-9.223954 5.174122 -2.055776
-13.561202 7.610188 1.360501
-12.159104 6.826162 -2.208542
-13.557349 7.614249 1.909205
-13.408915 7.533966 -1.888487
-18.499340 10.398334 3.361151
-13.439518 7.554247 -1.348822
-15.741832 8.851975 3.510504
-13.424462 7.551952 -0.807230
-13.514832 7.605896 3.580321
-29.394318 16.549328 -0.588809
-13.539834 7.626190 4.163881
-6.738340 3.806160 -2.073658
-15.214263 8.597304 0.305033
-8.144571 4.604222 -2.159980
-13.506389 7.638432 0.813196
-9.188748 5.196624 -2.051960
-13.479062 7.626087 1.354923
-12.135202 6.868564 -2.208542
-13.444319 7.612621 1.897018
-13.306537 7.537677 -1.877763
-18.500738 10.484271 3.368034
-13.333330 7.555928 -1.340804
-15.751830 8.930106 3.519663
-13.319840 7.554427 -0.802520
-13.427184 7.618405 3.564125
-29.398973 16.687368 -0.590066
-13.434175 7.628572 4.139552
-6.718298 3.825835 -2.071588
-15.097285 8.600863 0.303288
-8.123370 4.629730 -2.158630
-13.375538 7.626180 0.806916
-9.173962 5.230614 -2.052723
-13.369289 7.625709 1.346556
-12.111154 6.910879 -2.208542
-13.334910 7.612269 1.885319
-13.211192 7.544702 -1.868014
-18.498337 10.568382 3.374292
-13.213458 7.549050 -1.331391
-15.734196 8.992834 3.522716
-13.218835 7.558248 -0.798019
-13.386978 7.657485 3.560525
-29.385674 16.815714 -0.590973
-13.333696 7.633189 4.116776
-6.688148 3.839644 -2.066411
-14.997810 8.613675 0.301892
-8.105471 4.657087 -2.158180
-13.253198 7.614769 0.801054
-9.119904 5.242060 -2.044709
-13.200959 7.590886 1.332263
-12.059559 6.937353 -2.203536
-13.246318 7.623126 1.876544
-13.112523 7.549170 -1.857776
-13.224675 7.613739 2.416913
-13.116237 7.554361 -1.324244
-15.750339 9.075146 3.533401
-13.105853 7.554470 -0.792785
-13.365229 7.707091 3.561875
-29.399038 16.953026 -0.592370
-13.251415 7.644542 4.099176
-6.688081 3.870708 -2.070552
-13.504958 7.815957 0.272362
-8.076490 4.676129 -2.154581
-13.129750 7.604931 0.795193
-9.076070 5.259097 -2.038985
-13.122670 7.606944 1.327033
-12.017690 6.966409 -2.200095
-13.121367 7.609252 1.862407
-13.008431 7.546789 -1.846564
-13.116012 7.612261 2.401895
-13.020865 7.560083 -1.317272
-15.740531 9.139155 3.537981
-13.011647 7.557763 -0.788598
-13.346340 7.755284 3.563675
-29.391548 17.085697 -0.593417
-13.164533 7.655786 4.080541
-6.681883 3.896759 -2.072623
-13.415412 7.826774 0.271106
-8.048337 4.697414 -2.151432
-13.013438 7.598346 0.789750
-9.056885 5.288175 -2.038604
-13.004471 7.596153 1.317621
-11.995004 7.009313 -2.200408
-13.019323 7.610924 1.851683
-12.896331 7.542046 -1.834378
-13.019451 7.617103 2.389067
-12.923497 7.560964 -1.309951
-15.740729 9.212884 3.545232
-12.902456 7.554696 -0.783574
-13.317504 7.800842 3.563225
-29.393843 17.224575 -0.594673
-13.091063 7.674336 4.066048
-6.664910 3.918102 -2.071588
-13.305274 7.824894 0.269430
-8.035251 4.727458 -2.152332
-12.899051 7.592058 0.784411
-9.029910 5.314779 -2.036695
-12.912636 7.603087 1.310997
-11.967059 7.049136 -2.199782
-12.922556 7.615005 1.841690
-12.798102 7.544675 -1.824140
-12.914515 7.616340 2.374676
-12.826665 7.564530 -1.302804
-15.752435 9.293711 3.555153
-12.807206 7.559081 -0.779387
-13.278448 7.840343 3.560076
-29.392078 17.361654 -0.595860
-12.989350 7.675764 4.042754
-6.634574 3.931492 -2.066411
-13.205633 7.828462 0.267964
-8.008642 4.749514 -2.149632
-12.819221 7.605445 0.781167
-9.012992 5.347268 -2.037077
-12.807203 7.601337 1.302978
-11.920300 7.077755 -2.195714
-12.846402 7.630667 1.834621
-12.703426 7.548740 -1.814391
-12.809742 7.614942 2.360283
-12.712837 7.557335 -1.293914
-15.762086 9.373730 3.564694
-12.724099 7.570042 -0.775933
-13.259371 7.891628 3.562325
-29.382843 17.494839 -0.596907
-12.884473 7.674591 4.018425
-6.624126 3.956609 -2.067447
-13.099260 7.827331 0.266359
-7.980305 4.770441 -2.146483
-12.712033 7.601966 0.776247
-8.989218 5.375672 -2.035932
-12.701941 7.598945 1.294960
-11.885351 7.113235 -2.193837
-12.729422 7.621414 1.821703
-12.615692 7.556318 -1.805616
-12.708527 7.614936 2.346517
-12.623143 7.563774 -1.287465
-15.744422 9.437777 3.568128
-12.611953 7.563053 -0.770699
-13.223390 7.932853 3.560076
-29.400465 17.644634 -0.598513
-12.773134 7.668804 3.992025
-6.606965 3.977715 -2.066411
-13.006764 7.833804 0.265032
-7.946914 4.788209 -2.141984
-12.625549 7.610209 0.772583
-8.975442 5.410061 -2.037077
-12.603679 7.600026 1.287639
-11.851994 7.149576 -2.192273
-12.622857 7.617599 1.810247
-12.521262 7.559270 -1.795867
-12.610851 7.616355 2.333377
-12.542091 7.574828 -1.281887
-12.595992 7.610386 2.860609
-12.522231 7.568804 -0.766827
-12.626971 7.635118 3.406659
-12.519463 7.573098 -0.255399
-12.676870 7.671337 3.970284
-6.589736 3.998751 -2.065376
-12.490458 7.582376 0.255049
-7.931817 4.816932 -2.142434
-12.515266 7.603421 0.767455
-8.948112 5.436261 -2.035169
-12.519185 7.608789 1.281712
-11.821899 7.187825 -2.191334
-12.518174 7.614162 1.799035
-12.420184 7.557527 -1.785142
-12.518380 7.620275 2.321175
-12.433882 7.568838 -1.273520
-12.507308 7.616527 2.846489
-12.410454 7.560512 -0.761593
-12.508718 7.623372 3.381914
-12.436607 7.582401 -0.254247
-12.582396 7.674295 3.949061
-6.588923 4.029791 -2.069517
-12.402508 7.588359 0.253793
-7.911630 4.842558 -2.141534
-12.415411 7.602211 0.762954
-8.927409 5.466435 -2.034787
-12.427988 7.612895 1.275089
-11.779893 7.218729 -2.188205
-12.427210 7.618384 1.789773
-12.319270 7.555171 -1.774418
-12.410883 7.614342 2.306157
-12.339456 7.570519 -1.266547
-12.402005 7.611869 2.828553
-12.326118 7.568255 -0.758034
-12.423912 7.631291 3.366168
-12.333397 7.578653 -0.252676
-12.432097 7.642296 3.910238
-6.558371 4.042629 -2.064341
-12.318072 7.595921 0.252606
-7.894679 4.870143 -2.141534
-12.329309 7.608790 0.759290
-8.898249 5.491379 -2.032497
-12.323352 7.608089 1.267070
-11.761347 7.263954 -2.189457
-12.329613 7.617894 1.779536
-12.228656 7.558472 -1.765156
-12.317025 7.616059 2.293642
-12.238393 7.567438 -1.258878
-12.315251 7.617934 2.814815
-12.240179 7.574453 -0.754371
-12.322639 7.628452 3.345922
-12.242264 7.581650 -0.251350
-12.344582 7.648001 3.891086
-6.544219 4.065498 -2.064341
-12.223545 7.596651 0.251210
-7.875975 4.896642 -2.141084
-12.241251 7.610617 0.755417
-8.884027 5.525517 -2.033643
-12.242588 7.617374 1.261492
-11.709086 7.288263 -2.184451
-12.254078 7.630457 1.772468
-12.227117 7.613669 -1.768568
-12.244755 7.627618 2.284882
-12.174703 7.586930 -1.255043
-12.225274 7.621411 2.800313
-12.164521 7.586481 -0.751335
-12.247669 7.638337 3.332425
-12.144102 7.576691 -0.249849
-12.225739 7.630593 3.861580
-6.532339 4.088202 -2.064858
-12.120322 7.588328 0.249604
-7.854739 4.919630 -2.139734
-12.151625 7.610883 0.751440
-8.868981 5.557032 -2.034406
-12.136228 7.607138 1.253125
-11.679833 7.323904 -2.183513
-12.149672 7.621473 1.761012
-12.057182 7.563455 -1.747607
-12.132387 7.613582 2.268613
-12.053292 7.566879 -1.245107
-12.140082 7.624318 2.786575
-12.044589 7.567277 -0.745473
-12.162868 7.641588 3.316228
-12.074890 7.589254 -0.248941
-12.139858 7.633043 3.842428
-6.515478 4.107781 -2.063823
-12.044350 7.596476 0.248557
-7.825197 4.937332 -2.136135
-12.046929 7.601047 0.746520
-8.822282 5.568598 -2.027918
-12.057028 7.613299 1.247547
-11.638781 7.352046 -2.180384
-12.037068 7.606578 1.748338
-11.948129 7.550375 -1.735420
-12.053643 7.619992 2.258601
-11.959093 7.563146 -1.237960
-12.031777 7.612052 2.767494
-11.958673 7.568726 -0.741705
-12.061713 7.633940 3.295533
-11.995592 7.595024 -0.247824
-12.042669 7.627775 3.819652
-6.509974 4.134543 -2.066411
-11.953266 7.594553 0.247196
-7.813715 4.966390 -2.137485
-11.947491 7.593814 0.741915
-8.802110 5.596770 -2.027536
-11.954384 7.604051 1.239529
-11.602671 7.383179 -2.178194
-11.946468 7.604879 1.738832
-11.862740 7.551579 -1.726645
-11.941666 7.604746 2.242332
-11.878496 7.567436 -1.232208
-11.961766 7.623421 2.757190
-11.872883 7.569683 -0.737937
-11.978823 7.637226 3.279786
-11.889414 7.583146 -0.246149
-11.955422 7.628182 3.799982
-6.477782 4.149090 -2.061235
-11.878557 7.611265 0.246253
-7.784746 4.990044 -2.134786
-11.866120 7.606217 0.738670
-8.773945 5.626287 -2.026010
-11.844602 7.598258 1.231162
-11.574236 7.427675 -2.178194
-11.888782 7.632463 1.734688
-11.762179 7.554080 -1.716408
-11.867500 7.621721 2.233884
-11.797387 7.579604 -1.226804
-11.945620 7.677786 2.760243
-11.778212 7.573090 -0.733855
-11.961178 7.693687 3.283386
-11.829937 7.609270 -0.245520
-11.849689 7.624898 3.775652
-6.466507 4.173770 -2.062270
-11.844851 7.645192 0.246079
-7.768155 5.015832 -2.134786
-11.774065 7.605331 0.734588
-8.754252 5.656878 -2.026010
-11.764464 7.604946 1.225584
-11.524658 7.449928 -2.173501
-11.793396 7.626571 1.724451
-11.683730 7.558540 -1.708608
-11.801022 7.637341 2.226376
-11.688907 7.567682 -1.218263
-11.928333 7.722692 2.762151
-11.691008 7.571934 -0.729982
-11.966672 7.753444 3.291934
-11.816727 7.659219 -0.245800
-11.750058 7.618920 3.752359
-6.439673 4.186767 -2.058129
-11.848267 7.706118 0.246707
-7.729364 5.029102 -2.128937
-11.681818 7.600761 0.730401
-8.725574 5.679451 -2.023721
-11.679073 7.604778 1.219309
-11.488649 7.483644 -2.171623
-11.685210 7.614584 1.712508
-11.594083 7.558084 -1.699346
-11.716058 7.637599 2.215112
-11.615349 7.574841 -1.213208
-11.929257 7.782516 2.768639
-11.599276 7.570126 -0.725900
-11.970539 7.815410 3.300482
-11.821402 7.718040 -0.246428
-11.679440 7.628263 3.737865
-6.425019 4.209220 -2.058129
-11.852755 7.765091 0.247336
-7.711015 5.053638 -2.128487
-11.591745 7.599880 0.726423
-8.699128 5.705568 -2.022194
-11.585823 7.601780 1.212336
-11.448907 7.511945 -2.168808
-11.595173 7.610810 1.703002
-11.495943 7.548549 -1.688622
-11.610076 7.626392 2.200095
-11.522235 7.571575 -1.206236
-11.947681 7.851147 2.778942
-11.505681 7.563567 -0.721608
-11.959208 7.864700 3.304531
-11.827801 7.781239 -0.247126
-11.586580 7.625440 3.716642
-6.411026 4.230504 -2.058129
-11.857286 7.827350 0.247999
-7.688448 5.077302 -2.127137
-11.500154 7.597362 0.722341
-8.657228 5.719235 -2.016851
-11.517334 7.611598 1.207804
-11.404490 7.539881 -2.165366
-11.512241 7.614007 1.694715
-11.413237 7.551390 -1.680335
-11.509256 7.617813 2.186016
-11.443898 7.574553 -1.200657
-11.427590 7.569493 -0.718363
-11.830570 7.842363 -0.247754
-11.501932 7.627403 3.698007
-6.384958 4.245369 -2.054506
-11.853203 7.884193 0.248487
-7.659322 5.096552 -2.123988
-11.420362 7.602043 0.718991
-8.622501 5.739628 -2.013417
-11.411096 7.598745 1.199437
-11.346866 7.558836 -2.159422
-11.432733 7.618919 1.686916
-11.327344 7.551546 -1.671560
-11.423433 7.618481 2.174752
-11.344456 7.565809 -1.192988
-11.948108 7.971408 2.791917
-11.344615 7.571642 -0.714805
-11.976945 7.996691 3.324777
-11.838043 7.906937 -0.248487
-11.435078 7.640676 3.685066
-6.373311 4.269781 -2.055541
-11.722616 7.856500 0.246323
-7.612349 5.103723 -2.115890
-11.334043 7.601808 0.715223
-8.595894 5.765316 -2.011890
-11.328246 7.600791 1.193511
-11.263003 7.559866 -2.148471
-11.348388 7.620047 1.678385
-11.267960 7.568899 -1.666685
-11.337745 7.618647 2.163489
-11.253482 7.562025 -1.186190
-11.936504 8.024017 2.795733
-11.258451 7.571070 -0.711036
-11.978063 8.058029 3.332875
-11.679309 7.860013 -0.245730
-11.387506 7.666518 3.678336
-6.348761 4.285516 -2.052435
-11.826043 7.985779 0.249081
-7.552503 5.101901 -2.104192
-11.249519 7.602185 0.711560
-8.564329 5.787591 -2.009219
-11.248827 7.604580 1.187933
-11.184187 7.563723 -2.138459
-11.259240 7.617348 1.669123
-11.172424 7.561456 -1.656448
-11.255466 7.620523 2.152851
-11.179173 7.568868 -1.181135
-11.952309 8.095363 2.806037
-11.169123 7.567750 -0.707059
-11.975672 8.117286 3.340073
-11.835517 8.025302 -0.249604
-11.365472 7.709475 3.679889
-6.332164 4.306567 -2.051918
-11.851004 8.063004 0.250198
-7.502428 5.106303 -2.095194
-11.168432 7.604315 0.708106
-8.540828 5.815243 -2.008456
-11.169521 7.607906 1.182355
-11.108743 7.569346 -2.129073
-11.168612 7.612999 1.659617
-11.086918 7.560148 -1.647674
-11.183107 7.628594 2.144091
-11.095078 7.568545 -1.175034
-11.961276 8.162489 2.814815
-11.083256 7.566154 -0.703291
-11.960137 8.167831 3.343672
-11.842105 8.090256 -0.250337
-11.348061 7.755641 3.682995
-6.325061 4.334103 -2.054506
-11.862371 8.131458 0.251035
-7.439557 5.101604 -2.082597
-11.080883 7.601449 0.704233
-8.494575 5.827250 -2.002350
-11.090327 7.610773 1.176777
-11.039908 7.579012 -2.120939
-11.096149 7.620471 1.652792
-11.001560 7.558333 -1.638899
-11.075010 7.611644 2.128448
-11.011120 7.567733 -1.168933
-11.956977 8.220876 2.820539
-11.004119 7.568574 -0.699941
-11.968479 8.234938 3.354020
-11.826970 8.140614 -0.250617
-11.324103 7.797394 3.684030
-6.313074 4.358350 -2.055541
-11.865178 8.194408 0.251699
-7.384827 5.102065 -2.072249
-10.999743 7.599555 0.700674
-8.479028 5.860215 -2.003495
-11.004695 7.608649 1.170502
-10.972770 7.589410 -2.113117
-11.015614 7.621882 1.644749
-10.926141 7.562799 -1.631587
-11.007478 7.619098 2.120313
-10.928945 7.567560 -1.163006
-11.963716 8.287155 2.828934
-10.921815 7.568265 -0.696382
-11.982902 8.306642 3.366168
-11.834421 8.203713 -0.251350
-11.279135 7.821694 3.677819
-6.289892 4.374845 -2.052953
-11.859280 8.248553 0.252152
-7.331076 5.100926 -2.061901
-10.925613 7.604815 0.697638
-8.442409 5.878558 -1.999678
-10.935560 7.617410 1.165969
-10.890811 7.586239 -2.102167
-10.934903 7.619783 1.636462
-10.884719 7.587636 -1.629150
-10.932206 7.623577 2.110927
-10.848539 7.568043 -1.157254
-11.960321 8.343633 2.834659
-10.852437 7.573579 -0.693556
-11.990443 8.370873 3.376065
-11.836864 8.266725 -0.252013
-11.258095 7.865447 3.679889
-6.272185 4.393463 -2.051918
-11.854981 8.307110 0.252676
-7.281312 5.104112 -2.052903
-10.841766 7.602771 0.693975
-8.424475 5.907649 -2.000060
-10.871099 7.626167 1.161786
-10.806054 7.583356 -2.090903
-10.843250 7.612283 1.626712
-10.825675 7.602769 -1.624275
-10.845724 7.619673 2.099351
-10.767953 7.565035 -1.151327
-10.763846 7.567766 -0.689579
-13.019548 9.157080 3.674800
-11.830832 8.324103 -0.252501
-11.236890 7.909144 3.681960
-6.250499 4.410873 -2.049847
-15.651891 11.049378 0.334423
-7.223655 5.101395 -2.041656
-10.748281 7.593317 0.689683
-8.405406 5.938150 -2.000442
-10.798851 7.631873 1.156905
-10.742419 7.594802 -2.083707
-10.764750 7.613407 1.618912
-10.747215 7.603820 -1.616475
-10.767464 7.620967 2.089339
-10.700824 7.573801 -1.146970
-10.765759 7.622581 2.564091
-10.675431 7.561422 -0.685601
-13.008176 9.217117 3.680649
-27.990297 19.840250 -0.598862
-11.218671 7.955023 3.685066
-6.238213 4.434904 -2.050882
-15.649078 11.129444 0.335191
-7.178811 5.107374 -2.034008
-10.681027 7.601839 0.687066
-8.362232 5.951520 -1.995099
-10.739684 7.646410 1.153419
-10.682055 7.608188 -2.077137
-10.694457 7.619835 1.612332
-10.665647 7.602115 -1.608188
-10.684503 7.618367 2.078388
-10.621087 7.575947 -1.141392
-10.684743 7.621352 2.551116
-10.608327 7.569638 -0.682984
-13.012403 9.288510 3.690997
-27.976202 19.977337 -0.600049
-11.192406 7.995258 3.685583
-6.210922 4.449863 -2.047259
-15.649147 11.211953 0.336029
-7.134013 5.113101 -2.026359
-10.607356 7.605328 0.684031
-8.337173 5.979841 -1.994336
-10.656549 7.646227 1.147492
-10.602744 7.610429 -2.067125
-10.624250 7.625866 1.605751
-10.597121 7.609196 -1.601851
-10.604900 7.617587 2.068064
-10.534712 7.569957 -1.134942
-10.621665 7.635252 2.542721
-10.528623 7.571156 -0.679635
-13.006745 9.356624 3.699095
-27.964741 20.116911 -0.601305
-11.155020 8.027508 3.682477
-6.195352 4.471515 -2.047259
-15.643614 11.294987 0.336797
-7.085208 5.117537 -2.017811
-10.522751 7.603212 0.680368
-8.306702 6.002006 -1.992046
-10.579735 7.647201 1.142089
-10.510484 7.599938 -2.054298
-10.538329 7.622869 1.596976
-10.504833 7.601436 -1.592101
-10.533705 7.625130 2.059616
-10.459806 7.571636 -1.129713
-10.529756 7.625069 2.527074
-10.456841 7.575054 -0.676704
-12.999251 9.420264 3.706293
-27.987961 20.289694 -0.603400
-11.491473 8.333731 3.803605
-6.178143 4.491978 -2.046741
-15.652607 11.384813 0.337844
-7.026332 5.112425 -2.006114
-10.462235 7.615215 0.678169
-8.292049 6.035587 -1.993573
-10.503047 7.647728 1.136685
-10.445572 7.608665 -2.046789
-10.461919 7.623371 1.589420
-10.414068 7.591286 -1.582352
-10.455951 7.624607 2.049605
-10.383409 7.571708 -1.124309
-10.445974 7.620128 2.513336
-10.369029 7.566771 -0.672726
-13.019809 9.504648 3.721590
-27.984789 20.436798 -0.604865
-11.534070 8.426215 3.827416
-6.170217 4.519226 -2.049329
-15.653100 11.468925 0.338716
-6.977008 5.113880 -1.997115
-10.391820 7.616807 0.675239
-8.266179 6.061014 -1.992428
-10.437731 7.656060 1.132502
-10.372762 7.611190 -2.037716
-10.374435 7.615207 1.580158
-10.365107 7.611140 -1.578939
-10.389212 7.628840 2.041470
-10.308743 7.572522 -1.119080
-10.376596 7.625157 2.503033
-10.302322 7.573343 -0.670110
-13.005388 9.563895 3.726989
-27.984526 20.579245 -0.606331
-11.534074 8.485023 3.836734
-6.135751 4.526972 -2.043118
-15.656818 11.551638 0.339624
-6.934925 5.118474 -1.989917
-10.320177 7.619819 0.672308
-8.235497 6.082831 -1.990138
