# This PCD file was generated using the MATLAB® pcwrite function
# from Computer Vision Toolbox®.
# .PCD v.7 - Point Cloud Data file format
VERSION .7
FIELDS x y z
SIZE 4 4 4
TYPE F F F
COUNT 1 1 1
WIDTH 1655
HEIGHT 1
VIEWPOINT 0 0 0 1 0 0 0
POINTS 1655
DATA ascii
5.868130 -3.569282 -1.087845
6.958905 -4.236073 -1.000304
8.585035 -5.227995 -0.879401
11.483052 -6.998285 -0.704756
19.612377 -11.962050 -0.400986
3.977979 -2.433890 -1.249578
4.450647 -2.725224 -1.204838
5.065914 -3.103179 -1.154776
41.744400 -25.580999 4.283356
5.843846 -3.582516 -1.085655
6.947461 -4.262414 -1.000791
8.571829 -5.261058 -0.879924
11.455150 -7.036235 -0.704547
3.976036 -2.451817 -1.251649
4.429499 -2.733579 -1.201689
5.056721 -3.121875 -1.155158
41.654850 -25.726559 4.283356
5.843069 -3.610162 -1.087845
6.946046 -4.294991 -1.002741
8.561884 -5.296188 -0.880796
11.427122 -7.074077 -0.704337
19.572584 -12.126059 -0.401894
3.974017 -2.469760 -1.253720
4.419930 -2.749024 -1.201689
5.044126 -3.138470 -1.154776
5.822047 -3.625314 -1.086281
6.907425 -4.304513 -0.999329
41.547340 -25.901203 7.754457
8.541653 -5.324988 -0.880622
11.395582 -7.109693 -0.703919
19.638693 -12.262089 -0.404128
3.968646 -2.485667 -1.254755
4.413610 -2.766505 -1.202588
5.028150 -3.152930 -1.153631
41.582253 -26.084496 4.294512
5.821069 -3.652966 -1.088471
6.909167 -4.339156 -1.001766
8.526388 -5.356891 -0.880970
11.384221 -7.157932 -0.704756
3.953411 -2.495381 -1.252684
4.410516 -2.786058 -1.204388
5.017114 -3.170462 -1.153631
41.595364 -26.295492 4.305319
5.816630 -3.678542 -1.090035
6.887271 -4.359000 -1.000791
8.512687 -5.389819 -0.881493
11.372663 -7.206180 -0.705593
17.867216 -11.330134 -0.369293
3.938156 -2.505018 -1.250614
17.805532 -11.330272 0.368385
4.402408 -2.802483 -1.204838
5.004360 -3.186901 -1.153250
41.627663 -26.519747 4.318218
5.800422 -3.696700 -1.089410
6.892096 -4.395824 -1.003716
8.488783 -5.416286 -0.880970
11.354173 -7.250132 -0.706012
17.775618 -11.354873 -0.368176
3.934267 -2.521878 -1.252167
17.658432 -11.319111 0.366117
4.389809 -2.814962 -1.203938
5.006423 -3.212833 -1.156303
41.534836 -26.664894 4.318218
5.793118 -3.719116 -1.090348
6.880822 -4.420801 -1.004204
8.473176 -5.448040 -0.881319
11.319989 -7.281261 -0.705384
17.550915 -11.297791 -0.364336
3.927506 -2.535958 -1.252684
17.481075 -11.291710 0.363254
4.378320 -2.829211 -1.203488
4.995741 -3.229417 -1.156303
41.506416 -26.841433 4.324494
5.776784 -3.737169 -1.089723
6.858682 -4.440477 -1.003229
8.458406 -5.478274 -0.881667
11.311265 -7.331596 -0.706431
17.492916 -11.347013 -0.363952
3.921868 -2.551759 -1.253720
17.449932 -11.358116 0.363429
4.379848 -2.851921 -1.206638
4.979503 -3.243621 -1.155158
41.435844 -27.001381 4.326934
5.770323 -3.761626 -1.090974
6.839815 -4.462222 -1.002741
8.454249 -5.517566 -0.883236
11.309013 -7.386324 -0.707896
17.456551 -11.410196 -0.364022
3.906475 -2.561197 -1.251649
17.421885 -11.426635 0.363673
4.368237 -2.866123 -1.206188
4.973074 -3.264215 -1.156303
5.767064 -3.788253 -1.092851
6.820880 -4.483889 -1.002254
8.424951 -5.540474 -0.882190
11.286499 -7.427950 -0.708106
17.445004 -11.489759 -0.364616
3.902346 -2.578012 -1.253202
17.418594 -11.511637 0.364441
4.364709 -2.885652 -1.207987
4.960012 -3.280471 -1.155921
41.495571 -27.454903 4.353081
5.742274 -3.800728 -1.090661
6.639690 -4.398049 -0.977880
8.410541 -5.573151 -0.882713
11.253843 -7.462887 -0.707687
17.481436 -11.601450 -0.366221
3.896540 -2.593759 -1.254237
4.346500 -2.895468 -1.205738
6.407066 -4.269752 0.403510
4.955066 -3.302120 -1.157447
5.733902 -3.824038 -1.091600
6.611090 -4.412383 -0.975930
6.652846 -4.441931 -0.699861
11.224402 -7.499907 -0.707478
3.887462 -2.607345 -1.254237
6.228724 -4.179219 0.130928
4.333131 -2.908451 -1.204838
6.353986 -4.266483 0.401103
4.945139 -3.320491 -1.157829
5.725438 -3.847334 -1.092538
6.585764 -4.428787 -0.974467
6.622421 -4.455117 -0.698292
6.545926 -4.406976 -0.413559
6.494326 -4.375532 -0.136687
3.889541 -2.628470 -1.257861
6.174338 -4.174057 0.130090
4.335865 -2.932292 -1.208437
6.340709 -4.289755 0.401207
4.928640 -3.334431 -1.156684
41.370796 -27.999605 4.370512
5.713609 -3.868404 -1.092851
6.563691 -4.447295 -0.973492
6.600233 -4.473736 -0.697595
6.510668 -4.416344 -0.412303
6.409523 -4.351003 -0.135221
3.865971 -2.632246 -1.253202
6.146508 -4.186578 0.129811
4.320772 -2.944117 -1.207087
6.317444 -4.306238 0.400684
4.916971 -3.351615 -1.156684
41.272804 -28.143848 4.370512
5.709862 -3.895004 -1.094728
6.616985 -4.517187 -0.983729
6.574705 -4.490006 -0.696549
6.486968 -4.433409 -0.411779
6.376141 -4.360933 -0.134837
3.858352 -2.646818 -1.253720
6.126910 -4.204613 0.129706
4.316895 -2.963593 -1.208887
6.313899 -4.336178 0.401417
4.913333 -3.374316 -1.158592
5.691347 -3.911555 -1.093790
6.754920 -4.646001 -1.006641
6.591819 -4.535515 -0.700035
6.451712 -4.442433 -0.410523
6.349353 -4.375220 -0.134593
3.855447 -2.664663 -1.255790
6.120420 -4.231661 0.129881
4.303319 -2.976427 -1.207987
6.303652 -4.361601 0.401731
4.903139 -3.392563 -1.158974
5.685779 -3.937020 -1.095354
6.745189 -4.674074 -1.007616
6.590684 -4.568713 -0.701604
6.439448 -4.467205 -0.410733
6.337327 -4.399638 -0.134663
3.849293 -2.680313 -1.256825
6.300873 -4.389014 0.134034
4.289705 -2.989202 -1.207087
6.275281 -4.374441 0.400893
4.892878 -3.410780 -1.159356
5.668761 -3.954583 -1.094728
6.735343 -4.702136 -1.008591
8.302901 -5.798650 -0.886025
6.445097 -4.504529 -0.412093
6.326848 -4.425171 -0.134767
3.846239 -2.698171 -1.258896
6.280604 -4.407534 0.133930
4.279245 -3.004158 -1.207087
6.263242 -4.398615 0.401103
4.879335 -3.426710 -1.158974
5.648458 -3.969803 -1.093477
6.715641 -4.723334 -1.008103
8.289128 -5.832184 -0.886723
6.458729 -4.547697 -0.413977
6.316266 -4.450684 -0.134872
3.832064 -2.708235 -1.257343
6.268446 -4.431740 0.134000
4.279870 -3.026953 -1.210237
6.250252 -4.420514 0.401207
4.864139 -3.441454 -1.158211
6.381464 -4.516656 0.683998
5.657137 -4.005476 -1.097857
6.716140 -4.757052 -1.010541
8.280099 -5.869148 -0.887943
11.069262 -7.851985 -0.711246
6.307995 -4.476234 -0.135012
3.824636 -2.722048 -1.257861
6.252086 -4.451343 0.133965
4.276158 -3.045652 -1.212036
6.253453 -4.453961 0.402359
4.860694 -3.463261 -1.160119
6.325890 -4.508882 0.679640
5.638999 -4.020773 -1.096919
6.703560 -4.781603 -1.011028
8.268699 -5.902361 -0.888814
11.052914 -7.895615 -0.711874
6.289863 -4.494802 -0.134942
3.817159 -2.735842 -1.258378
6.234041 -4.469721 0.133895
4.253366 -3.050729 -1.208437
6.247604 -4.482749 0.402987
4.847588 -3.478216 -1.159737
6.294717 -4.518217 0.677897
5.617611 -4.033690 -1.095354
6.699724 -4.814240 -1.012978
8.248045 -5.931188 -0.888814
43.942963 -31.599485 10.520827
6.341025 -4.561525 -0.409372
6.282249 -4.522573 -0.135117
3.814936 -2.755470 -1.260966
6.223263 -4.494967 0.134000
4.255328 -3.074688 -1.212036
6.240012 -4.510380 0.403510
4.837989 -3.498261 -1.160500
6.271657 -4.536588 0.677200
5.605989 -4.056569 -1.095980
6.663583 -4.823629 -1.010053
8.236972 -5.966956 -0.889860
6.304859 -4.570668 -0.408116
6.272900 -4.549170 -0.135256
3.800608 -2.765360 -1.259413
6.214830 -4.523630 0.134174
4.234578 -3.083381 -1.209337
6.241197 -4.546155 0.404662
4.820988 -3.511659 -1.159356
6.267056 -4.566665 0.678420
5.602970 -4.084258 -1.098170
6.655481 -4.855040 -1.011516
8.221483 -6.001805 -0.890557
6.282414 -4.587937 -0.407697
6.251340 -4.568591 -0.135151
3.785773 -2.775844 -1.257861
6.208678 -4.552391 0.134384
4.233217 -3.105059 -1.212036
6.252665 -4.588000 0.406441
4.804919 -3.526982 -1.158592
6.239034 -4.581350 0.677200
5.599107 -4.112953 -1.100360
6.657689 -4.892347 -1.014441
6.274356 -4.614033 -0.681384
6.252687 -4.601461 -0.406860
6.249848 -4.601054 -0.135466
3.774993 -2.787235 -1.257343
6.199183 -4.578788 0.134523
4.223919 -3.120975 -1.212486
6.263118 -4.627700 0.408116
4.799512 -3.547564 -1.160119
6.278275 -4.642289 0.683127
5.583848 -4.130322 -1.100047
6.640571 -4.915557 -1.014441
6.230200 -4.613472 -0.678246
6.242207 -4.625739 -0.407174
6.247408 -4.631280 -0.135745
3.771442 -2.805007 -1.259413
6.212848 -4.620801 0.135151
4.211984 -3.133802 -1.212036
6.264550 -4.662651 0.409267
4.794972 -3.570158 -1.162027
5.566952 -4.146456 -1.099422
6.640150 -4.949415 -1.016878
6.212461 -4.634000 -0.678072
6.220431 -4.641635 -0.406755
6.240817 -4.660239 -0.135954
3.759027 -2.815182 -1.258378
6.227087 -4.665241 0.135815
4.197900 -3.146147 -1.211136
6.270608 -4.701264 0.410733
4.790961 -3.591928 -1.163935
5.560345 -4.171791 -1.100986
6.603784 -4.958261 -1.013953
6.207398 -4.664035 -0.679292
6.228139 -4.681320 -0.408325
40.588470 -30.519018 11.723999
6.251678 -4.702430 -0.136548
3.757935 -2.835922 -1.261484
6.274612 -4.735131 0.137211
4.193113 -3.165478 -1.212936
6.305161 -4.761640 0.414082
4.766799 -3.601180 -1.161264
5.540290 -4.188569 -1.100047
6.190616 -4.681926 -0.953018
6.197434 -4.690484 -0.679989
6.238006 -4.724616 -0.410105
40.522938 -30.702877 11.737495
6.365924 -4.823248 -0.139410
3.740324 -2.843178 -1.258896
9.673135 -7.355623 0.212117
4.178382 -3.178466 -1.212036
4.754200 -3.617797 -1.161264
5.535065 -4.215063 -1.101924
6.250780 -4.763542 -0.964962
6.188946 -4.718128 -0.680861
10.853443 -8.280088 -0.715433
40.542545 -30.941090 11.774388
6.482579 -4.947348 -0.142342
3.731910 -2.857391 -1.259413
9.634401 -7.376719 0.211802
4.181741 -3.202969 -1.216085
40.818798 -31.276112 2.694988
4.750891 -3.641536 -1.163553
5.514787 -4.228587 -1.100673
6.182978 -4.744366 -0.956918
8.111400 -6.228596 -0.894741
10.851267 -8.335500 -0.717107
40.498436 -31.120485 11.791485
3.730064 -2.875648 -1.262002
9.597507 -7.401755 0.211558
4.161278 -3.210404 -1.213386
4.737235 -3.656071 -1.163172
5.506246 -4.252641 -1.101924
6.134966 -4.741641 -0.952043
8.067057 -6.237179 -0.892126
9.564712 -7.400452 -0.633788
10.667801 -8.256916 -0.235468
3.713900 -2.883912 -1.259931
9.579227 -7.438447 0.211698
4.152148 -3.225382 -1.213836
4.725994 -3.673790 -1.163553
5.513945 -4.287854 -1.106305
6.152108 -4.787561 -0.957162
8.057812 -6.275095 -0.893521
40.537891 -31.569254 9.987325
9.530665 -7.424765 -0.633160
3.711925 -2.902161 -1.262519
9.559505 -7.476768 0.211837
4.139329 -3.238655 -1.213386
4.712239 -3.688231 -1.163172
5.488059 -4.298549 -1.104115
6.068177 -4.756349 -0.946681
8.054205 -6.315303 -0.895438
9.474359 -7.439532 -0.210267
3.692666 -2.907929 -1.259413
40.767670 -32.115570 0.905885
4.126469 -3.251878 -1.212936
4.699336 -3.704658 -1.163172
5.474571 -4.318903 -1.104427
8.032111 -6.343379 -0.895438
40.371246 -31.917620 11.881464
9.426373 -7.455193 -0.209778
3.685520 -2.923203 -1.260449
40.733643 -32.319828 0.907630
3.893769 -3.090591 -1.147700
4.688801 -3.724299 -1.163935
5.467195 -4.344131 -1.105992
6.013071 -4.781299 -0.943269
8.016603 -6.378979 -0.896310
40.305321 -32.094769 11.894961
9.434703 -7.515462 -0.210546
3.673272 -2.935485 -1.259931
40.655518 -32.501369 0.908537
3.855021 -3.082934 -1.139602
4.678185 -3.743912 -1.164698
5.440441 -4.355498 -1.103802
5.995506 -4.803307 -0.943269
8.000942 -6.414549 -0.897181
40.275578 -32.313011 11.921057
9.347833 -7.502429 -0.209219
3.660984 -2.947717 -1.259413
3.846730 -3.099488 -1.140502
4.665088 -3.760220 -1.164698
5.435204 -4.384090 -1.105992
6.371104 -5.140832 -1.005178
7.519665 -6.071940 -0.845585
8.107598 -6.551357 -0.546283
40.204979 -32.487694 11.933654
9.349579 -7.557640 -0.209848
3.663194 -2.969573 -1.263555
3.842484 -3.117138 -1.142301
4.644970 -3.769483 -1.162790
5.429836 -4.409562 -1.107869
6.449548 -5.239536 -1.020290
7.963278 -6.473889 -0.897878
10.629789 -8.647840 -0.718154
40.224007 -32.724144 11.971445
8.688566 -7.071084 -0.195537
3.639857 -2.970711 -1.258896
3.829108 -3.127398 -1.141402
4.653730 -3.802257 -1.168133
5.458004 -4.462554 -1.116629
3.624987 -2.979718 -1.257343
3.763988 -3.096178 -1.125205
3.764614 -3.097795 0.255504
3.758126 -3.092456 -0.946031
3.768046 -3.102824 -0.773099
3.712765 -3.060567 -0.420962
3.733093 -3.079514 -0.253620
3.650900 -3.012782 1.092812
3.796714 -3.134224 -0.085936
3.642051 -3.007617 1.265625
3.622005 -2.998513 -1.259931
3.707079 -3.070033 0.084016
3.723144 -3.084433 -1.116207
3.701492 -3.067585 0.251945
3.714053 -3.077994 -0.937635
3.710339 -3.076010 0.421659
3.696371 -3.065518 -0.760584
3.671235 -3.045754 0.585704
3.727223 -3.093301 -0.594722
3.658289 -3.037170 0.753076
3.689260 -3.063971 -0.419568
3.677601 -3.054287 0.929240
3.694669 -3.069552 -0.251736
3.649354 -3.032981 1.095512
3.696565 -3.073309 -0.083911
3.625589 -3.015371 1.263555
3.609507 -3.010531 -1.259413
3.665627 -3.057338 0.083318
3.715347 -3.099907 -1.117107
3.663161 -3.057450 0.250061
3.711788 -3.099136 -0.939925
3.674573 -3.069153 0.418870
3.682079 -3.076512 -0.759959
3.642301 -3.043277 0.582779
3.670709 -3.068101 -0.587410
3.647665 -3.049921 0.753076
3.675487 -3.074274 -0.419219
3.642290 -3.047588 0.923134
3.663483 -3.066408 -0.250375
3.605342 -3.018813 1.085614
3.673549 -3.075924 -0.083632
3.607636 -3.021806 1.260966
3.596018 -3.020627 -1.258378
3.651335 -3.068180 0.083248
3.686060 -3.098457 -1.111708
3.639701 -3.060573 0.249224
3.685921 -3.099439 -0.936109
3.648591 -3.069135 0.417127
3.674340 -3.091890 -0.760584
3.622011 -3.048936 0.581317
3.674624 -3.094321 -0.589848
3.624376 -3.053089 0.750573
3.664733 -3.087085 -0.419219
3.625625 -3.055223 0.921608
3.657339 -3.083039 -0.250689
3.599252 -3.035148 1.086964
3.653080 -3.081631 -0.083423
3.590631 -3.030024 1.258896
3.578077 -3.026922 -1.255790
3.643655 -3.083490 0.083318
3.687120 -3.121378 -1.115307
3.635092 -3.078422 0.249643
3.690062 -3.124974 -0.939925
3.628734 -3.074125 0.416081
3.672567 -3.112360 -0.762462
3.623460 -3.071830 0.583267
3.660773 -3.104561 -0.589360
3.613697 -3.065722 0.750573
3.653935 -3.099858 -0.419219
3.620925 -3.072942 0.923134
3.669393 -3.115176 -0.252259
3.593091 -3.051478 1.088313
3.639253 -3.091774 -0.083353
3.584449 -3.046293 1.260449
3.574842 -3.045658 -1.258378
3.623738 -3.088408 0.083108
3.691031 -3.146873 -1.119806
3.630943 -3.095643 0.250061
3.691082 -3.148028 -0.942978
3.624044 -3.091945 0.416779
3.682716 -3.143114 -0.766842
3.618754 -3.089615 0.584242
3.692729 -3.152774 -0.596185
3.618531 -3.090517 0.753701
3.658240 -3.125536 -0.420962
3.631071 -3.103420 0.928477
3.652425 -3.122774 -0.251841
3.582952 -3.063376 1.088313
3.635059 -3.109025 -0.083492
3.581666 -3.064442 1.263037
3.572055 -3.063784 -1.260966
3.652935 -3.134263 0.084016
3.719023 -3.192095 -1.131504
3.641876 -3.125878 0.251527
3.680622 -3.160250 -0.942978
3.628885 -3.116928 0.418522
3.738197 -3.211952 -0.780608
3.608488 -3.101599 0.584242
3.721395 -3.198645 -0.602522
3.629232 -3.120530 0.758081
3.650876 -3.140249 -0.421311
3.626712 -3.120566 0.930003
3.663241 -3.153110 -0.253306
3.617083 -3.113379 1.101810
3.730804 -3.212397 -0.085936
3.596368 -3.097735 1.271837
3.557488 -3.071826 -1.259413
3.732010 -3.224796 -1.138702
3.643580 -3.148384 0.252364
4.562774 -3.944043 -1.172330
5.311162 -4.594188 -1.112249
6.301699 -5.452929 -1.023215
7.826123 -6.776810 -0.905722
10.466228 -9.069329 -0.725795
7.875434 -6.826728 -0.181924
3.550199 -3.086140 -1.260449
3.712474 -3.229480 -1.136003
4.531898 -3.943686 -1.167751
5.289940 -4.606586 -1.110998
6.283582 -5.473797 -1.023215
7.808113 -6.806653 -0.906245
9.090570 -7.930210 -0.632218
9.498034 -8.288584 -0.220040
3.537410 -3.097859 -1.259931
3.709405 -3.250771 -1.138702
4.526270 -3.968035 -1.170041
5.281930 -4.633759 -1.112875
6.259534 -5.495265 -1.022728
7.772939 -6.828693 -0.905200
8.411840 -7.392584 -0.586895
3.527481 -3.112082 -1.260449
3.703880 -3.268858 -1.140502
4.514639 -3.987197 -1.170804
5.261950 -4.650471 -1.112249
6.258160 -5.532859 -1.025653
7.759501 -6.865026 -0.906420
7.828401 -6.930857 -0.547957
7.275369 -6.443496 -0.169637
3.520928 -3.128225 -1.262002
3.721001 -3.308308 -1.149500
4.494826 -3.997713 -1.169278
5.238308 -4.662243 -1.110685
6.246733 -5.563681 -1.027115
7.741440 -6.897372 -0.907117
9.426114 -8.404265 -0.661841
8.986946 -8.015522 -0.210197
3.511427 -3.141784 -1.262519
8.975834 -8.030961 0.210232
3.930723 -3.518177 -1.217885
4.495468 -4.026477 -1.173094
40.021919 -35.859207 4.701355
5.230174 -4.686180 -1.112249
6.216425 -5.573763 -1.025165
7.726214 -6.932334 -0.908163
8.989446 -8.068601 -0.633056
3.508167 -3.159876 -1.265108
3.935789 -3.547533 -1.223284
4.470427 -4.030846 -1.170041
5.218184 -4.708378 -1.113188
6.199878 -5.598089 -1.025653
7.710838 -6.967277 -0.909209
39.798153 -35.960392 10.426186
7.227655 -6.532980 -0.510590
10.434555 -9.438272 -0.245590
3.492270 -3.168818 -1.263555
3.921938 -3.559941 -1.222834
4.461436 -4.052483 -1.171567
5.209662 -4.735445 -1.115065
6.192049 -5.630381 -1.027602
7.686471 -6.994150 -0.909209
8.916711 -8.119274 -0.632009
3.475482 -3.175777 -1.261484
3.917493 -3.582181 -1.225533
4.445815 -4.066707 -1.171186
5.187273 -4.748265 -1.113814
6.165516 -5.647676 -1.026627
7.143473 -6.545787 -0.847677
10.286776 -9.432701 -0.731447
3.470062 -3.193122 -1.263555
3.898424 -3.588553 -1.223284
7.309432 -6.730791 0.520743
4.441700 -4.091512 -1.173857
5.172951 -4.766779 -1.114126
6.152590 -5.673472 -1.027602
7.586207 -7.000350 -0.903108
39.635826 -36.574886 10.483428
9.793151 -9.040025 -0.698476
9.804875 -9.057188 -0.232990
3.466540 -3.211175 -1.266143
3.884444 -3.600815 -1.222834
4.428108 -4.106219 -1.173857
5.169312 -4.796901 -1.116942
6.132750 -5.694913 -1.027602
7.633019 -7.090557 -0.911475
39.599960 -36.798553 10.507853
9.774701 -9.086392 -0.699418
3.453897 -3.221939 -1.265625
3.878974 -3.621001 -1.225083
4.408008 -4.116291 -1.172330
5.152537 -4.814916 -1.116942
6.109933 -5.713574 -1.027115
7.618407 -7.126686 -0.912695
39.571613 -37.030460 10.534565
6.570131 -6.150371 -0.471652
8.753401 -8.199888 -0.209359
3.439814 -3.231330 -1.264590
3.871990 -3.639858 -1.226883
4.393612 -4.131652 -1.172330
5.142891 -4.839641 -1.118507
6.095733 -5.740312 -1.028090
21.057486 -19.836636 4.581966
7.609437 -7.168264 -0.914612
39.504978 -37.227608 10.551356
10.074357 -9.496913 -0.725586
8.747998 -8.252349 -0.209918
3.427109 -3.241990 -1.264072
3.864922 -3.658710 -1.228683
7.159635 -6.780005 0.516765
4.390567 -4.157763 -1.175383
5.125966 -4.857563 -1.118507
6.092943 -5.777946 -1.031015
6.563869 -6.226702 -0.791548
9.534163 -9.050746 -0.688951
3.425563 -3.263260 -1.267696
3.836612 -3.657388 -1.223734
7.209394 -6.872615 0.521999
4.384552 -4.181193 -1.177673
5.106121 -4.872700 -1.117881
7.511060 -7.170204 1.274997
6.081351 -5.807405 -1.032477
20.750546 -19.815798 4.544422
7.556327 -7.218460 -0.914264
8.699808 -8.316623 -0.630753
9.464824 -9.051104 -0.228592
3.419728 -3.280547 -1.269766
3.823056 -3.668742 -1.223284
6.900078 -6.623876 0.501274
4.372762 -4.199192 -1.178436
20.645718 -19.833145 2.504682
5.092783 -4.892342 -1.118507
6.047749 -5.813782 -1.030040
20.567341 -19.778570 4.519392
7.556930 -7.269656 -0.917401
11.083868 -10.673698 -0.268593
3.414389 -3.297237 -1.271837
3.813030 -3.684772 -1.224184
6.865427 -6.636816 0.500436
4.358813 -4.213670 -1.178436
5.075675 -4.910089 -1.118507
6.038828 -5.845903 -1.031990
20.427221 -19.781532 4.503749
7.535643 -7.297447 -0.917750
39.368664 -38.137573 10.654393
7.653342 -7.416604 -0.558529
11.058027 -10.723461 -0.268872
3.391779 -3.298361 -1.267696
7.136698 -6.942558 0.173791
3.815506 -3.713010 -1.229133
6.533094 -6.359816 0.477827
4.335638 -4.220643 -1.176147
5.066994 -4.936047 -1.120384
6.029757 -5.878033 -1.033940
7.007581 -6.833638 1.550266
7.501566 -7.315361 -0.916704
39.305573 -38.343307 10.673474
7.631694 -7.447458 -0.558843
11.046279 -10.787144 -0.269500
3.385766 -3.315587 -1.269766
7.115277 -6.970227 0.173861
3.803914 -3.727670 -1.229582
6.168553 -6.047025 0.452706
4.319476 -4.234376 -1.175765
5.049733 -4.953704 -1.120384
6.020535 -5.910170 -1.035890
20.091305 -19.729889 4.459947
7.473142 -7.338710 -0.916355
7.541866 -7.408784 2.055013
7.718190 -7.584644 -0.567112
3.378299 -3.331455 -1.271319
39.577229 -39.042076 0.970389
3.786718 -3.736819 -1.228233
6.846721 -6.758858 0.504205
4.306067 -4.250808 -1.176147
7.069852 -6.981563 0.869291
5.029600 -4.968524 -1.119758
6.465443 -6.389162 1.116079
5.999868 -5.931149 -1.035890
7.444646 -7.361949 -0.916007
7.674631 -7.594681 -0.565856
3.365279 -3.341866 -1.270802
3.770886 -3.747267 -1.227333
6.896742 -6.855937 0.509648
4.302341 -4.276886 -1.179200
5.017828 -4.991623 -1.121009
5.970686 -5.943654 -1.034427
7.283372 -7.252926 -0.899273
7.499527 -7.473393 -0.554866
3.363155 -3.363155 -1.274425
39.515770 -39.529560 0.975624
3.763293 -3.765921 -1.229133
6.200877 -6.207374 0.459824
4.276286 -4.280766 -1.176147
6.685872 -6.695212 0.827805
5.011538 -5.020292 -1.123512
6.392637 -6.406039 1.111205
5.972334 -5.986945 -1.038327
7.170784 -7.190836 -0.888466
7.526967 -7.553287 -0.558843
3.348672 -3.372132 -1.273390
3.759733 -3.788717 -1.232282
6.166512 -6.216220 0.458882
4.275144 -4.309605 -1.179963
6.480081 -6.534596 0.805145
4.993983 -5.037755 -1.123512
7.194637 -7.260231 1.255011
5.954193 -6.010576 -1.038814
7.016662 -7.085579 -0.872429
7.250491 -7.326818 -0.540212
10.867585 -10.989660 -0.269779
3.334168 -3.381050 -1.272354
3.741014 -3.796266 -1.230482
6.120948 -6.213519 0.457102
4.262829 -4.327299 -1.180726
6.717254 -6.821224 0.837567
4.973597 -5.052342 -1.122887
6.353329 -6.456172 1.112180
5.924824 -6.022832 -1.037352
6.880128 -6.996382 -0.858484
7.210871 -7.337836 -0.539165
11.145807 -11.349978 -0.277668
3.325049 -3.395428 -1.273390
3.726377 -3.807909 -1.230032
6.096428 -6.231991 0.456893
4.253190 -4.347766 -1.182253
6.824346 -6.978531 0.853952
4.954549 -5.068259 -1.122574
5.917635 -6.057677 -1.039789
6.772142 -6.934828 -0.848025
7.028983 -7.202867 -0.527442
11.184304 -11.468988 -0.279622
3.317216 -3.411169 -1.274943
3.708987 -3.816700 -1.228683
6.069070 -6.247504 0.456474
4.232515 -4.356953 -1.180726
6.985939 -7.193841 0.877310
4.946459 -5.095445 -1.124764
6.863845 -7.073051 1.210163
5.890925 -6.072598 -1.038814
5.887167 -6.070843 1.339392
6.678544 -6.886909 -0.839310
39.039539 -40.271610 10.902445
7.096923 -7.323456 -0.534455
9.380271 -9.686451 -0.235363
3.305289 -3.422727 -1.274943
3.702408 -3.836635 -1.230932
6.054159 -6.275837 0.456998
4.209103 -4.363223 -1.178436
5.738188 -5.950375 0.723218
4.934126 -5.118369 -1.126015
5.872447 -6.095984 -1.039302
5.849498 -6.074282 1.335638
6.593654 -6.847034 -0.831640
38.966805 -40.478355 10.921526
6.978526 -7.251762 -0.527442
9.357491 -9.730666 -0.235642
3.283962 -3.424484 -1.271319
11.368111 -11.858699 0.286743
3.690342 -3.850942 -1.231382
6.030834 -6.295490 0.456893
4.199280 -4.383560 -1.179963
6.436706 -6.721521 0.814209
4.913498 -5.132707 -1.125390
6.844494 -7.152349 1.215525
5.859365 -6.125051 -1.040764
5.910174 -6.180323 1.354410
6.492600 -6.789371 -0.821879
38.909386 -40.702114 10.945187
6.922814 -7.244311 -0.525139
11.290082 -11.822655 -0.285347
3.279982 -3.444320 -1.274425
7.060714 -7.417071 0.178748
3.686281 -3.873682 -1.234531
5.995055 -6.302032 0.455846
4.192071 -4.406726 -1.182253
6.281398 -6.605345 0.797475
4.903718 -5.158417 -1.127267
5.826715 -6.131497 1.038571
5.848887 -6.156981 -1.042714
5.885844 -6.198051 1.353784
6.392031 -6.731088 -0.812117
38.886013 -40.962982 10.978768
6.816370 -7.182954 -0.518963
9.292081 -9.798658 -0.235712
3.269266 -3.457152 -1.274943
7.023791 -7.430048 0.178468
3.668721 -3.882277 -1.233182
6.048456 -6.402774 0.461603
4.183404 -4.428468 -1.184161
6.107830 -6.467887 0.778301
4.880258 -5.169757 -1.126015
7.105026 -7.529132 1.271097
5.840981 -6.191800 -1.045152
5.823515 -6.175444 1.344398
6.308352 -6.689579 -0.804447
6.737834 -7.150016 -0.514881
11.182593 -11.874981 -0.284719
3.262468 -3.474176 -1.277013
10.977791 -11.694249 0.279971
3.648479 -3.887954 -1.230932
6.095525 -6.495616 0.466837
4.166577 -4.441612 -1.183779
6.006169 -6.404875 0.768191
4.856778 -5.180996 -1.124764
5.811189 -6.203458 -1.043689
6.067699 -6.477283 1.405720
6.219594 -6.641753 -0.796081
6.684177 -7.142868 -0.512683
3.254274 -3.489781 -1.278566
10.955317 -11.748138 0.280390
3.642210 -3.907159 -1.233182
6.119110 -6.566535 0.470396
4.153724 -4.459002 -1.184542
6.065242 -6.513286 0.778649
4.850340 -5.208639 -1.127267
6.683011 -7.179203 1.204313
5.798700 -6.231414 -1.045152
16.746664 -18.002644 3.894280
6.169236 -6.634243 -0.792594
6.637858 -7.138187 1.894733
6.712127 -7.220582 -0.516661
11.006237 -11.848268 -0.282275
3.234806 -3.492050 -1.275460
11.215868 -12.112037 0.288139
3.631197 -3.922709 -1.234081
6.063594 -6.552672 0.467883
4.134914 -4.468429 -1.183397
6.035492 -6.524589 0.777604
4.840176 -5.234240 -1.129144
6.593230 -7.132516 1.192613
5.784997 -6.260365 -1.046614
7.175058 -7.767372 1.674788
5.913318 -6.401473 -0.762438
6.728878 -7.289461 -0.519905
6.516597 -7.061969 2.218467
11.059720 -11.989501 -0.284719
3.221289 -3.501899 -1.274943
11.622900 -12.639807 0.299728
3.624076 -3.942534 -1.236331
6.050144 -6.584093 0.468616
4.127262 -4.491509 -1.185687
5.907550 -6.431168 0.764007
4.811187 -5.239462 -1.126641
6.925368 -7.544484 1.257448
5.768477 -6.286371 -1.047589
7.126538 -7.769079 1.669782
5.870736 -6.400052 -0.759824
6.656157 -7.261375 -0.516242
16.817781 -18.359819 -0.434600
3.215560 -3.520254 -1.277531
3.606351 -3.950843 -1.234981
6.600623 -7.233674 0.513206
4.120821 -4.516040 -1.188358
5.941459 -6.513573 0.771328
4.803516 -5.267902 -1.129144
6.909688 -7.580348 1.259398
5.751845 -6.312337 -1.048564
6.966353 -7.647873 1.638495
5.859093 -6.432289 -0.761218
6.615980 -7.268318 -0.515091
11.040336 -12.137425 -0.286394
6.621776 -7.282341 2.637366
3.205848 -3.534318 -1.278566
6.518727 -7.189155 0.169393
3.592538 -3.963407 -1.234981
4.097123 -4.521668 -1.186069
5.891935 -6.504739 0.767842
4.787750 -5.287566 -1.129770
6.600772 -7.292416 1.207725
5.719121 -6.320601 -1.046614
7.040323 -7.783483 1.662273
5.743048 -6.349270 -0.749016
5.652707 -6.251586 1.638286
6.605301 -7.307667 -0.516242
6.358674 -7.037283 2.189673
10.850457 -12.012653 -0.282554
6.635155 -7.348427 2.652895
3.196078 -3.548358 -1.279601
6.490917 -7.208894 0.169323
3.586504 -3.984614 -1.237681
6.595383 -7.330058 0.516765
4.081315 -4.535942 -1.186069
5.797244 -6.445275 0.758429
4.770586 -5.305716 -1.130083
6.593854 -7.336081 1.211138
5.720905 -6.367105 -1.051001
5.616560 -6.253169 1.331257
5.722181 -6.370760 -0.749191
5.565269 -6.198238 1.619205
6.614438 -7.369324 -0.518963
17.025160 -18.981516 -0.445071
3.181096 -3.556613 -1.278566
6.481708 -7.249396 0.169742
3.571274 -3.995656 -1.237231
5.374771 -6.015578 0.422770
4.066765 -4.551625 -1.186450
5.774710 -6.465472 0.758429
4.762561 -5.334124 -1.132586
6.584069 -7.376826 1.214063
5.698645 -6.387035 -1.051001
6.425685 -7.204433 1.528991
5.727757 -6.421921 -0.752851
5.546212 -6.220558 1.619969
6.993989 -7.847122 -0.550888
6.288648 -7.058224 2.182475
6.807216 -7.645624 2.742964
3.167379 -3.566251 -1.278049
6.435121 -7.248051 0.169184
3.561185 -4.012470 -1.238580
6.467170 -7.289271 0.510694
4.058670 -4.574604 -1.188740
5.818207 -6.560120 0.767145
4.736049 -5.341847 -1.130708
6.584611 -7.429475 1.218937
5.676315 -6.406888 -1.051001
5.478470 -6.185754 1.308731
5.692096 -6.426960 -0.751108
5.519258 -6.234001 1.618442
6.985086 -7.892427 -0.552354
6.262681 -7.078673 2.182025
6.719067 -7.599868 2.718118
3.158745 -3.581632 -1.279601
11.159922 -12.658445 0.294562
3.540715 -4.017567 -1.236331
5.314160 -6.031974 0.421304
4.036187 -4.581378 -1.186832
5.674127 -6.442830 0.751108
4.716068 -5.356863 -1.130396
6.608473 -7.509040 1.228199
5.627692 -6.396855 -1.046127
5.441190 -6.187039 1.304976
5.653838 -6.428837 -0.749016
5.523389 -6.282718 1.626074
7.022098 -7.990272 -0.557483
6.271374 -7.138556 2.193723
16.825457 -19.158758 -0.445071
3.146224 -3.592636 -1.279601
11.020831 -12.588995 0.292049
3.527953 -4.031367 -1.236781
5.314113 -6.074539 0.422979
4.027926 -4.604305 -1.189122
5.551922 -6.348614 0.737861
4.711642 -5.389652 -1.133837
6.529972 -7.472272 1.218450
5.553089 -6.356661 -1.036377
5.448145 -6.238729 1.311860
5.624810 -6.441030 -0.748145
5.581474 -6.393656 1.649735
7.002043 -8.023765 -0.558111
6.174679 -7.078166 2.168528
10.586585 -12.139907 -0.281158
3.137467 -3.607970 -1.281154
3.516416 -4.046600 -1.237681
5.376703 -6.189551 0.429678
4.010542 -4.616855 -1.188740
6.493804 -7.478172 0.866502
4.687620 -5.400099 -1.132586
6.545481 -7.542999 1.226249
5.481437 -6.319025 -1.027115
5.441865 -6.275618 1.315614
5.543555 -6.392887 -0.740301
7.004075 -8.082874 -0.560518
6.197143 -7.154177 2.185175
10.908051 -12.597039 -0.290862
6.656816 -7.690260 2.725365
3.119803 -3.613052 -1.279084
10.992781 -12.735260 0.293654
3.507362 -4.064752 -1.239480
7.328985 -8.493708 0.587942
3.995685 -4.632313 -1.189122
5.715638 -6.628644 0.765750
4.676480 -5.425406 -1.134463
6.526886 -7.574824 1.227712
5.439720 -6.313106 -1.023215
5.480328 -6.362477 1.330006
5.484804 -6.369924 -0.735420
15.882638 -18.452238 4.732445
6.944554 -8.070939 -0.558006
10.829706 -12.590693 -0.289884
6.316401 -7.346087 2.595955
3.105289 -3.620444 -1.278049
10.796898 -12.592508 0.289535
3.496400 -4.079319 -1.240380
7.344971 -8.569525 0.591501
3.982856 -4.648519 -1.189885
6.593096 -7.697733 0.886723
4.652039 -5.433383 -1.132899
6.415248 -7.495383 1.211381
5.395521 -6.303964 -1.018828
5.405261 -6.317575 1.316865
5.486961 -6.415331 -0.738558
10.821668 -12.666067 -0.290792
6.349720 -7.434566 2.619766
3.103289 -3.642486 -1.282190
10.607273 -12.454692 0.285556
3.479063 -4.086440 -1.239030
7.410803 -8.707664 0.599247
3.975511 -4.672861 -1.192556
6.593354 -7.749905 0.890209
4.640395 -5.456303 -1.134463
6.391644 -7.518127 1.211625
5.332346 -6.274354 -1.011028
6.605869 -7.775607 1.615968
5.365226 -6.317511 -0.725136
5.365730 -6.320340 1.611573
6.094668 -7.181503 -0.493633
10.870531 -12.813556 -0.293305
6.341223 -7.477314 2.627013
3.088670 -3.652361 -1.281672
3.465320 -4.100652 -1.239480
10.768593 -12.747419 0.874534
3.957090 -4.685901 -1.192175
7.004536 -8.294621 0.949823
4.631834 -5.486859 -1.137279
5.675279 -6.725304 1.080494
5.273475 -6.251372 -1.004204
5.273976 -6.256395 -0.715897
6.076025 -7.212957 -0.494261
10.806749 -12.833426 -0.292851
6.265255 -7.442865 2.606826
3.077747 -3.666616 -1.282707
22.774353 -27.141417 0.618443
3.455276 -4.119298 -1.241280
6.243169 -7.442957 0.509124
3.938186 -4.696676 -1.191411
6.953609 -8.295806 0.947034
4.611692 -5.503798 -1.137279
5.617449 -6.706492 1.074156
5.204648 -6.215865 -0.995429
5.494948 -6.562568 1.355661
5.255940 -6.279350 -0.716420
6.036716 -7.217271 -0.493109
10.828588 -12.950844 -0.294666
6.127732 -7.331285 2.560238
3.059982 -3.671401 -1.280637
3.444092 -4.133728 -1.242180
6.399933 -7.684165 0.524092
3.925537 -4.714921 -1.192556
5.492019 -6.598749 0.751108
4.594678 -5.520580 -1.137592
5.656121 -6.798333 1.085856
5.173852 -6.220881 -0.993479
5.418966 -6.517912 1.342521
5.254365 -6.322176 -0.719209
6.639435 -7.988724 2.019141
6.005091 -7.228032 -0.492481
10.750103 -12.948561 -0.293759
6.184765 -7.452230 2.594920
3.050254 -3.684504 -1.281672
10.034917 -12.125822 0.274736
3.433369 -4.150229 -1.243529
6.371871 -7.702267 0.523883
3.906126 -4.723373 -1.191411
6.452670 -7.805483 0.886025
4.571605 -5.532016 -1.136653
5.116714 -6.196045 -0.986654
5.339463 -6.465782 1.328129
5.218151 -6.321126 -0.717117
6.584019 -7.978537 2.010745
5.970927 -7.238164 -0.491749
4.976612 -6.034967 1.805907
10.788528 -13.082877 -0.295993
6.649085 -8.065985 2.800940
3.036148 -3.693637 -1.281154
10.121632 -12.313510 0.278226
3.417113 -4.158581 -1.242630
5.498107 -6.693506 0.453962
3.899581 -4.749118 -1.194464
6.430441 -7.834121 0.886723
4.554489 -5.548673 -1.136966
7.297037 -8.893046 1.412466
5.035710 -6.139307 -0.974955
5.339405 -6.511875 1.333760
5.174582 -6.313107 -0.714154
5.083979 -6.202569 1.558910
6.003855 -7.327445 -0.496459
5.276391 -6.441901 1.922432
10.611043 -12.959545 -0.292363
3.035451 -3.719179 -1.286331
3.400616 -4.169567 -1.242180
5.536640 -6.791010 0.459196
3.879258 -4.758136 -1.193320
5.486715 -6.732173 0.759824
4.534122 -5.565329 -1.136966
6.647641 -8.162441 1.292546
5.008162 -6.151565 -0.973980
5.250663 -6.451732 1.317491
5.158803 -6.338858 -0.715026
5.063689 -6.224207 1.559673
6.677609 -8.210938 -0.554657
10.661844 -13.119395 -0.295085
3.021234 -3.728251 -1.285813
10.073540 -12.435346 0.279343
3.394625 -4.192013 -1.245329
5.913772 -7.305506 0.492586
3.861391 -4.770123 -1.192938
5.470701 -6.760578 0.760870
4.519637 -5.587265 -1.138217
6.622853 -8.190226 1.293278
4.946724 -6.119607 -0.966180
5.208246 -6.445437 1.312485
5.134140 -6.353728 -0.714677
6.539584 -8.095918 2.022957
6.823318 -8.450191 -0.569206
10.430135 -12.926208 -0.289919
3.006990 -3.737269 -1.285295
5.859125 -7.284678 0.163180
3.376308 -4.199281 -1.243979
3.847176 -4.786633 -1.193701
5.511960 -6.860398 0.769934
4.517423 -5.624569 -1.142597
5.650949 -7.038419 1.108280
4.893027 -6.096586 -0.959843
6.002890 -7.479446 1.518979
5.100709 -6.357624 -0.713108
6.476892 -8.075813 2.012272
6.911213 -8.620436 -0.579045
11.021251 -13.751849 -0.307616
6.026094 -7.521795 2.582497
2.992721 -3.746234 -1.284778
5.813718 -7.277506 0.162587
3.368445 -4.218068 -1.246229
5.437759 -6.811762 0.456788
3.832893 -4.803102 -1.194464
5.724049 -7.175527 0.803053
4.498747 -5.639519 -1.142597
5.649854 -7.085055 1.112667
4.862885 -6.100360 -0.957893
10.996967 -13.800345 2.794858
5.090899 -6.390974 -0.714851
6.061090 -7.608924 1.890917
6.682283 -8.391758 -0.562193
10.975051 -13.787649 4.068465
10.864856 -13.654103 -0.304579
6.047906 -7.603259 2.603202
2.981482 -3.757651 -1.285295
10.996240 -13.863856 0.308873
3.345226 -4.219111 -1.243080
10.973045 -13.844537 0.925823
3.815725 -4.814247 -1.194083
5.814053 -7.338140 0.819090
4.474128 -5.648994 -1.141346
7.145650 -9.025270 1.413441
4.819386 -6.089280 -0.953506
10.934020 -13.820057 2.791104
5.106873 -6.457150 -0.720255
10.901057 -13.783339 3.415863
5.569105 -7.044123 -0.470605
10.888190 -13.776951 4.054068
10.415483 -13.183556 -0.293270
10.865690 -13.758349 4.697566
2.971275 -3.773106 -1.286848
6.424660 -8.158424 0.181261
3.334094 -4.235356 -1.244429
5.309789 -6.747537 0.449985
3.806552 -4.839001 -1.196754
6.070378 -7.719618 0.859181
4.457056 -5.670013 -1.142285
5.429732 -6.907397 1.078787
4.756400 -6.052997 -0.945219
5.406859 -6.883243 1.386322
5.116294 -6.515679 -0.724787
10.860165 -13.835556 3.418916
5.524756 -7.040918 -0.469035
10.830406 -13.807565 4.051368
10.112696 -12.892564 -0.286010
5.565550 -7.098009 2.416852
2.962846 -3.789542 -1.288919
5.985887 -7.658829 0.169672
3.319748 -4.249083 -1.244879
5.315715 -6.803804 0.452497
3.784803 -4.846070 -1.195228
6.818283 -8.733287 0.969346
4.436021 -5.683980 -1.141972
5.525263 -7.082199 1.102918
4.725473 -6.057041 -0.943269
5.363362 -6.877152 1.381317
5.089845 -6.528785 -0.724264
5.229104 -6.709829 1.653551
7.079856 -9.087928 -0.603748
10.815697 -13.883371 4.063066
10.212612 -13.113955 -0.290129
10.785989 -13.855213 4.704813
2.941969 -3.788666 -1.285295
3.312807 -4.269306 -1.247579
6.343667 -8.175259 0.542305
3.780746 -4.874107 -1.199044
6.701382 -8.642484 0.956796
4.425619 -5.709587 -1.144162
4.673749 -6.031879 -0.936932
5.357462 -6.916764 1.385697
5.080363 -6.561381 -0.726007
6.519045 -8.422500 2.070278
6.904237 -8.923379 -0.591292
10.122578 -13.087641 -0.288802
5.430847 -7.024160 2.379065
2.936468 -3.807580 -1.288401
5.561354 -7.213748 0.158991
3.301010 -4.283355 -1.248478
5.035252 -6.536047 0.432400
3.764561 -4.886618 -1.199044
4.403046 -5.719537 -1.143223
5.570180 -7.238251 1.121442
4.623617 -6.010396 -0.931082
5.309202 -6.904105 1.379439
5.364640 -6.978716 -0.770108
6.184772 -8.045605 1.972583
6.868523 -8.938306 -0.590768
5.078530 -6.611300 1.924681
5.871453 -7.646299 -0.168276
2.921319 -3.816783 -1.287884
9.914004 -12.952917 0.284719
3.281302 -4.288661 -1.246679
5.155582 -6.740784 0.444751
3.740663 -4.892584 -1.197136
5.556855 -7.270695 0.800613
4.378456 -5.730927 -1.142285
5.532828 -7.241876 1.119004
4.585740 -6.004412 -0.927670
5.100470 -6.680799 1.331257
5.231459 -6.854854 -0.754420
6.205256 -8.133777 1.988612
6.763048 -8.868133 -0.584488
5.681617 -7.452790 2.163579
5.854426 -7.679470 -0.168555
6.197828 -8.132867 2.739859
2.907978 -3.826957 -1.287884
9.822918 -12.931841 0.283462
3.260848 -4.294451 -1.244879
5.560727 -7.325986 0.482014
3.735432 -4.921249 -1.200952
5.471226 -7.210686 0.791897
4.366780 -5.757193 -1.144475
5.501451 -7.255779 1.118029
4.539721 -5.989539 -0.922795
5.075949 -6.699448 1.331257
5.256831 -6.938184 -0.761567
7.634799 -10.080379 2.458002
6.712762 -8.866209 -0.582813
5.926056 -7.829967 2.267057
7.564822 -9.998860 -0.218853
6.184292 -8.177098 2.747105
2.900419 -3.844795 -1.290472
5.981493 -7.931947 0.173407
3.254049 -4.316700 -1.248029
4.914899 -6.522291 0.428003
3.714686 -4.929555 -1.199807
5.460408 -7.248837 0.793989
4.362105 -5.792915 -1.148542
6.213876 -8.255081 1.268660
4.504463 -5.986315 -0.919870
4.990786 -6.635036 1.314988
5.243359 -6.970821 -0.763136
5.461635 -7.263647 1.766510
6.896577 -9.175368 -0.601550
5.315727 -7.074738 2.043005
7.484238 -9.964446 -0.217527
6.127872 -8.161560 2.734682
2.878874 -3.844072 -1.286848
6.104770 -8.154479 0.177805
3.237793 -4.326473 -1.247579
4.956707 -6.625767 0.433656
3.695105 -4.939348 -1.199044
5.592576 -7.478470 0.816998
4.340675 -5.806524 -1.148229
5.483934 -7.338533 1.124854
4.455027 -5.963833 -0.914020
4.953412 -6.633423 1.311234
5.244029 -7.022606 -0.766796
7.456195 -9.988692 2.422893
6.834646 -9.159369 -0.598933
5.416836 -7.261951 2.091595
7.430285 -9.964860 -0.216968
7.463992 -10.013713 3.346530
2.866591 -3.855649 -1.287366
5.535918 -7.448685 0.161993
3.231968 -4.350262 -1.251178
4.993090 -6.723201 0.438889
3.684864 -4.961673 -1.201334
5.730330 -7.718709 0.841053
4.314494 -5.813709 -1.146665
4.403439 -5.937891 -0.907683
6.085437 -8.209003 1.618471
5.290674 -7.136902 -0.777255
7.381540 -9.961028 2.409918
6.782422 -9.155887 -0.597153
5.208221 -7.033370 2.020510
5.946346 -8.033092 -0.174454
5.811046 -7.853178 2.617696
2.861145 -3.876512 -1.290990
6.521393 -8.838941 0.191732
3.212137 -4.355244 -1.249378
4.964850 -6.734159 0.438471
3.672182 -4.980826 -1.202860
5.594603 -7.591109 0.825016
4.294173 -5.828734 -1.146665
5.420797 -7.360655 1.122417
4.377977 -5.946831 -0.906708
6.047379 -8.217468 1.615968
5.258644 -7.145698 -0.776209
5.664482 -7.699985 1.858098
6.759887 -9.192378 -0.597991
5.152474 -7.009114 2.008363
5.782094 -7.868488 -0.170440
5.815621 -7.917008 2.632190
2.851021 -3.891150 -1.292542
6.334530 -8.648700 0.187125
3.199217 -4.369575 -1.250278
5.473310 -7.478329 0.485678
3.657092 -4.996782 -1.203623
5.561013 -7.600943 0.823970
4.281965 -5.854849 -1.148855
5.252139 -7.184027 1.092681
4.333766 -5.930023 -0.901833
5.657421 -7.744056 1.518979
5.220741 -7.146315 -0.774292
5.637569 -7.719710 1.858098
6.745422 -9.240116 -0.599561
5.132572 -7.033354 2.010163
5.701561 -7.815925 -0.168869
5.844862 -8.015306 2.658072
2.838558 -3.902641 -1.293060
5.744546 -7.900888 0.170510
3.182799 -4.379139 -1.249828
3.639627 -5.009518 -1.203623
5.384583 -7.413962 0.801659
4.267304 -5.877753 -1.150419
5.038144 -6.942050 1.053195
4.299052 -5.925832 -0.898908
5.818226 -8.022815 1.569664
5.516099 -7.609002 1.826805
5.829451 -8.044200 -0.520638
5.040539 -6.958115 1.983618
5.697700 -7.868172 -0.169568
5.623142 -7.768066 2.569556
2.813609 -3.896863 -1.287884
5.567133 -7.713344 0.166042
3.175475 -4.401285 -1.252977
3.620971 -5.020599 -1.203242
5.500822 -7.629883 0.822924
4.251380 -5.899024 -1.151671
5.062616 -7.027241 1.063432
4.266740 -5.924695 -0.896471
6.159503 -8.556088 1.669782
5.877304 -8.164089 -0.880099
5.359922 -7.448142 1.783683
5.803669 -8.067741 -0.520847
5.051489 -7.024714 1.997565
5.777582 -8.037395 -0.172779
2.807867 -3.917652 -1.291507
5.745151 -8.018826 0.172185
3.160092 -4.412343 -1.252977
5.757686 -8.039285 0.518231
3.607995 -5.039594 -1.204768
5.562280 -7.772176 0.836172
4.200880 -5.872056 -1.143536
4.929511 -6.893090 1.040521
4.227562 -5.913714 -0.892571
5.502707 -7.697448 1.498642
5.354432 -7.495562 1.790552
5.771990 -8.083075 -0.520533
5.755544 -8.063021 -0.172918
5.670004 -7.946119 2.615625
2.796414 -3.930578 -1.292542
5.748667 -8.080197 0.173093
3.143184 -4.419621 -1.252078
5.712229 -8.034917 0.516661
3.599479 -5.064960 -1.207821
5.685118 -8.002697 0.858833
4.174520 -5.876292 -1.141659
4.915820 -6.922347 1.042470
4.178052 -5.885614 -0.886234
5.685005 -8.011418 1.555897
5.188466 -7.314389 -0.784576
5.672582 -7.996867 1.905800
7.037899 -9.925282 -0.637661
6.999344 -9.874560 2.794342
5.760891 -8.130379 -0.173931
2.785594 -3.942984 -1.293578
3.129985 -4.433750 -1.252977
5.777424 -8.186987 0.525139
3.584928 -5.080076 -1.208584
4.144876 -5.877913 -1.139156
4.919075 -6.978404 1.048320
4.143761 -5.880690 -0.883309
5.144676 -7.303864 -0.781613
5.648024 -8.021435 1.906945
6.968724 -9.900790 -0.634521
6.946890 -9.873432 2.787143
6.985269 -9.931661 -0.211942
5.527727 -7.862242 2.575250
2.776250 -3.959011 -1.295648
3.120081 -4.452629 -1.255227
5.150670 -7.353186 0.470500
3.551404 -5.070047 -1.203242
5.525378 -7.891057 0.842796
4.103943 -5.863216 -1.133524
4.175545 -5.969946 -0.894521
4.888675 -6.992135 1.351281
5.115725 -7.316878 -0.781090
6.914675 -9.897222 -0.632742
5.519865 -7.903717 2.225666
6.912783 -9.901874 -0.210790
5.442758 -7.799110 2.548332
2.759103 -3.963921 -1.294095
6.993157 -10.050601 0.213722
3.104520 -4.463493 -1.255227
6.306165 -9.070003 0.578940
3.540409 -5.092084 -1.205531
5.709298 -8.214602 0.875218
4.069926 -5.858038 -1.129770
5.699119 -8.206067 1.226737
4.172793 -6.010576 -0.898421
4.904783 -7.067581 1.362544
5.120824 -7.378886 -0.785796
5.994744 -8.641387 2.044328
6.867566 -9.903246 -0.631590
6.823391 -9.843212 2.765098
5.694798 -8.218201 -0.174524
2.749642 -3.979886 -1.296166
6.958032 -10.074950 0.213722
3.096670 -4.485528 -1.258376
6.939235 -10.055239 0.640278
3.529303 -5.114107 -1.207821
5.970218 -8.654324 0.919842
4.038239 -5.855947 -1.126641
6.927783 -10.049895 1.498749
4.158545 -6.034913 -0.899883
6.148568 -8.926182 1.716712
5.074691 -7.367182 -0.782659
5.977905 -8.681664 2.048907
6.811439 -9.895898 -0.629602
6.768003 -9.836467 2.756550
5.646811 -8.210021 -0.173931
5.315942 -7.731852 2.514168
2.732455 -3.984679 -1.294613
5.597729 -8.166100 0.172814
3.072181 -4.483449 -1.254777
5.755104 -8.401972 0.533722
3.515868 -5.132874 -1.209347
6.207874 -9.066370 0.961328
4.004385 -5.850447 -1.122887
4.153143 -6.072331 -0.903296
5.519794 -8.073540 1.549014
5.026454 -7.351956 -0.779172
6.771737 -9.908408 2.332831
6.752069 -9.883333 -0.627299
5.038955 -7.378529 2.062801
5.614737 -8.224727 -0.173826
5.717957 -8.379070 2.718118
2.728312 -4.008567 -1.299272
3.058704 -4.497369 -1.255677
4.991355 -7.341799 0.465267
3.497930 -5.145115 -1.209347
3.959518 -5.828441 -1.116004
5.595030 -8.239022 1.222837
4.120772 -6.070367 -0.900858
4.832722 -7.121824 1.363170
5.726822 -8.439430 -0.892300
6.042789 -8.908405 2.092412
6.693989 -9.872128 -0.625101
6.657619 -9.822179 2.739454
6.695340 -9.881543 -0.208347
6.672357 -9.851325 3.188133
2.714303 -4.018066 -1.299272
3.044077 -4.509634 -1.256127
4.967931 -7.362488 0.465476
3.475556 -5.150784 -1.207821
5.355623 -7.940038 0.837915
3.930314 -5.829124 -1.113501
5.368750 -7.965495 1.179452
4.095121 -6.078129 -0.899883
5.403708 -8.023403 1.532119
4.350626 -6.459791 -0.681384
5.511690 -8.186817 1.918394
6.650568 -9.882178 -0.624263
5.682391 -8.446733 2.350289
6.636256 -9.868348 -0.207579
5.650699 -8.405958 2.713977
2.692730 -4.016284 -1.295648
8.407580 -12.544878 0.263601
3.034825 -4.529946 -1.258826
5.317839 -7.940695 0.500855
3.457556 -5.162885 -1.207821
3.885773 -5.806690 -1.106618
5.504264 -8.228382 1.215525
4.034156 -6.032981 -0.891109
5.434947 -8.130899 1.549014
4.321407 -6.465000 -0.680338
5.504893 -8.238654 1.926026
6.593844 -9.872115 -0.622170
6.552094 -9.813314 2.724157
6.588448 -9.871492 -0.207160
5.623468 -8.428845 2.715012
2.682975 -4.032093 -1.297719
3.017915 -4.538889 -1.258376
3.448206 -5.188003 -1.210874
5.125855 -7.715032 0.810374
3.854552 -5.803763 -1.103489
4.026244 -6.066875 -0.894034
5.312619 -8.008258 1.522107
5.692101 -8.580291 -0.900842
6.608863 -9.965995 2.324435
6.543895 -9.871765 -0.620705
5.682487 -8.575541 2.375033
6.535176 -9.866089 -0.206567
5.606809 -8.467752 2.721224
2.669949 -4.043045 -1.298236
3.002053 -4.549396 -1.258376
3.432238 -5.203286 -1.211637
3.821223 -5.797391 -1.099734
5.739387 -8.710853 1.280847
3.961367 -6.014578 -0.884284
5.438880 -8.261039 1.566535
5.757434 -8.744884 -0.916007
6.552449 -9.956204 2.316803
6.485248 -9.857841 -0.618402
5.702844 -8.671851 2.396179
6.483122 -9.862106 -0.206008
6.436556 -9.794994 3.140511
2.661114 -4.060419 -1.300825
5.517532 -8.422047 0.175746
2.984019 -4.556587 -1.257476
5.079318 -7.756101 0.485887
3.414054 -5.215235 -1.211637
3.787987 -5.790856 -1.095980
5.365649 -8.205821 1.203825
3.934917 -6.020061 -0.883065
5.275278 -8.070689 1.527113
5.806427 -8.886686 -0.928732
6.122581 -9.374127 2.176368
6.427867 -9.845298 -0.616204
5.705556 -8.742296 2.410126
6.432895 -9.856756 -0.205450
6.397706 -9.806577 3.137405
2.650084 -4.074542 -1.302377
5.504837 -8.463765 0.176234
2.977391 -4.579527 -1.261076
5.051125 -7.772110 0.485782
3.400107 -5.233705 -1.213164
3.762308 -5.793447 -1.094103
5.489730 -8.456674 1.237949
3.891160 -5.996442 -0.877703
5.143874 -7.929958 1.497078
5.874013 -9.059026 -0.944594
5.424958 -8.366483 1.938238
6.376717 -9.838068 -0.614424
5.907537 -9.117698 2.508204
6.366924 -9.830477 -0.204437
6.346637 -9.802901 3.129122
2.632366 -4.076816 -1.300307
2.962443 -4.591530 -1.261526
5.004479 -7.759481 0.483898
3.380604 -5.241652 -1.212400
3.727082 -5.783298 -1.089723
5.350522 -8.305568 1.213088
3.891700 -6.043368 -0.882578
5.116162 -7.947865 1.497078
5.890313 -9.150495 -0.952089
6.407086 -9.957108 2.301538
6.330452 -9.841789 -0.613273
6.269845 -9.751307 2.676468
6.323922 -9.839185 -0.204158
6.278965 -9.772987 3.112558
2.623331 -4.094112 -1.302895
2.948500 -4.605125 -1.262425
4.970903 -7.766809 0.483270
3.364404 -5.256728 -1.213164
5.749846 -8.987329 0.933438
3.679200 -5.753004 -1.081588
5.312944 -8.310814 1.211138
3.901580 -6.105424 -0.889646
5.158572 -8.075547 1.517727
5.873351 -9.194507 -0.954530
4.614125 -7.226016 1.666526
6.277791 -9.835206 -0.611493
5.621521 -8.810440 2.412825
6.272334 -9.834223 -0.203600
6.224042 -9.762266 3.102205
2.606951 -4.099984 -1.301860
2.927181 -4.607165 -1.260176
5.380638 -8.471990 0.525976
3.352350 -5.278383 -1.215453
5.466424 -8.610382 0.892300
3.652745 -5.755805 -1.079711
5.479562 -8.637740 1.255986
3.918515 -6.179358 -0.898421
5.502623 -8.680787 1.627857
4.217711 -6.653747 -0.689228
5.578733 -8.804257 2.026010
6.226322 -9.830064 -0.609819
5.632431 -8.895868 2.430821
6.226204 -9.837472 -0.203216
5.330588 -8.425642 2.671530
2.596747 -4.115594 -1.303930
30.084019 -47.698730 0.984351
2.909003 -4.614058 -1.259276
5.080552 -8.061538 0.499390
3.333904 -5.290053 -1.215453
4.945693 -7.850589 0.811769
3.620000 -5.748461 -1.075956
3.766883 -5.986341 -0.868441
5.440735 -8.649779 1.618471
4.082014 -6.489660 -0.670751
5.470635 -8.700687 1.997770
6.170714 -9.817918 -0.607725
6.138360 -9.770226 2.663871
6.172683 -9.828663 -0.202588
5.262112 -8.382024 2.651860
2.583390 -4.126271 -1.304448
2.901148 -4.637401 -1.262875
5.071442 -8.109703 0.501274
3.317499 -5.304987 -1.216217
4.916148 -7.864426 0.811420
3.595725 -5.754362 -1.074705
5.467502 -8.753231 1.267198
3.706012 -5.935468 -0.859179
5.646884 -9.047441 1.689180
4.196475 -6.723595 -0.693411
4.361538 -6.990775 1.601651
6.123723 -9.819061 -0.606469
6.075353 -9.745289 2.651273
6.118242 -9.817905 -0.201924
5.228736 -8.393784 2.649790
2.571010 -4.138546 -1.305483
4.798910 -7.727798 0.158782
2.891109 -4.657434 -1.265575
3.295856 -5.311531 -1.215072
3.565207 -5.750089 -1.071576
5.410770 -8.730081 1.261104
3.687362 -5.951744 -0.859666
5.725514 -9.245113 1.722344
5.801050 -9.367083 -0.963942
5.411828 -8.742006 1.998534
6.079952 -9.825092 -0.605527
6.026945 -9.743234 2.644974
6.058693 -9.798382 -0.201087
5.227844 -8.457995 2.664284
2.555534 -4.145850 -1.304966
4.767710 -7.737692 0.158642
2.879944 -4.675794 -1.267824
3.288618 -5.341393 -1.219270
3.520272 -5.722120 -1.064067
5.386502 -8.759060 1.262567
3.642654 -5.925683 -0.854060
5.746985 -9.352561 1.738613
5.717206 -9.304097 -0.955401
6.019492 -9.803704 -0.602910
5.986782 -9.754248 2.642275
6.022364 -9.816062 -0.201017
5.955762 -9.711308 3.052512
2.544070 -4.159690 -1.306519
2.861572 -4.682493 -1.266924
5.288186 -8.656642 0.531629
3.270976 -5.354515 -1.219651
