# This PCD file was generated using the MATLAB® pcwrite function
# from Computer Vision Toolbox®.
# .PCD v.7 - Point Cloud Data file format
VERSION .7
FIELDS x y z
SIZE 4 4 4
TYPE F F F
COUNT 1 1 1
WIDTH 1609
HEIGHT 1
VIEWPOINT 0 0 0 1 0 0 0
POINTS 1609
DATA ascii
-3.573855 -8.602559 2.496051
-3.608645 -8.652184 0.163634
-3.612679 -8.657601 0.491644
-0.498446 -1.193914 -0.251486
-3.618405 -8.662812 0.821356
-3.055835 -7.312376 -1.255230
-3.618884 -8.655466 1.151909
-0.468828 -1.120770 -0.149168
-3.614873 -8.641633 1.483625
-3.622144 -8.654770 -0.820833
-3.619952 -8.645296 1.821844
-3.625535 -8.654392 -0.491749
-3.599198 -8.587317 2.149632
-3.622967 -8.644029 -0.163599
-3.603110 -8.592443 2.496569
-3.645851 -8.660443 0.164018
-3.644429 -8.648620 0.491853
-0.488882 -1.159604 -0.244617
-3.646298 -8.644621 0.820833
-3.084672 -7.313124 -1.257107
-3.649882 -8.648905 1.152640
-0.478719 -1.133839 -0.151118
-3.651933 -8.645340 1.486441
-3.665517 -8.673273 -0.823796
-3.650128 -8.636862 1.822608
-3.661215 -8.658877 -0.492691
-3.633729 -8.589691 2.153232
-3.658574 -8.644220 -0.163843
-3.636847 -8.588707 2.499157
-3.675279 -8.645824 0.163983
-3.680124 -8.653028 0.492795
-3.678847 -8.641648 0.821704
-3.100893 -7.280503 -1.253353
-3.683942 -8.645243 1.153859
-0.476446 -1.117553 -0.149168
-3.685231 -8.644085 1.488318
-3.686442 -8.642743 -0.822053
-3.674861 -8.611426 1.819936
-3.692986 -8.649718 -0.492900
-3.671345 -8.594876 2.157730
-3.692718 -8.644914 -0.164088
-3.664550 -8.574824 2.498639
-0.360264 -0.839749 -0.244843
-3.707082 -8.640939 0.164122
-0.418902 -0.975961 -0.245197
-3.713459 -8.647470 0.493214
-2.663615 -6.199733 -1.311621
-3.712923 -8.637907 0.822576
-3.117997 -7.253847 -1.250537
-3.718080 -8.645743 1.155565
-0.478580 -1.112320 -0.148681
-3.722412 -8.647498 1.491134
-3.720529 -8.638972 -0.822924
-3.708056 -8.610012 1.822226
-3.720859 -8.635591 -0.492795
-3.702912 -8.589812 2.159530
-3.731584 -8.652168 -0.164471
-3.699051 -8.572622 2.501745
-0.352301 -0.813730 -0.237596
-3.742785 -8.640791 0.164367
-0.420757 -0.970917 -0.244297
-3.747593 -8.643618 0.493737
-2.671664 -6.162046 -1.305515
-3.748682 -8.641996 0.824145
-3.152737 -7.264663 -1.254292
-3.748237 -8.632712 1.155565
-3.775842 -8.692142 -1.163609
-3.753362 -8.636262 1.491446
-3.780922 -8.699677 -0.829897
-3.748266 -8.620421 1.827187
-3.757354 -8.637201 -0.493633
-3.728985 -8.567900 2.157280
-3.763359 -8.642756 -0.164541
-3.735126 -8.573826 2.505886
-0.364424 -0.833737 -0.243808
-3.776129 -8.635003 0.164506
-0.431954 -0.987295 -0.248796
-3.776141 -8.626824 0.493528
-2.712051 -6.195847 -1.314674
-3.787618 -8.648935 0.826062
-3.211370 -7.329607 -1.267432
-3.782332 -8.628667 1.156784
-0.478361 -1.090772 -0.146243
-3.785071 -8.626725 1.492072
-3.836082 -8.742987 -0.835301
-3.780701 -8.612679 1.828332
-3.793103 -8.636834 -0.494365
-3.765926 -8.570889 2.161330
-3.795115 -8.633228 -0.164611
-3.768919 -8.569578 2.508474
-0.367332 -0.832460 -0.243808
-3.811902 -8.634575 0.164751
-0.432249 -0.978651 -0.246996
-3.813497 -8.630033 0.494470
-2.749533 -6.222257 -1.322306
-3.816174 -8.632016 0.825713
-3.212965 -7.264156 -1.258046
-3.818855 -8.629933 1.158734
-0.490202 -1.107247 -0.148681
-3.820761 -8.626104 1.494262
-3.898774 -8.798087 -0.841924
-3.814718 -8.608403 1.830240
-3.828893 -8.636321 -0.495098
-3.799772 -8.566597 2.163579
-3.830094 -8.630896 -0.164821
-3.792538 -8.542246 2.504333
-0.360944 -0.809933 -0.237596
-3.845274 -8.628522 0.164890
-0.442011 -0.991375 -0.250595
-3.847666 -8.625788 0.494994
-0.512859 -1.149201 -0.244617
-3.854285 -8.632525 0.827108
-3.136443 -7.021467 -1.217999
-3.852195 -8.623801 1.159709
-3.865038 -8.648502 -1.163121
-3.857300 -8.627142 1.496765
-3.901801 -8.722588 -0.835998
-3.851057 -8.605115 1.832530
-3.867051 -8.636813 -0.495936
-3.831940 -8.554393 2.164029
-3.865103 -8.628424 -0.165030
-3.824704 -8.534243 2.505886
-0.373280 -0.829810 -0.243808
-3.880156 -8.621665 0.165030
-0.447241 -0.993302 -0.251495
-3.886638 -8.628016 0.495936
-3.889306 -8.629918 0.828154
-3.185291 -7.064500 -1.227385
-3.884593 -8.611433 1.159953
-3.944889 -8.741029 -1.177502
-3.895397 -8.627349 1.499268
-3.897656 -8.628336 -0.828328
-3.882687 -8.595200 1.833293
-3.896353 -8.621441 -0.495831
-3.866595 -8.551619 2.166729
-3.904943 -8.632419 -0.165379
-3.859940 -8.528968 2.508474
-0.371525 -0.817883 -0.240702
-3.915190 -8.618992 0.165239
-0.445868 -0.981090 -0.248796
-3.916731 -8.614397 0.495936
-2.854095 -6.274345 -1.339861
-3.929163 -8.633739 0.829897
-3.324123 -7.300876 -1.270561
-3.918741 -8.606854 1.161171
-4.004178 -8.790433 -1.186033
-3.928765 -8.620888 1.500520
-3.935189 -8.630994 -0.829897
-3.927200 -8.609489 1.839399
-3.932902 -8.618005 -0.496459
-3.900340 -8.542706 2.168078
-3.940866 -8.631470 -0.165623
-3.902531 -8.543558 2.516757
-0.388869 -0.848191 -0.250019
-3.956759 -8.626395 0.165658
-0.454338 -0.990076 -0.251495
-3.956612 -8.618135 0.496982
-2.849767 -6.207249 -1.327649
-3.959276 -8.619971 0.829897
-3.956065 -8.605059 1.162877
-4.037199 -8.777502 -1.186276
-3.960335 -8.606431 1.500520
-4.033453 -8.761297 -0.843842
-3.955589 -8.592161 1.838636
-3.968808 -8.616923 -0.497192
-3.940737 -8.552049 2.173927
-3.970802 -8.613334 -0.165554
-3.943526 -8.550248 2.522968
-0.388729 -0.839747 -0.247949
-3.989367 -8.617974 0.165763
-0.459429 -0.992021 -0.252395
-3.993388 -8.618769 0.497820
-2.879104 -6.211012 -1.330702
-3.996711 -8.618053 0.831117
-3.519281 -7.585108 -1.324374
-3.996939 -8.614607 1.166046
-4.071157 -8.770558 -1.187251
-3.999505 -8.612263 1.503961
-4.116059 -8.859193 -0.854649
-3.989534 -8.582948 1.839780
-4.003733 -8.609563 -0.497610
-3.975344 -8.544616 2.175727
-4.002530 -8.603048 -0.165623
-3.976609 -8.543436 2.525039
-0.380069 -0.813947 -0.240702
-4.015193 -8.594938 0.165588
-0.467840 -1.001004 -0.255094
-4.024484 -8.610907 0.498134
-2.919642 -6.244113 -1.339861
-4.029489 -8.613776 0.831989
-3.202784 -6.843431 -1.196724
-4.028669 -8.604198 1.166533
-4.098536 -8.753413 -1.186764
-4.029719 -8.602530 1.504587
-4.021128 -8.580291 -0.829025
-4.020475 -8.575004 1.840925
-4.037351 -8.607087 -0.498238
-4.012099 -8.553255 2.181125
-4.036983 -8.602400 -0.165868
-4.009024 -8.538945 2.527627
-0.390998 -0.830160 -0.245878
-4.053047 -8.601475 0.165972
-0.464509 -0.985345 -0.251495
-4.057276 -8.606547 0.498657
-2.967132 -6.291218 -1.352073
-4.062281 -8.609377 0.832860
-3.246542 -6.877430 -1.204545
-4.062266 -8.601561 1.167996
-4.151277 -8.790034 -1.193588
-4.060756 -8.594478 1.505525
-4.057282 -8.579371 1.844741
-4.065871 -8.593652 -0.498238
-4.039608 -8.538141 2.180676
-4.070621 -8.599810 -0.166077
-4.046413 -8.544809 2.533321
-0.393748 -0.828858 -0.245878
-4.084124 -8.593405 0.166077
-0.469448 -0.987320 -0.252395
-4.088150 -8.594136 0.498762
-3.009903 -6.327440 -1.361995
-4.096802 -8.608453 0.834080
-3.270180 -6.868410 -1.204858
-4.090768 -8.588042 1.167996
-4.175101 -8.761155 -1.191639
-4.100933 -8.601647 1.509280
-4.035695 -8.461009 -0.820136
-4.092472 -8.580046 1.847794
-4.095206 -8.581923 -0.498343
-4.070227 -8.525747 2.181125
-4.104925 -8.594570 -0.166252
-4.078714 -8.535862 2.534874
-0.403466 -0.841345 -0.250019
-4.121878 -8.595325 0.166391
-0.474577 -0.989189 -0.253295
-4.122445 -8.588816 0.499285
-3.031375 -6.312826 -1.361231
-4.136953 -8.611337 0.835824
-3.454494 -7.187535 -1.263052
-4.131900 -8.596970 1.171165
-4.205660 -8.746527 -1.191639
-4.129219 -8.583720 1.508654
-4.032372 -8.378648 -0.813512
-4.125596 -8.568526 1.848558
-4.132701 -8.579453 -0.499076
-4.098910 -8.505506 2.179776
-4.140110 -8.590998 -0.166461
-4.115198 -8.535494 2.539015
-0.399669 -0.826020 -0.245878
-4.158582 -8.590960 0.166601
-0.479898 -0.990951 -0.254195
-4.164347 -8.595218 0.500541
-0.569248 -1.174928 -0.253776
-4.162645 -8.587879 0.834952
-4.146685 -8.551154 -1.505213
-4.167713 -8.590699 1.172383
-4.259358 -8.775699 -1.197732
-4.167555 -8.582745 1.511157
-4.136436 -8.518658 -0.828502
-4.156336 -8.555840 1.848939
-4.169608 -8.579345 -0.499913
-4.140505 -8.515681 2.186074
-4.176816 -8.586555 -0.166670
-4.139691 -8.506456 2.534874
-0.399160 -0.817675 -0.243808
-4.192933 -8.585374 0.166775
-0.485065 -0.992771 -0.255094
-4.197833 -8.587807 0.500960
-0.580243 -1.187044 -0.256829
-4.195220 -8.578667 0.835475
-4.166091 -8.515335 -1.501458
-4.204656 -8.590363 1.174333
-4.289091 -8.758995 -1.197488
-4.202703 -8.578789 1.513034
-4.262565 -8.700981 -0.847677
-4.200867 -8.571248 1.855427
-4.211839 -8.589846 -0.501379
-4.180502 -8.522172 2.191473
-4.208528 -8.575513 -0.166740
-4.175317 -8.504094 2.538497
-0.402012 -0.816277 -0.243808
-4.224643 -8.574273 0.166845
-0.485081 -0.984080 -0.253295
-4.232470 -8.586379 0.501693
-0.594803 -1.206141 -0.261408
-4.233956 -8.581839 0.837218
-3.676453 -7.448555 -1.315614
-4.231101 -8.568512 1.173358
-3.552954 -7.192019 -0.984948
-4.241628 -8.586057 1.516789
-4.223797 -8.542453 1.852374
-4.239141 -8.569720 -0.501064
-4.212818 -8.512767 2.192823
-4.245810 -8.579432 -0.167089
-4.213781 -8.510978 2.544709
-0.413455 -0.832170 -0.248984
-4.260172 -8.574543 0.167124
-0.484872 -0.975486 -0.251495
-4.262416 -8.571552 0.501693
-0.599009 -1.204057 -0.261408
-4.267437 -8.574141 0.837915
-3.687050 -7.408027 -1.310608
-4.264801 -8.565096 1.174821
-3.660872 -7.348996 -1.008103
-4.273336 -8.574735 1.517415
-3.697350 -7.415738 -0.724961
-4.262615 -8.549484 1.856953
-3.717490 -7.452876 -0.436482
-4.250596 -8.517931 2.197772
-4.282877 -8.578873 -0.167369
-4.244329 -8.497944 2.545227
-0.411020 -0.820431 -0.245878
-4.299931 -8.579286 0.167508
-0.491768 -0.980756 -0.253295
-4.298580 -8.569118 0.502425
-0.611802 -1.219613 -0.265225
-4.302996 -8.574187 0.839310
-3.707569 -7.384519 -1.308731
-4.300910 -8.562574 1.176527
-3.698980 -7.361004 -1.011516
-4.307678 -8.568589 1.518979
-3.720131 -7.399875 -0.724613
-4.308310 -8.566122 1.863822
-3.724631 -7.402386 -0.434284
-4.289942 -8.522189 2.202721
-4.311898 -8.562084 -0.167334
-4.281788 -8.498605 2.549885
-0.408653 -0.808646 -0.242772
-4.334365 -8.573147 0.167683
-0.496948 -0.982511 -0.254195
-4.334778 -8.566535 0.503158
-0.600100 -1.185938 -0.258355
-4.335599 -8.564448 0.839833
-3.740463 -7.385630 -1.311234
-4.339746 -8.565217 1.178964
-3.740808 -7.379918 -1.015903
-4.340242 -8.558785 1.519917
-3.742335 -7.379737 -0.723916
-4.354174 -8.582547 1.870692
-3.744120 -7.376873 -0.433551
-4.324075 -8.515849 2.204970
-4.344476 -8.552330 -0.167438
-4.312304 -8.485329 2.550403
-0.414983 -0.814099 -0.244843
-4.363355 -8.556184 0.167648
-0.502146 -0.984242 -0.255094
-4.374642 -8.570920 0.504309
-0.616731 -1.208317 -0.263698
-4.371809 -8.561684 0.841053
-3.773411 -7.386601 -1.313737
-4.376844 -8.564157 1.180914
-3.773774 -7.380956 -1.017853
-4.377288 -8.557652 1.522420
-3.770266 -7.367745 -0.724090
-4.392156 -8.583024 1.874126
-3.778039 -7.379759 -0.434493
-4.359993 -8.512846 2.208120
-4.383422 -8.554909 -0.167787
-4.352472 -8.490853 2.556615
-0.417964 -0.812573 -0.244843
-4.400512 -8.555126 0.167927
-0.505578 -0.982483 -0.255094
-4.403618 -8.553823 0.504205
-0.615762 -1.195576 -0.261408
-4.411373 -8.561543 0.842622
-3.863813 -7.495630 -1.335638
-4.409439 -8.554121 1.181645
-3.823173 -7.413610 -1.024190
-4.416191 -8.559877 1.525549
-3.807840 -7.377555 -0.726356
-4.452409 -8.622690 1.886338
-3.806895 -7.369411 -0.434703
-4.395639 -8.505464 2.210369
-4.421521 -8.555545 -0.168102
-4.390957 -8.492770 2.561791
-0.424357 -0.817968 -0.246913
-4.441051 -8.556688 0.168276
-0.505584 -0.973706 -0.253295
-4.436211 -8.543717 0.504519
-0.632602 -1.217811 -0.266751
-4.451338 -8.565539 0.844539
-4.429390 -8.519671 -1.520856
-4.439846 -8.536140 1.181401
-4.532968 -8.711461 -1.205775
-4.455162 -8.561933 1.528678
-3.866689 -7.427840 -0.732631
-4.469783 -8.582720 1.880995
-3.860282 -7.409216 -0.437843
-4.428004 -8.495254 2.211719
-4.464298 -8.564884 -0.168590
-4.425042 -8.485955 2.564379
-0.434374 -0.830175 -0.251054
-4.476818 -8.556088 0.168555
-0.510617 -0.975477 -0.254195
-4.474346 -8.544103 0.505461
-0.622272 -1.187770 -0.260645
-4.487685 -8.562302 0.845759
-4.455785 -8.501437 -1.520230
-4.480112 -8.544226 1.184570
-4.565520 -8.703413 -1.206750
-4.481348 -8.539333 1.527426
-4.497366 -8.566223 -0.846457
-4.500045 -8.571325 1.881758
-4.493142 -8.554543 -0.506403
-4.454336 -8.477072 2.210819
-4.493236 -8.547479 -0.168555
-4.467225 -8.494395 2.571626
-0.426309 -0.808225 -0.244843
-4.514124 -8.554559 0.168835
-0.521298 -0.987475 -0.257794
-4.514404 -8.547859 0.506612
-0.629874 -1.192644 -0.262172
-4.523500 -8.561465 0.847154
-4.516819 -8.545209 -1.530868
-4.519190 -8.546084 1.187008
-4.603297 -8.701462 -1.208700
-4.519444 -8.539351 1.530242
-4.518292 -8.537174 -0.845062
-4.526263 -8.548625 1.880232
-4.526712 -8.545867 -0.506821
-4.495761 -8.483857 2.216668
-4.528666 -8.542342 -0.168765
-4.491416 -8.468511 2.568520
-0.427313 -0.803321 -0.243808
-4.542078 -8.535218 0.168765
-0.522910 -0.982209 -0.256894
-4.549847 -8.542626 0.507240
-0.645109 -1.211232 -0.266751
-4.552422 -8.543865 0.846979
-4.552730 -8.537262 1.187982
-4.554806 -8.533980 1.532119
-2.584554 -4.842475 -0.480228
-4.554226 -8.529310 1.879469
-4.529023 -8.474987 2.218467
-4.565055 -8.538827 -0.169009
-4.526417 -8.463002 2.571626
-0.431941 -0.805230 -0.244843
-4.579407 -8.533409 0.169044
-0.518961 -0.966642 -0.253295
-4.586255 -8.539009 0.507973
-0.641901 -1.195136 -0.263698
-4.584103 -8.531431 0.847328
-0.663119 -1.233609 -0.221824
-4.588144 -8.531808 1.189445
-2.668195 -4.959523 -0.691487
-4.592057 -8.531943 1.534622
-2.591055 -4.814125 -0.478311
-4.600725 -8.544476 1.886338
-2.618016 -4.860152 -0.289313
-4.560428 -8.462557 2.219367
-4.600527 -8.533401 -0.169219
-4.563267 -8.460752 2.575767
-0.436588 -0.807115 -0.245878
-4.616783 -8.531440 0.169323
-0.527899 -0.975107 -0.255994
-4.620787 -8.531730 0.508496
-0.627369 -1.158362 -0.256066
-4.623348 -8.532896 0.849071
-0.639181 -1.179187 -0.212438
-4.623576 -8.526211 1.190907
-2.668452 -4.918771 -0.687099
-4.630292 -8.531487 1.537438
-2.722840 -5.016936 -0.499402
-4.623029 -8.514561 1.883285
-2.607319 -4.800087 -0.286278
-4.598314 -8.461997 2.223416
-4.632197 -8.520804 -0.169288
-4.600157 -8.458349 2.579908
-0.454203 -0.832722 -0.254160
-4.656111 -8.532827 0.169672
-0.536902 -0.983521 -0.258694
-4.650543 -8.515547 0.508496
-0.618235 -1.132042 -0.250723
-4.666477 -8.541184 0.851512
-0.632872 -1.157882 -0.208996
-4.664739 -8.530920 1.193832
-2.672268 -4.885044 -0.683687
-4.663837 -8.522204 1.538690
-2.634166 -4.813397 -0.480054
-4.647066 -8.488040 1.880995
-2.574168 -4.699866 -0.280835
-4.636252 -8.461275 2.227465
-2.613554 -4.767827 -0.094906
-4.634298 -8.450709 2.582497
-0.449659 -0.817590 -0.250019
-4.694546 -8.532290 0.169986
-0.534693 -0.971398 -0.255994
-4.693725 -8.523756 0.509962
-0.616501 -1.119559 -0.248433
-4.696265 -8.524842 0.851512
-0.630235 -1.143555 -0.206806
-4.701196 -8.526755 1.195538
-2.675881 -4.851352 -0.680275
-4.699284 -8.516249 1.540567
-2.692343 -4.879183 -0.487549
-4.669074 -8.458016 1.877942
-2.548074 -4.613925 -0.276229
-4.677068 -8.465508 2.232864
-2.602129 -4.707920 -0.093894
-4.665638 -8.437861 2.583532
-0.443142 -0.799120 -0.244843
-4.717509 -8.503611 0.169742
-0.541863 -0.976341 -0.257794
-4.731658 -8.525609 0.511008
-0.622311 -1.120833 -0.249197
-4.730829 -8.517108 0.852383
-0.617912 -1.111995 -0.201488
-4.741543 -8.529377 1.198220
-2.678326 -4.815959 -0.676619
-4.736137 -8.516157 1.543383
-2.637676 -4.740917 -0.474650
-4.702391 -8.448528 1.879469
-2.571937 -4.618962 -0.277067
-4.717970 -8.469560 2.238263
-2.602156 -4.671314 -0.093335
-4.706760 -8.445969 2.590779
-0.434615 -0.777334 -0.238631
-4.755441 -8.505374 0.170091
-0.542244 -0.969437 -0.256444
-4.765290 -8.516010 0.511427
-0.625261 -1.116940 -0.248815
-4.769292 -8.516187 0.853952
-0.631248 -1.127175 -0.204616
-4.770770 -8.515339 1.198463
-2.697193 -4.812246 -0.677350
-4.773565 -8.513357 1.545886
-2.684427 -4.785548 -0.480054
-4.734224 -8.439737 1.880995
-2.550097 -4.544222 -0.273089
-4.753662 -8.467462 2.241862
-2.623343 -4.670920 -0.093510
-4.749460 -8.453068 2.598026
-0.477022 -0.846577 -0.260372
-4.798848 -8.513110 0.170580
-0.546582 -0.969236 -0.256894
-4.798410 -8.508861 0.511950
-0.628961 -1.114861 -0.248815
-4.803383 -8.510735 0.854998
-0.640035 -1.133565 -0.206181
-4.804371 -8.505548 1.199438
-2.707139 -4.790704 -0.675644
-4.810517 -8.512959 1.548701
-2.640470 -4.670820 -0.469421
-4.776217 -8.445376 1.885956
-2.553160 -4.512694 -0.271728
-4.783188 -8.450818 2.241862
-2.620102 -4.629131 -0.092847
-4.784128 -8.449038 2.601649
-0.468523 -0.824750 -0.254160
-4.836930 -8.514537 0.170929
-0.555570 -0.977583 -0.259594
-4.835979 -8.505949 0.512788
-0.629937 -1.107539 -0.247670
-4.842916 -8.511233 0.856741
-0.635975 -1.117701 -0.203678
-4.843352 -8.508546 1.202119
-2.721046 -4.778250 -0.675156
-4.842159 -8.499547 1.549327
-2.598552 -4.559446 -0.459136
-4.814890 -8.448254 1.890154
-2.564152 -4.497262 -0.271310
-4.816980 -8.445066 2.244562
-2.624352 -4.599115 -0.092428
-4.820296 -8.444032 2.605273
-0.456038 -0.796287 -0.245878
-4.875064 -8.508898 0.171173
-0.559150 -0.975540 -0.259594
-4.871097 -8.495097 0.513206
-0.630870 -1.100224 -0.246525
-4.869621 -8.489091 0.856218
-0.639084 -1.113649 -0.203365
-4.877471 -8.495902 1.202851
-2.737552 -4.766523 -0.674912
-4.879184 -8.492021 1.551204
-2.574749 -4.481246 -0.452164
-4.854628 -8.445868 1.893589
-2.580619 -4.487834 -0.271310
-4.850815 -8.432422 2.245911
-2.637201 -4.582532 -0.092288
-4.853141 -8.429655 2.606308
-0.460747 -0.798037 -0.246913
-4.904734 -8.491830 0.171173
-0.566451 -0.980332 -0.261393
-4.911716 -8.497063 0.514358
-0.641584 -1.109913 -0.249197
-4.912191 -8.494462 0.858484
-0.641978 -1.109702 -0.203052
-4.918035 -8.497724 1.205532
-2.675597 -4.621222 -0.655657
-4.918697 -8.492030 1.554333
-2.592373 -4.475679 -0.452513
-4.884080 -8.428871 1.893589
-2.599273 -4.483983 -0.271624
-4.897817 -8.445782 2.254009
-2.649167 -4.566380 -0.092149
-4.889325 -8.424359 2.609931
-0.469360 -0.806441 -0.250019
-4.941392 -8.486753 0.171418
-0.567908 -0.974981 -0.260493
-4.944361 -8.485044 0.514672
-0.649408 -1.114452 -0.250723
-4.949840 -8.491034 0.859879
-0.643858 -1.104041 -0.202426
-4.951669 -8.487362 1.206507
-2.715727 -4.653001 -0.661507
-4.959267 -8.493572 1.557775
-2.634101 -4.511337 -0.457045
-4.923375 -8.428723 1.897405
-2.614910 -4.474882 -0.271624
-4.928253 -8.430316 2.254459
-2.666100 -4.558830 -0.092184
-4.917726 -8.405573 2.609414
-0.483903 -0.824793 -0.256231
-4.981106 -8.486698 0.171767
-0.570321 -0.971312 -0.260043
-4.981033 -8.479787 0.515405
-0.647328 -1.102021 -0.248433
-4.992569 -8.496037 0.862145
-0.649710 -1.105193 -0.203052
-4.988310 -8.482004 1.208213
-2.718866 -4.621252 -0.658338
-4.997903 -8.491532 1.560591
-2.762011 -4.692708 -0.476393
-4.962728 -8.428404 1.901221
-2.632542 -4.469169 -0.271833
-4.955672 -8.409704 2.253560
-2.680982 -4.547774 -0.092149
-4.955869 -8.403332 2.614072
-0.480879 -0.813122 -0.253125
-0.570731 -0.964284 -0.258694
-5.017724 -8.474380 0.516137
-0.652171 -1.101444 -0.248815
-5.031337 -8.493984 0.863713
-0.653564 -1.102918 -0.203052
-5.025983 -8.478202 1.210163
-2.709667 -4.569046 -0.652245
-5.028522 -8.475733 1.560903
-2.830221 -4.770428 -0.485283
-4.997127 -8.419473 1.903129
-2.654244 -4.470256 -0.272461
-4.994949 -8.409108 2.258059
-2.701947 -4.546984 -0.092323
-4.994056 -8.400927 2.618731
-0.477779 -0.801482 -0.250019
-2.801268 -4.697307 0.095465
-0.580084 -0.972328 -0.261393
-5.059557 -8.477393 0.517393
-0.655006 -1.097476 -0.248433
-5.064018 -8.481503 0.864236
-0.665513 -1.114197 -0.205555
-5.067769 -8.481053 1.213088
-2.849860 -4.767433 -0.681981
-5.065172 -8.469996 1.563093
-2.874465 -4.806688 -0.489990
-5.042615 -8.428932 1.909235
-2.686242 -4.488385 -0.274136
-5.046293 -8.428407 2.267956
-2.759933 -4.607860 -0.093754
-5.030303 -8.395043 2.622355
-0.486544 -0.809745 -0.253125
-2.802194 -4.661791 0.094941
-0.589500 -0.980317 -0.264093
-5.095296 -8.469949 0.518021
-0.664905 -1.105276 -0.250723
-5.101811 -8.477431 0.865631
-0.663285 -1.101713 -0.203678
-5.105533 -8.476916 1.215037
-2.862386 -4.750655 -0.681006
-5.107964 -8.474258 1.567161
-2.796600 -4.639638 -0.473953
-5.072005 -8.411280 1.909235
-2.734906 -4.533706 -0.277485
-5.077699 -8.414075 2.268856
-2.810105 -4.654691 -0.094906
-5.075556 -8.403892 2.630637
-0.479360 -0.791517 -0.247949
-2.815341 -4.646851 0.094836
-0.584837 -0.964921 -0.260493
-5.137257 -8.472605 0.519277
-0.670795 -1.106306 -0.251486
-5.142739 -8.478309 0.867548
-0.671226 -1.106146 -0.204929
-5.139214 -8.465831 1.216012
-2.879982 -4.742331 -0.681250
-5.142642 -8.464818 1.568725
-2.859330 -4.706473 -0.481797
-5.111533 -8.410299 1.913051
-2.751753 -4.525839 -0.277590
-5.119189 -8.416280 2.274255
-5.147488 -8.459475 -0.172849
-5.117917 -8.407577 2.637366
-0.486146 -0.796435 -0.250019
-2.835713 -4.643821 0.094976
-0.586170 -0.959548 -0.259594
-5.173049 -8.464846 0.519905
-0.674652 -1.103958 -0.251486
-5.177499 -8.468804 0.868420
-0.673022 -1.100426 -0.204303
-5.177022 -8.461387 1.217962
-2.890300 -4.722090 -0.679787
-5.186600 -8.470400 1.573105
-2.919440 -4.767828 -0.489118
-5.149062 -8.405801 1.916104
-2.816581 -4.596244 -0.282510
-5.146500 -8.395038 2.273355
-5.187438 -8.458503 -0.173198
-5.154305 -8.401186 2.640990
-0.497021 -0.807896 -0.254160
-2.848762 -4.628786 0.094871
-0.593603 -0.964134 -0.261393
-5.205709 -8.451839 0.520219
-0.674384 -1.094910 -0.249960
-5.221662 -8.474428 0.870860
-0.683078 -1.108160 -0.206181
-5.220071 -8.465229 1.221131
-2.878626 -4.666357 -0.673206
-5.216136 -8.452244 1.573105
-2.960131 -4.796606 -0.493127
-5.192811 -8.411162 1.921447
-5.070149 -8.209271 -0.505670
-5.188065 -8.396914 2.278754
-5.223241 -8.450550 -0.173407
-5.194776 -8.401217 2.646684
-0.485586 -0.783171 -0.246913
-2.870173 -4.627310 0.095046
-0.601075 -0.968679 -0.263193
-5.244658 -8.448889 0.521161
-0.684414 -1.102557 -0.252250
-5.251212 -8.456149 0.870860
-0.693197 -1.115836 -0.208058
-5.255876 -8.457072 1.222593
-3.138060 -5.047394 -0.729754
-5.257084 -8.452435 1.576547
-5.257113 -8.452481 -0.870860
-5.226289 -8.399652 1.922973
-5.268698 -8.464518 -0.522522
-5.225585 -8.391988 2.282353
-5.262223 -8.447541 -0.173721
-5.221004 -8.378115 2.645131
-0.498554 -0.797854 -0.252090
-2.883126 -4.612177 0.094941
-0.611685 -0.978141 -0.266342
-5.287890 -8.452540 0.522522
-0.691382 -1.105154 -0.253394
-5.288096 -8.449590 0.872080
-0.688701 -1.100015 -0.205555
-5.299063 -8.460545 1.225762
-3.152498 -5.031363 -0.729023
-5.296000 -8.449098 1.579363
-5.297167 -8.450960 -0.872603
-5.261836 -8.391337 1.925263
-5.309887 -8.464686 -0.523674
-5.268312 -8.395154 2.288202
-5.299121 -8.440976 -0.173966
-5.256383 -8.369655 2.648237
-0.505454 -0.802647 -0.254160
-2.896011 -4.597009 0.094836
-0.605744 -0.961162 -0.262293
-5.328013 -8.450928 0.523569
-0.700471 -1.111038 -0.255302
-5.326059 -8.444562 0.873475
-0.695699 -1.102617 -0.206494
-5.324323 -8.435282 1.224787
-5.407406 -8.563594 -1.243555
-5.334955 -8.445588 1.582178
-5.335148 -8.445894 -0.873998
-5.299486 -8.386197 1.928316
-5.337268 -8.442722 -0.523464
-5.305918 -8.389889 2.291801
-5.334968 -8.432567 -0.174175
-5.291765 -8.361049 2.651342
-0.508253 -0.800878 -0.254160
-2.935619 -4.624012 0.095604
-0.615364 -0.968912 -0.264992
-5.360695 -8.437333 0.523883
-0.700133 -1.101958 -0.253776
-5.368329 -8.446096 0.875567
-0.701664 -1.103516 -0.207119
-5.368653 -8.440093 1.228199
-5.371827 -8.438581 1.584368
-5.356035 -8.413774 -0.872603
-5.332945 -8.374270 1.929842
-5.374218 -8.435832 -0.524197
-5.335170 -8.371318 2.291801
-5.372972 -8.427382 -0.174454
-5.332346 -8.360443 2.657037
-0.504800 -0.789334 -0.251054
-2.975451 -4.650795 0.096372
-0.616642 -0.963475 -0.264093
-5.394027 -8.427922 0.524406
-0.701858 -1.096201 -0.253013
-5.408526 -8.444084 0.877310
-0.718300 -1.121018 -0.210874
-5.407722 -8.436344 1.230393
-4.689111 -7.312463 -1.066601
-5.406179 -8.430698 1.586246
-4.682888 -7.299950 -0.758778
-5.381228 -8.385346 1.936711
-5.415499 -8.435510 -0.525348
-5.375944 -8.370679 2.296750
-5.406291 -8.417931 -0.174629
-5.376747 -8.368720 2.665318
-0.505459 -0.784320 -0.250019
-5.436839 -8.436323 0.175187
-0.624057 -0.967976 -0.265892
-5.439651 -8.434219 0.525976
-0.707809 -1.097043 -0.253776
-5.440129 -8.428501 0.877658
-0.725227 -1.123609 -0.211812
-5.441053 -8.426703 1.231612
-4.724105 -7.313548 -1.069038
-5.446296 -8.428367 1.589374
-4.705095 -7.278541 -0.758255
-5.419664 -8.383943 1.940528
-5.457542 -8.439306 -0.526709
-5.422724 -8.382258 2.304848
-5.437814 -8.402367 -0.174699
-5.409079 -8.354764 2.666872
-0.520680 -0.802084 -0.256231
-5.469522 -8.422324 0.175292
-0.631679 -0.972329 -0.267692
-5.475588 -8.425227 0.526604
-0.713583 -1.097982 -0.254539
-5.478909 -8.427118 0.879401
-0.720529 -1.107823 -0.209309
-5.485590 -8.430953 1.235024
-4.725782 -7.260410 -1.063676
-5.486462 -8.425858 1.592503
-4.725944 -7.257888 -0.757732
-5.444611 -8.358394 1.939001
-5.494600 -8.431918 -0.527442
-5.460464 -8.376338 2.308448
-5.483498 -8.408458 -0.175222
-5.448762 -8.352014 2.672048
-0.525592 -0.803495 -0.257266
-5.508742 -8.418240 0.175606
-0.630800 -0.963596 -0.265892
-5.517002 -8.424442 0.527756
-0.726016 -1.108624 -0.257592
-5.514843 -8.417941 0.880447
-0.733054 -1.118519 -0.211812
-5.518252 -8.416734 1.235755
-4.770694 -7.273749 -1.068063
-5.527761 -8.424823 1.595945
-4.749064 -7.238016 -0.757383
-5.493145 -8.368880 1.945870
-5.530578 -8.422705 -0.528070
-5.498230 -8.370256 2.312047
-5.525991 -8.409321 -0.175641
-5.487435 -8.347471 2.676707
-0.530520 -0.804881 -0.258301
-5.549101 -8.415656 0.175955
-0.638452 -0.967895 -0.267692
-5.552975 -8.415135 0.528384
-0.734207 -1.112638 -0.259119
-5.559561 -8.421918 0.882888
-0.742397 -1.124195 -0.213377
-5.555258 -8.409014 1.237461
-4.815756 -7.286861 -1.072450
-5.564762 -8.417010 1.598135
-4.794079 -7.251310 -0.760521
-5.533155 -8.366029 1.949686
-5.570966 -8.420005 -0.529117
-5.529565 -8.354263 2.312947
-5.564144 -8.403319 -0.175920
-5.528275 -8.345982 2.682401
-0.529051 -0.796587 -0.256231
-5.590618 -8.414555 0.176339
-0.642905 -0.967283 -0.268142
-5.594478 -8.413996 0.529535
-0.730477 -1.098624 -0.256447
-5.602167 -8.422367 0.884979
-0.743033 -1.116663 -0.212438
-5.604375 -8.419317 1.241849
-5.715872 -8.583565 -1.266223
-5.600680 -8.407398 1.600012
-5.603627 -8.411821 -0.884282
-5.577567 -8.369536 1.955029
-5.604754 -8.407154 -0.529535
-5.566263 -8.346259 2.316096
-5.595663 -8.387172 -0.175990
-5.568099 -8.342702 2.687577
-0.525382 -0.785102 -0.253125
-5.632191 -8.413268 0.176723
-0.647362 -0.966653 -0.268592
-5.640491 -8.419305 0.531105
-0.732122 -1.092805 -0.255684
-5.641513 -8.417658 0.886548
-0.757927 -1.130470 -0.215567
-5.645895 -8.417836 1.244530
-5.759073 -8.583342 -1.269147
-5.641000 -8.404200 1.603141
-5.647388 -8.413717 -0.886548
-5.615503 -8.363054 1.958082
-5.641864 -8.399145 -0.530268
-5.605145 -8.341335 2.320145
-5.636062 -8.384184 -0.176339
-5.596108 -8.321612 2.687060
-0.538919 -0.799281 -0.258301
-5.663761 -8.396872 0.176793
-0.655092 -0.970849 -0.270391
-5.676548 -8.409498 0.531733
-0.738129 -1.093498 -0.256447
-5.675323 -8.404518 0.887245
-0.748599 -1.108174 -0.211812
-5.685246 -8.412881 1.246724
-5.793446 -8.569765 -1.270122
-5.683584 -8.404093 1.606895
-5.689003 -8.412106 -0.888466
-5.642459 -8.340151 1.957319
-5.692417 -8.410826 -0.532257
-5.649523 -8.344311 2.326444
-5.688844 -8.399229 -0.177072
-5.634875 -8.316421 2.691718
-0.524336 -0.771828 -0.250019
-5.712145 -8.405168 0.177386
-0.650808 -0.957275 -0.267242
-5.719347 -8.409450 0.532989
-0.748566 -1.100655 -0.258737
-5.711350 -8.394540 0.888291
-0.752463 -1.105555 -0.211812
-5.719049 -8.399547 1.247699
-5.825558 -8.552772 -1.270610
-5.721781 -8.397262 1.609398
-5.726184 -8.403723 -0.889686
-5.678175 -8.330136 1.959608
-5.721742 -8.390904 -0.532257
-5.681909 -8.329370 2.327794
-5.724891 -8.389230 -0.177282
-5.684566 -8.327015 2.701553
-0.531392 -0.776369 -0.252090
-5.748229 -8.395077 0.177596
-0.651943 -0.951782 -0.266342
-5.752054 -8.394377 0.533303
-0.750184 -1.094796 -0.257974
-5.754136 -8.394273 0.890383
-0.759669 -1.107809 -0.212751
-5.753947 -8.387717 1.248917
-5.866610 -8.548752 -1.273047
-5.767829 -8.401667 1.614091
-5.766760 -8.400109 -0.891429
-5.724999 -8.336160 1.965714
-5.764567 -8.390636 -0.533513
-5.718678 -8.320726 2.330943
-5.763202 -8.382379 -0.177561
-5.724543 -8.323039 2.706730
-0.540679 -0.784052 -0.255196
-5.791124 -8.394713 0.178015
-0.666330 -0.965539 -0.270841
-5.790399 -8.387396 0.534141
-0.754001 -1.092171 -0.257974
-5.796989 -8.393808 0.892475
-0.772514 -1.118152 -0.215254
-5.794477 -8.383912 1.251355
-5.912221 -8.551082 -1.276460
-5.798245 -8.383106 1.614404
-5.808514 -8.397953 -0.893346
-5.765234 -8.332270 1.969531
-5.806324 -8.388528 -0.534664
-5.776530 -8.342370 2.342640
-5.807230 -8.383580 -0.178015
-5.765665 -8.320473 2.712424
-0.547822 -0.788506 -0.257266
-5.838652 -8.400720 0.178573
-0.658571 -0.947207 -0.266342
-5.831046 -8.383530 0.535188
-0.760051 -1.092755 -0.258737
-5.833082 -8.383334 0.893521
-0.780926 -1.121934 -0.216505
-5.837319 -8.383183 1.254279
-5.948841 -8.540164 -1.277922
-5.843284 -8.385506 1.618784
-5.845767 -8.389069 -0.894567
-5.807756 -8.331421 1.974110
-5.851565 -8.391144 -0.536130
-5.817880 -8.339737 2.347589
-5.849047 -8.381296 -0.178398
-5.795780 -8.301881 2.712941
-0.546140 -0.780258 -0.255196
-5.870234 -8.383563 0.178643
-0.676408 -0.965652 -0.272191
-5.868298 -8.374574 0.535920
-0.766114 -1.093311 -0.259500
-5.877176 -8.384131 0.895787
-0.782570 -1.115966 -0.215880
-5.880228 -8.382257 1.257204
-5.996861 -8.545345 -1.281822
-5.879329 -8.374758 1.620661
-5.880738 -8.376764 -0.895438
-5.845830 -8.323951 1.977163
-5.894598 -8.390278 -0.537386
-5.851437 -8.325754 2.349389
-5.895520 -8.385365 -0.178922
-5.833614 -8.294239 2.717082
-0.555540 -0.787820 -0.258301
-5.910988 -8.379363 0.178992
-0.670786 -0.950548 -0.268592
-5.912467 -8.375251 0.537281
-0.778983 -1.103462 -0.262553
-5.922498 -8.386350 0.898227
-0.784181 -1.110001 -0.215254
-5.914034 -8.368164 1.258179
-6.023215 -8.519498 -1.281091
-5.923355 -8.375150 1.624729
-5.932952 -8.388720 -0.898924
-5.881655 -8.313110 1.979453
-5.930773 -8.379433 -0.538014
-5.886095 -8.313231 2.351638
-5.943247 -8.390844 -0.179481
-5.875934 -8.292742 2.723294
-0.551574 -0.776426 -0.255196
-5.949469 -8.371718 0.179271
-0.677487 -0.952965 -0.269941
-5.953243 -8.370835 0.538328
-0.782830 -1.100735 -0.262553
-5.956356 -8.372119 0.898924
-0.790341 -1.110476 -0.215880
-5.955873 -8.365257 1.260860
-6.026431 -8.461231 -1.275485
-5.967453 -8.375338 1.628796
-5.974915 -8.385809 -0.900842
-5.924311 -8.311713 1.984032
-5.969263 -8.371688 -0.538851
-5.926395 -8.308499 2.356138
-5.979470 -8.379814 -0.179690
-5.918314 -8.291048 2.729506
-0.565523 -0.790206 -0.260372
-5.991460 -8.368786 0.179655
-0.692157 -0.966438 -0.274440
-5.994057 -8.366241 0.539374
-0.780951 -1.090017 -0.260645
-5.998309 -8.369091 0.900842
-0.781552 -1.090051 -0.212438
-6.010489 -8.379905 1.266223
-6.020051 -8.390146 -1.267929
-6.004718 -8.365689 1.630986
-6.025064 -8.394034 -0.903979
-5.969319 -8.313309 1.989375
-6.013595 -8.371890 -0.540212
-5.956498 -8.289344 2.356587
-6.013354 -8.365386 -0.179830
-5.958498 -8.286023 2.734682
-0.561500 -0.778825 -0.257266
-6.032334 -8.364039 0.180004
-0.690965 -0.957694 -0.272641
-6.033744 -8.359842 0.540316
-0.796241 -1.103203 -0.264461
-6.041482 -8.367486 0.902933
-5.897656 -8.165282 -1.595319
-6.045516 -8.366919 1.267441
-6.116752 -8.462391 -1.282066
-6.037353 -8.349480 1.631925
-6.092852 -8.426233 -0.909732
-6.005206 -8.301966 1.991664
-6.082592 -8.405860 -0.543771
-5.999107 -8.287445 2.361986
-6.064802 -8.375117 -0.180493
-6.002119 -8.285511 2.741411
-0.552862 -0.761229 -0.252090
-6.076774 -8.363962 0.180458
-0.703470 -0.967888 -0.276240
-6.072285 -8.351653 0.541154
-0.801241 -1.102005 -0.264843
-6.082373 -8.362458 0.904677
-5.933095 -8.154229 -1.597196
-6.086368 -8.361814 1.269879
-6.160274 -8.460247 -1.284990
-6.085073 -8.353901 1.636930
-6.150384 -8.443563 -0.913915
-6.043396 -8.293647 1.994717
-6.155427 -8.444295 -0.547643
-6.038335 -8.280622 2.366035
-6.159996 -8.444366 -0.182447
-6.045806 -8.284797 2.748141
-0.576049 -0.787359 -0.261407
-6.168527 -8.428225 0.182308
-0.704541 -0.962281 -0.275340
-6.143887 -8.388412 0.544922
-0.812043 -1.108704 -0.267133
-6.137433 -8.376534 0.908511
-5.973201 -8.149402 -1.600325
-6.131953 -8.362930 1.273291
-6.222643 -8.483510 -1.291815
-6.128219 -8.351722 1.640685
-6.210464 -8.463808 -0.918447
-6.083928 -8.288328 1.998534
-6.208509 -8.454952 -0.549737
-6.098351 -8.301901 2.378183
-6.206010 -8.445372 -0.182936
-6.088422 -8.282320 2.754352
-0.583378 -0.791564 -0.263478
-6.219270 -8.435612 0.182936
-0.703269 -0.953543 -0.273540
-6.225305 -8.437631 0.549528
-0.819405 -1.110603 -0.268277
-6.229343 -8.440021 0.917750
-6.016864 -8.149160 -1.604392
-6.245140 -8.452158 -1.290353
-6.217216 -8.411294 1.656641
-6.257734 -8.466111 -0.921062
-6.136167 -8.298612 2.006166
-6.249860 -8.449287 -0.550784
-6.143521 -8.302494 2.384481
-6.260437 -8.457409 -0.183669
-6.132240 -8.281201 2.761082
-0.576925 -0.777114 -0.259337
-6.268947 -8.441144 0.183530
-0.720539 -0.969854 -0.278939
-6.272308 -8.442592 0.551202
-0.809224 -1.088827 -0.263698
-6.299184 -8.472587 0.923677
-6.052347 -8.137618 -1.606269
-18.450882 -24.798895 3.795255
-6.291199 -8.452600 -1.293765
-16.708967 -22.449493 4.432415
-6.292008 -8.450608 -0.921759
-6.162752 -8.273993 2.005403
-6.300797 -8.456248 -0.552668
-6.173629 -8.282560 2.384931
-6.293229 -8.443016 -0.183809
-6.170062 -8.274759 2.765740
-0.588890 -0.787472 -0.263478
-6.313670 -8.442727 0.184018
-0.727254 -0.972140 -0.280289
-6.320887 -8.446230 0.552877
-0.813020 -1.085996 -0.263698
-6.087587 -8.128572 -1.608459
-18.473509 -24.658138 3.783068
-6.343004 -8.463461 -1.298640
-16.801451 -22.409998 4.436169
-15.216712 -20.288876 -2.218811
-6.209003 -8.278641 2.011509
-6.211590 -8.276071 2.388980
-6.357481 -8.467372 -0.184821
-6.194267 -8.246992 2.763670
-0.575229 -0.763909 -0.256231
-6.361148 -8.444597 0.184542
-0.728297 -0.966483 -0.279389
-6.370769 -8.451229 0.554657
-0.802435 -1.064481 -0.259119
-6.124254 -8.118310 -1.610649
-18.439892 -24.435049 3.758695
-6.379685 -8.450774 -1.300102
-16.884336 -22.357519 4.437420
-15.299451 -20.251532 -2.220554
-6.256798 -8.281981 2.017614
-16.982924 -22.471752 -1.476188
-6.258070 -8.277655 2.395729
-6.234673 -8.240726 2.768846
-0.582696 -0.767952 -0.258301
-0.729310 -0.960830 -0.278489
-5.183558 -6.824139 -1.665763
-6.158750 -8.102100 -1.611901
-6.423564 -8.447414 -1.303027
-17.000542 -22.348759 4.447433
-15.403832 -20.242397 -2.225435
-6.284733 -8.255868 2.016851
-6.291909 -8.259312 2.397078
-6.291503 -8.255789 2.781270
-0.587719 -0.768983 -0.259337
-0.730459 -0.955055 -0.277590
-5.209733 -6.809122 -1.666526
-17.175016 -22.439625 2.472260
-6.195398 -8.091533 -1.614091
-18.372854 -23.987289 3.709947
-6.456897 -8.426966 -1.303515
-17.072725 -22.273754 4.444930
-6.344572 -8.274388 2.026773
-6.325447 -8.243483 2.398878
-6.340546 -8.257190 2.789552
-0.595114 -0.773050 -0.261407
-9.981675 -12.961472 0.285556
-0.738545 -0.958675 -0.279389
-7.906318 -10.259154 0.678797
-5.235867 -6.794005 -1.667289
-17.253237 -22.379539 2.472260
-6.230843 -8.079243 -1.615968
-6.508103 -8.432664 -1.307902
-17.215559 -22.298458 4.461824
-10.012113 -12.968192 -1.433363
-6.385418 -8.267728 2.030589
-10.085080 -13.053282 -0.864485
-6.369676 -8.241397 2.404727
-10.097054 -13.059349 -0.288139
-6.387057 -8.257930 2.797316
-0.581236 -0.749594 -0.254160
-0.746666 -0.962249 -0.281189
-5.259551 -6.775687 -1.667289
-17.331251 -22.319178 2.472260
-6.263855 -8.063684 -1.617220
-6.550648 -8.429846 -1.310827
-17.330629 -22.294273 4.472462
-6.423881 -8.257786 2.033643
-6.420907 -8.250988 2.413725
-6.410845 -8.232131 2.795763
-0.595607 -0.762890 -0.259337
-0.757051 -0.968982 -0.283888
-5.283199 -6.759755 -1.667671
-6.288126 -8.039755 -1.616594
-6.593245 -8.426837 -1.313752
-15.887812 -20.291641 -2.254719
-6.463336 -8.251893 2.037459
-17.466146 -22.291416 -1.484143
-6.475878 -8.264931 2.424073
-6.451221 -8.227549 2.801457
-0.600521 -0.763949 -0.260372
-19.731539 -25.092340 0.557186
-0.755441 -0.960339 -0.282089
-17.636303 -22.411745 1.494610
-5.309190 -6.744358 -1.668434
-5.737907 -7.286345 -1.468920
-5.772368 -7.324846 -1.145085
-6.668712 -8.459222 1.706074
-5.715961 -7.248059 -0.807585
-6.501831 -8.241611 2.040511
-6.511929 -8.251454 2.426772
-6.488285 -8.215590 2.805081
-0.605715 -0.764771 -0.261407
-19.699196 -24.863111 0.553695
-0.763797 -0.963673 -0.283888
-17.718328 -22.346952 1.494610
-5.350956 -6.746387 -1.673777
-5.740016 -7.234317 -1.462662
-5.757208 -7.250781 -1.136797
-6.687384 -8.419256 1.702946
-5.752404 -7.239541 -0.808980
-6.536879 -8.223874 2.042038
-5.773968 -7.261475 -0.486201
-6.548193 -8.235158 2.429021
-6.533988 -8.211408 2.811810
-0.608514 -0.762546 -0.261407
-0.769757 -0.963912 -0.284788
-17.835016 -22.325560 1.497541
-5.372020 -6.724601 -1.673013
-5.773895 -7.222486 -1.464540
-20.172974 -25.225079 3.965872
-5.813508 -7.266834 -1.142647
-6.720668 -8.397772 1.703572
-5.777640 -7.219417 -0.808980
-6.599901 -8.243919 2.052723
-6.585644 -8.220227 2.431721
-6.588209 -8.217550 2.822163
-0.618434 -0.769452 -0.264513
-0.785330 -0.976405 -0.289287
-17.940384 -22.297401 1.499844
-5.397923 -6.708867 -1.673777
-5.813939 -7.220751 -1.468294
-5.801473 -7.200124 -1.135335
-6.744983 -8.368111 1.702320
-5.805305 -7.202307 -0.809328
-6.650818 -8.248343 2.059592
-5.847093 -7.248970 -0.488085
-6.631430 -8.218421 2.438020
-6.627777 -8.208030 2.826822
-0.625978 -0.773295 -0.266584
-18.014698 -22.246304 0.499662
-0.783827 -0.967601 -0.287487
-18.010569 -22.225327 1.499216
-5.436142 -6.708286 -1.678356
-5.881410 -7.252580 -1.478932
-5.864098 -7.226071 -1.142647
-6.789090 -8.362920 1.706074
-5.837944 -7.191281 -0.810374
-6.691947 -8.240314 2.063409
-6.671137 -8.208837 2.442069
-6.666139 -8.196835 2.830963
-0.614025 -0.753137 -0.260372
-18.102354 -22.195683 0.499942
-0.782272 -0.958819 -0.285688
-18.148657 -22.236593 1.504240
-5.457043 -6.686227 -1.677593
-6.502733 -7.961785 -1.628170
-6.864130 -8.398287 -1.331788
-6.840749 -8.366695 1.711706
-6.720671 -8.216905 2.063409
-6.726907 -8.218674 2.451967
-30.073492 -36.729542 -0.828605
-6.713070 -8.195934 2.838727
-0.624006 -0.759948 -0.263478
-18.189875 -22.144720 0.500221
-0.793038 -0.965116 -0.288387
-18.271820 -22.228657 1.508008
-5.494061 -6.683822 -1.681790
-6.545545 -7.957342 -1.631925
-6.906022 -8.389603 -1.334226
-6.882470 -8.358015 1.714835
-6.756800 -8.202489 2.065698
-18.230373 -22.123085 -1.502356
-6.767951 -8.210179 2.456465
-6.753935 -8.187353 2.843904
-0.626655 -0.757765 -0.263478
-18.328241 -22.155052 0.501896
-0.798886 -0.965344 -0.289287
-18.354395 -22.170893 1.508427
-5.511099 -6.657042 -1.679883
-6.583362 -7.946617 -1.634428
-6.950470 -8.383781 -1.337150
-6.876293 -8.291366 1.706074
-6.805449 -8.203029 2.071804
-18.307493 -22.059311 -1.502356
-6.811504 -8.204498 2.461864
-18.536837 -22.319805 -0.506434
-6.794818 -8.178586 2.849080
-0.609514 -0.731822 -0.255196
-18.413153 -22.100151 0.502106
-0.807242 -0.968538 -0.291087
-18.454699 -22.134302 1.510311
-5.540589 -6.645303 -1.681790
-6.616123 -7.929655 -1.635679
-19.870024 -23.806473 3.807442
-6.992414 -8.374707 -1.339588
-6.902661 -8.264280 1.705449
-6.859217 -8.209354 2.079437
-18.384378 -21.995274 -1.502356
-6.858852 -8.203096 2.468613
-18.612074 -22.251890 -0.506364
-6.848117 -8.184452 2.859433
-0.634413 -0.756332 -0.264513
-8.592762 -10.240455 0.233339
-0.818135 -0.974670 -0.293786
-18.603771 -22.155401 1.516173
-5.570064 -6.633440 -1.683699
-6.647575 -7.911049 -1.636618
-19.825274 -23.585012 3.783068
-7.036936 -8.368481 -1.342513
-6.944183 -8.255253 1.708578
-6.900471 -8.200382 2.083253
-18.525354 -22.007364 -1.507590
-6.893720 -8.186557 2.470862
-18.743738 -22.251024 -0.507830
-6.889094 -8.175270 2.864609
-0.642036 -0.760015 -0.266584
-8.651690 -10.237890 0.233967
-0.824048 -0.974785 -0.294686
-18.718397 -22.142401 1.519522
-5.602059 -6.624450 -1.686370
-6.680252 -7.893829 -1.637869
-7.092865 -8.378431 -1.347875
-6.991946 -8.256298 1.713583
-16.990753 -20.056091 -2.299691
-6.934132 -8.182237 2.084779
-7.166760 -8.453744 -0.580824
-6.943513 -8.190408 2.478961
-6.931164 -8.170057 2.870821
-0.649558 -0.763769 -0.268654
-18.808201 -22.107372 0.506643
-0.822224 -0.966110 -0.292886
-18.807255 -22.098455 1.520778
-5.631632 -6.614805 -1.688660
-6.719203 -7.886670 -1.640998
-19.774179 -23.201744 3.743095
-7.118035 -8.351842 -1.347388
-7.042356 -8.260124 1.719215
-6.996906 -8.201015 2.095464
-6.973166 -8.170302 2.479860
-6.979548 -8.172000 2.879621
-0.644549 -0.752806 -0.265548
-18.881407 -22.044880 0.506643
-0.827959 -0.966338 -0.293786
-18.975262 -22.138824 1.528105
-5.649704 -6.591623 -1.687515
-6.747892 -7.867343 -1.641623
-19.675209 -22.931156 3.709947
-7.170418 -8.354059 -1.351775
-7.081439 -8.247482 1.721718
-7.172440 -8.350515 -0.963071
-7.024064 -8.177768 2.095464
-7.181018 -8.357551 -0.577475
-7.032127 -8.181381 2.490658
-7.244848 -8.425887 -0.193966
-7.020628 -8.162232 2.884797
-0.647304 -0.750438 -0.265548
-7.213666 -8.363013 0.192779
-0.844058 -0.978196 -0.298285
-5.677674 -6.575329 -1.688660
-6.789599 -7.857504 -1.644752
-7.222900 -8.356011 -1.356162
-7.125690 -8.240644 1.725472
-7.221097 -8.348031 -0.965686
-7.074542 -8.175724 2.101570
-7.203757 -8.322117 -0.576847
-7.073549 -8.168808 2.494707
-7.227091 -8.346125 -0.192709
-7.054134 -8.143519 2.886868
-0.649920 -0.748174 -0.265548
-7.241646 -8.333499 0.192709
-0.857866 -0.986862 -0.301884
-7.259318 -8.347948 0.579778
-5.704456 -6.559914 -1.689804
-6.816984 -7.833757 -1.644752
-7.266517 -8.344451 -1.358600
-7.166226 -8.226388 1.727975
-7.265896 -8.340803 -0.967777
-7.110777 -8.159860 2.103860
-7.259014 -8.327028 -0.578940
-7.135320 -8.182256 2.506405
-7.270776 -8.334651 -0.193059
-7.106800 -8.143807 2.896185
-0.652527 -0.745901 -0.265548
-7.287812 -8.327733 0.193163
-0.853604 -0.975064 -0.299185
-7.304204 -8.340589 0.581034
-5.736375 -6.550302 -1.692476
-6.854702 -7.821797 -1.647255
-7.311305 -8.336946 -1.361524
-7.218347 -8.228051 1.733607
-7.306792 -8.328869 -0.969346
-7.157349 -8.155645 2.109203
-7.305164 -8.321153 -0.580301
-7.166410 -8.160229 2.507304
-7.318305 -8.330250 -0.193547
-7.160690 -8.147973 2.906538
-0.667897 -0.758114 -0.270725
-7.330058 -8.317245 0.193512
-0.867312 -0.983772 -0.302784
-7.341200 -8.324028 0.581662
-5.769593 -6.542017 -1.695529
-6.892421 -7.809670 -1.649758
-19.408831 -21.984041 3.600752
-7.348246 -8.320302 -1.362987
-7.270566 -8.229451 1.739239
-7.349013 -8.318244 -0.971089
-7.216974 -8.165918 2.118361
-7.338135 -8.300091 -0.580615
-7.203889 -8.145381 2.510454
-7.357939 -8.316636 -0.193826
-7.205731 -8.141736 2.913267
-0.662847 -0.747108 -0.267619
-7.367010 -8.300581 0.193722
-0.868153 -0.977825 -0.301884
-7.378170 -8.307312 0.582290
-5.783268 -6.511562 -1.692858
-6.922263 -7.788519 -1.650384
-9.321818 -10.480981 -1.722258
-7.322883 -8.230585 1.744870
-17.604704 -19.786882 -2.317122
-7.253266 -8.149476 2.120651
-7.385657 -8.295309 -0.582081
-7.243944 -8.133280 2.514503
-7.418849 -8.326735 -0.194664
-7.252102 -8.136724 2.920514
-0.665451 -0.744789 -0.267619
-7.439914 -8.324018 0.194874
-0.880653 -0.984957 -0.305034
-7.415112 -8.290439 0.582918
-5.813815 -6.500115 -1.695147
-7.427701 -8.301601 0.974575
-6.959949 -7.776082 -1.652887
-7.437814 -8.307063 1.369080
-9.326558 -10.412891 -1.716408
-7.356842 -8.210859 1.746122
-17.686962 -19.740150 -2.318866
-7.307877 -8.153347 2.128284
-19.537069 -21.789728 -1.533758
-7.307421 -8.147115 2.526650
-7.285625 -8.117108 2.922585
-0.670631 -0.745334 -0.268654
-0.885390 -0.983325 -0.305484
-7.502819 -8.329803 0.587524
-5.840409 -6.484158 -1.696292
-7.491313 -8.314106 0.979108
-6.992341 -7.757608 -1.654138
-7.485374 -8.301691 1.372493
-9.320307 -10.333100 -1.708608
-7.419865 -8.223260 1.754256
-17.742414 -19.663496 -2.317122
-7.354707 -8.148192 2.133626
-19.655848 -21.768829 -1.537107
-7.358021 -8.146142 2.534299
-7.337230 -8.117425 2.931902
-0.668040 -0.737263 -0.266584
-0.891435 -0.983116 -0.306383
-19.750811 -21.774475 1.540666
-5.873560 -6.475365 -1.699345
-7.029996 -7.744855 -1.656641
-19.745909 -21.746183 3.606602
-9.364327 -10.309319 -1.710071
-7.451179 -8.200235 1.754882
-17.864536 -19.660433 -2.324095
-7.380466 -8.119563 2.132863
-19.755901 -21.726683 -1.538991
-7.398213 -8.133381 2.538348
-7.390228 -8.118908 2.941737
-0.686235 -0.752051 -0.272795
-19.886435 -21.786064 0.514881
-0.900117 -0.985755 -0.308183
-19.840172 -21.720142 1.541713
-5.905397 -6.464968 -1.702016
-7.059655 -7.723186 -1.657267
-19.845814 -21.703487 3.610989
-10.043373 -10.979643 -1.827065
-7.487759 -8.182920 1.756759
-17.981474 -19.650869 -2.330370
-7.432625 -8.119818 2.139732
-19.855902 -21.684101 -1.540875
-7.438404 -8.120442 2.542397
-7.443326 -8.120119 2.951572
-0.678399 -0.738271 -0.268654
-19.981308 -21.737127 0.515370
-0.906191 -0.985476 -0.309083
-19.931011 -21.674816 1.543178
-5.929257 -6.445762 -1.702398
-7.094598 -7.707216 -1.659144
-19.969864 -21.686651 3.619764
-10.144276 -11.016369 -1.838765
-7.509500 -8.152232 1.755508
-18.055367 -19.593840 -2.331068
-7.495521 -8.131355 2.149654
-20.015411 -21.705700 -1.547365
-7.477181 -8.108624 2.546446
-7.479383 -8.105330 2.955196
-0.678220 -0.733181 -0.267619
-20.083162 -21.703035 0.516137
-0.914749 -0.988185 -0.310882
-20.086897 -21.699472 1.549668
-5.954601 -6.430385 -1.703543
-7.133544 -7.698136 -1.662273
-20.055162 -21.634867 3.622201
-10.234733 -11.040901 -1.848514
-7.533806 -8.124389 1.754882
-18.169016 -19.586443 -2.337343
-7.538470 -8.123723 2.154234
-20.079128 -21.630423 -1.546737
-7.525243 -8.106635 2.553644
-7.510166 -8.084729 2.956749
-0.685914 -0.736583 -0.269689
-20.149570 -21.630465 0.515998
-0.923335 -0.990849 -0.312682
-20.195202 -21.664293 1.552180
-5.987939 -6.423530 -1.706977
-7.161727 -7.677326 -1.662899
-20.172844 -21.617586 3.630488
-10.452014 -11.196654 -1.880688
-7.570210 -8.106703 1.756759
-18.240002 -19.525810 -2.337691
-7.581449 -8.115895 2.158813
-20.254385 -21.674622 -1.554692
-7.590757 -8.120179 2.566242
-7.555496 -8.076806 2.963478
-0.688609 -0.734064 -0.269689
-20.241371 -21.577499 0.516417
-0.920121 -0.980515 -0.310432
-20.339054 -21.666470 1.557414
-6.014132 -6.404400 -1.707741
-7.197935 -7.659663 -1.664776
-20.286240 -21.587547 3.637313
-9.862876 -10.491883 -1.768081
-7.630939 -8.114768 1.764268
-18.327156 -19.482344 -2.340132
-7.624598 -8.102352 2.162629
-20.306316 -21.571152 -1.552599
-7.643179 -8.116420 2.573890
-33.778091 -35.869522 -0.860020
-7.626032 -8.095381 2.980043
-0.704433 -0.745699 -0.274866
-20.386240 -21.572933 0.518092
-0.921031 -0.974304 -0.309533
-20.363432 -21.533735 1.553227
-6.051288 -6.399060 -1.711938
-7.227344 -7.637360 -1.665402
-20.419813 -21.570713 3.647062
-9.824830 -10.374948 -1.754431
-7.679649 -8.106819 1.768648
-8.888543 -9.382957 -1.130759
-7.682542 -8.107038 2.171025
-20.436449 -21.558121 -1.556786
-7.683533 -8.102418 2.577939
-7.679588 -8.092599 2.989360
-0.704369 -0.740436 -0.273831
-20.480726 -21.521915 0.518581
-0.912333 -0.958380 -0.305484
-20.545910 -21.575338 1.561391
-6.069526 -6.373633 -1.710794
-7.275764 -7.634965 -1.670407
-20.527853 -21.533792 3.652912
-9.860985 -10.340589 -1.754431
-7.729717 -8.102832 1.773654
-8.932244 -9.363405 -1.132153
-7.724349 -8.094376 2.174841
-20.552950 -21.529993 -1.559926
-7.721190 -8.085413 2.581089
-34.172031 -35.771488 -0.863510
-7.721137 -8.079710 2.994536
-0.696258 -0.726812 -0.269689
-20.597229 -21.493612 0.519628
-0.939947 -0.980511 -0.313582
-20.651514 -21.535198 1.563694
-6.093098 -6.353823 -1.711175
-7.310575 -7.618075 -1.672285
-20.671638 -21.533602 3.665099
-10.859498 -11.308365 -1.925048
-7.774374 -8.092897 1.777409
-8.973154 -9.340792 -1.133199
-7.777043 -8.092843 2.181710
-20.669502 -21.501312 -1.563066
-7.760171 -8.069651 2.584688
-7.761350 -8.065236 2.999195
-0.698791 -0.724378 -0.269689
-20.758224 -21.510798 0.521792
-0.946071 -0.980028 -0.314482
-20.743212 -21.480219 1.564950
-6.127514 -6.345225 -1.714610
-7.339870 -7.595349 -1.672910
-20.771513 -21.487001 3.669486
-10.614633 -10.976432 -1.874838
-7.819060 -8.082746 1.781163
-18.759466 -19.392099 -2.360526
-7.824359 -8.085399 2.187053
-20.772211 -21.457737 -1.565159
-7.814052 -8.069110 2.593236
