# This PCD file was generated using the MATLAB® pcwrite function
# from Computer Vision Toolbox®.
# .PCD v.7 - Point Cloud Data file format
VERSION .7
FIELDS x y z
SIZE 4 4 4
TYPE F F F
COUNT 1 1 1
WIDTH 1704
HEIGHT 1
VIEWPOINT 0 0 0 1 0 0 0
POINTS 1704
DATA ascii
6.782006 7.757944 -0.179865
6.793574 7.768446 2.765223
3.710993 4.233066 -1.508397
6.798139 7.751791 0.179969
4.222999 4.813717 -1.478378
4.519475 5.149847 -1.331847
14.276325 16.261847 1.893197
5.243949 5.971170 -1.258672
7.065715 8.042735 1.314483
6.436804 7.324284 -1.197245
6.826497 7.767705 1.637869
6.815619 7.752599 -0.903108
6.859904 7.800225 2.019141
6.820478 7.752666 -0.541154
6.845365 7.778217 2.392130
6.824868 7.754927 -0.180318
6.848660 7.779224 2.777128
3.725747 4.220086 -1.508397
6.848955 7.757686 0.180632
4.231200 4.790921 -1.475679
4.542626 5.139923 -1.333373
14.367312 16.250727 1.897729
5.268957 5.959666 -1.259923
8.925597 10.092107 1.654255
6.453167 7.293976 -1.195782
6.864041 7.755664 1.640372
6.869052 7.758597 -0.906594
6.903951 7.798015 2.024484
6.862042 7.747946 -0.542410
6.902134 7.790482 2.402927
6.874443 7.756499 -0.180912
6.916786 7.801525 2.793693
3.721754 4.187493 -1.501150
6.903890 7.765120 0.181365
4.253079 4.781946 -1.477479
9.729952 10.936020 0.767141
4.572695 5.139499 -1.337190
9.726671 10.928502 1.279969
5.281848 5.932384 -1.258046
8.922486 10.017899 1.647186
6.470660 7.262517 -1.194320
6.917361 7.761149 1.646629
6.902699 7.744698 -0.907640
6.955956 7.801709 2.031734
6.922275 7.761214 -0.545027
6.938370 7.776519 2.406076
6.922783 7.756324 -0.181470
6.943971 7.777338 2.793693
3.746655 4.185993 -1.505292
6.941627 7.752890 0.181645
4.264545 4.761263 -1.475679
9.802716 10.940667 0.769862
4.611567 5.146903 -1.343295
14.698342 16.398842 1.926665
5.289338 5.899202 -1.254917
8.922937 9.948272 1.640849
6.498626 7.242840 -1.194807
6.972121 7.767824 1.653200
6.948325 7.741312 -0.910080
6.994948 7.790528 2.035169
6.976019 7.766720 -0.547120
6.996734 7.787040 2.416874
6.983233 7.769294 -0.182343
6.990453 7.774598 2.801457
3.756071 4.167148 -1.503221
6.994088 7.756830 0.182308
4.268084 4.731881 -1.471180
4.634768 5.136602 -1.344822
14.891667 16.498289 1.944445
5.309894 5.880706 -1.254917
8.924346 9.880234 1.634755
6.515885 7.211272 -1.193345
7.020381 7.766892 1.658206
7.010036 7.755446 -0.914612
7.035270 7.780626 2.038985
7.027206 7.768982 -0.549004
7.040864 7.781359 2.422723
7.027758 7.764142 -0.182797
7.046079 7.781653 2.812846
3.765397 4.148293 -1.501150
7.041288 7.754574 0.182831
4.279336 4.711183 -1.469380
4.673790 5.143644 -1.350928
14.772266 16.251600 1.921435
5.327733 5.859211 -1.254292
8.924048 9.810843 1.628418
6.530327 7.176738 -1.191395
7.075377 7.773014 1.664776
7.049137 7.744187 -0.916181
7.088824 7.785050 2.046618
7.055625 7.745883 -0.549109
7.085049 7.775458 2.428571
7.073678 7.760252 -0.183285
7.090118 7.775568 2.819575
3.785070 4.140826 -1.503221
7.091256 7.755034 0.183425
4.314168 4.716347 -1.475679
4.697020 5.133091 -1.352454
15.415445 16.840698 1.997435
5.342815 5.834752 -1.253040
8.923376 9.741576 1.622081
6.548726 7.149190 -1.190420
7.113127 7.762615 1.667592
7.103050 7.748909 -0.919667
7.139834 7.786309 2.053486
7.108275 7.749170 -0.551098
7.133191 7.776332 2.436220
7.121000 7.760331 -0.183844
7.151135 7.790442 2.833551
3.793549 4.122564 -1.501150
7.144019 7.760902 0.184123
4.316585 4.687679 -1.471180
4.725988 5.130481 -1.355889
5.358120 5.812644 -1.252102
8.932758 9.687121 1.617938
6.564326 7.118677 -1.188957
7.166955 7.769477 1.674162
7.148977 7.747274 -0.922282
7.182929 7.781342 2.058447
7.162385 7.756371 -0.553296
7.190666 7.786996 2.447017
7.167050 7.758705 -0.184367
7.191353 7.782290 2.839245
3.807198 4.109962 -1.501150
7.192824 7.762103 0.184716
4.332105 4.673339 -1.471180
4.771008 5.145013 -1.363903
5.365272 5.781812 -1.249286
8.417865 9.068224 1.519223
6.589137 7.095718 -1.188957
7.214196 7.766122 1.678855
7.199035 7.749802 -0.925420
7.232747 7.783368 2.065317
7.215266 7.761831 -0.555389
7.233727 7.778975 2.452416
7.225414 7.767318 -0.185170
7.243482 7.784008 2.849080
3.821520 4.096649 -1.501150
7.241702 7.760341 0.185275
4.332436 4.641094 -1.465781
4.796977 5.136938 -1.366192
15.721136 16.829386 2.014867
5.382725 5.760160 -1.248660
8.422358 9.009779 1.514349
6.611152 7.069776 -1.188470
7.270952 7.772628 1.685738
7.246462 7.746448 -0.928034
7.282679 7.782441 2.071804
7.258693 7.754097 -0.556645
7.292807 7.787814 2.463214
7.266156 7.756640 -0.185519
7.293064 7.782641 2.857880
3.835798 4.083283 -1.501150
7.290656 7.758333 0.185833
4.351278 4.628783 -1.466681
26.539633 28.222340 2.030321
4.838642 5.143631 -1.372680
15.815275 16.812141 2.019399
5.400090 5.738460 -1.248034
8.456476 8.983217 1.514836
6.624900 7.035095 -1.186520
7.327836 7.778835 1.692621
7.303499 7.750289 -0.931695
7.327312 7.772841 2.076384
7.313102 7.755047 -0.558634
7.338667 7.782157 2.469513
7.326119 7.766142 -0.186357
7.345379 7.783830 2.867715
3.849410 4.067794 -1.500633
7.354787 7.769315 0.186741
4.373575 4.618463 -1.468480
26.634645 28.116182 2.029693
4.860164 5.128710 -1.373443
15.887756 16.765627 2.020793
5.418370 5.715761 -1.247409
8.535784 9.001138 1.523123
6.642446 7.002125 -1.185058
7.369897 7.766251 1.695750
7.363403 7.756703 -0.935704
7.384145 7.775827 2.084398
7.373113 7.761497 -0.561041
7.388614 7.777814 2.476711
7.375194 7.760983 -0.186880
7.399148 7.783461 2.877550
3.857629 4.046666 -1.498045
7.406672 7.766909 0.187334
4.374331 4.585482 -1.463082
4.891590 5.125918 -1.377259
5.437918 5.694436 -1.247096
8.585179 8.987012 1.526048
6.664106 6.976022 -1.184570
7.424255 7.769042 1.702007
7.412465 7.753994 -0.938493
7.435668 7.775542 2.091267
7.419487 7.755919 -0.562507
7.449394 7.787182 2.487959
7.424364 7.758306 -0.187439
7.446312 7.778516 2.885315
3.867015 4.029668 -1.496492
7.450388 7.761060 0.187788
4.397613 4.579383 -1.465781
4.931684 5.133736 -1.383747
5.447189 5.666401 -1.244906
8.639699 8.984249 1.530435
6.689954 6.956748 -1.185058
7.480105 7.775702 1.708890
7.457481 7.749468 -0.940933
7.490004 7.780545 2.099281
7.478415 7.765802 -0.565019
7.499506 7.787704 2.496057
7.480574 7.765324 -0.188207
7.504236 7.787167 2.897738
3.889750 4.026552 -1.500115
7.502490 7.763631 0.188451
4.410064 4.561973 -1.464881
4.963690 5.132881 -1.387945
15.632886 16.160084 1.967105
5.459081 5.641211 -1.243341
8.694301 8.981220 1.534823
6.699181 6.920260 -1.182620
7.529212 7.774975 1.714209
7.510862 7.753317 -0.944420
7.541724 7.782451 2.106531
7.518030 7.755299 -0.566066
7.559202 7.797771 2.507304
7.528556 7.763446 -0.188765
7.556923 7.789969 2.908091
3.896348 4.006705 -1.497527
7.557473 7.768811 0.189184
4.422451 4.544530 -1.463982
5.001227 5.137493 -1.393669
15.686385 16.108158 1.967105
5.476380 5.621660 -1.243028
8.056253 8.267094 1.417341
6.716547 6.892325 -1.181645
7.581151 7.776841 1.720154
7.565745 7.758320 -0.948080
7.585307 7.775673 2.111493
7.570208 7.757485 -0.568054
7.610878 7.799161 2.515853
7.586389 7.771346 -0.189568
7.607007 7.789747 2.917408
3.903590 3.983436 -1.494421
7.609647 7.762581 0.189743
4.439867 4.527516 -1.463982
5.019541 5.116851 -1.393287
5.497924 5.600592 -1.243028
8.813972 8.975438 1.544572
6.741379 6.862473 -1.181158
7.640001 7.774523 1.726411
7.623407 7.757637 -0.951566
7.637126 7.768893 2.117598
7.629349 7.758265 -0.570253
7.663991 7.790772 2.523051
7.639960 7.763640 -0.190127
7.669385 7.790814 2.929314
3.907974 3.960160 -1.490798
7.666201 7.765854 0.190476
4.459751 4.516151 -1.465331
9.804297 9.924822 0.731133
5.063587 5.125834 -1.400538
15.753633 15.941714 1.960830
5.516051 5.579963 -1.242715
8.180845 8.272744 1.428553
6.762502 6.836076 -1.180670
7.685153 7.766062 1.730478
7.665854 7.746559 -0.953484
7.711161 7.789623 2.130573
7.687304 7.762805 -0.572555
7.714452 7.787510 2.530699
7.693759 7.763910 -0.190790
7.723737 7.791433 2.939667
3.923136 3.947864 -1.491315
7.708765 7.754653 0.190860
4.474115 4.499173 -1.464881
9.758292 9.812944 0.725272
5.100835 5.127613 -1.405881
5.527135 5.552273 -1.240838
8.924047 8.961506 1.552859
6.773927 6.802361 -1.178720
7.738745 7.768525 1.736736
7.733634 7.760678 -0.958539
7.742465 7.766828 2.131718
7.742558 7.764211 -0.574649
7.776013 7.797760 2.542397
7.759009 7.777992 -0.191767
7.765905 7.782188 2.945879
3.938938 3.937565 -1.492351
7.769802 7.764382 0.191732
4.482116 4.477427 -1.462632
9.742735 9.732541 0.721713
5.130312 5.123156 -1.409315
15.895615 15.867902 1.965013
5.548311 5.536705 -1.241464
8.981825 8.959901 1.557734
6.796449 6.779860 -1.178720
7.795239 7.773505 1.743619
7.794602 7.770156 -0.962897
7.808509 7.781296 2.142785
7.790901 7.761047 -0.576324
7.819775 7.789811 2.548245
7.810263 7.777620 -0.192395
7.825899 7.790463 2.958819
3.949231 3.921759 -1.491315
7.828146 7.770978 0.192535
4.491408 4.457047 -1.460832
9.734108 9.656278 0.718573
5.159816 5.118560 -1.412750
5.562434 5.514102 -1.240525
8.986101 8.904921 1.553347
6.805967 6.742128 -1.176283
7.853208 7.776824 1.750502
7.854243 7.775142 -0.966906
7.867751 7.788513 2.151944
7.837892 7.756240 -0.577894
7.871858 7.787134 2.556344
7.860116 7.772805 -0.192954
7.880521 7.790263 2.969172
3.964956 3.908614 -1.491833
7.879436 7.767469 0.193128
4.515265 4.449550 -1.463532
9.733611 9.588598 0.716061
5.168751 5.089970 -1.410079
9.735934 9.584194 1.195254
5.582606 5.493680 -1.240525
9.056750 8.912483 1.560171
6.823800 6.712759 -1.175308
7.907065 7.775681 1.756446
7.922541 7.788181 -0.971961
7.920051 7.783015 2.158432
7.899036 7.759655 -0.580301
7.939276 7.796463 2.568941
7.921441 7.778948 -0.193792
7.939373 7.793836 2.981078
3.970291 3.886642 -1.488727
7.936435 7.766511 0.193826
4.523187 4.424793 -1.460832
9.731560 9.516555 0.713339
5.189293 5.074643 -1.410842
9.720892 9.502795 1.189327
5.601750 5.474158 -1.240525
9.120592 8.909748 1.565534
6.845520 6.684928 -1.174821
7.968024 7.778383 1.763642
7.976768 7.786920 -0.975273
7.978081 7.785489 2.166827
7.960388 7.765505 -0.582813
7.994349 7.795911 2.577939
7.969944 7.769407 -0.194280
7.994174 7.790299 2.990913
3.992146 3.880838 -1.491833
7.987878 7.762449 0.194420
4.545592 4.415768 -1.463082
9.730334 9.449130 0.710827
5.214019 5.063335 -1.412750
9.725410 9.441051 1.185841
5.616570 5.450445 -1.239587
9.091799 8.819802 1.555297
6.857410 6.649938 -1.172871
8.023493 7.778022 1.769900
8.036802 7.790925 -0.979282
8.023539 7.775352 2.171788
8.013267 7.762686 -0.584697
8.052310 7.797785 2.587837
8.027191 7.770745 -0.195013
8.051859 7.791903 3.002301
4.008448 3.869563 -1.492868
8.046581 7.765070 0.195188
4.548357 4.387695 -1.459033
9.740253 9.392926 0.709152
5.241553 5.054645 -1.415421
9.723879 9.373860 1.181658
5.624184 5.419839 -1.237084
9.086791 8.753580 1.549203
6.877721 6.623209 -1.172383
8.077635 7.775995 1.775844
8.101271 7.798748 -0.983814
8.081755 7.777245 2.180184
8.063342 7.756823 -0.586372
8.113194 7.802046 2.598635
8.088866 7.775936 -0.195851
8.105474 7.789186 3.012136
4.019143 3.852873 -1.491833
8.103958 7.765988 0.195921
4.550977 4.359663 -1.454983
9.732594 9.320188 0.706221
5.253495 5.030884 -1.413895
9.719122 9.304036 1.177125
5.645919 5.402909 -1.237710
9.265037 8.863148 1.574308
6.889322 6.588182 -1.170433
8.137565 7.779153 1.783040
8.177405 7.817238 -0.989741
8.137239 7.776115 2.187816
8.127920 7.764497 -0.589094
8.162926 7.795213 2.605833
8.146335 7.776651 -0.196584
8.164760 7.791517 3.024042
4.024172 3.830827 -1.488727
8.161436 7.766603 0.196654
4.573228 4.350465 -1.457233
9.736124 9.258629 0.704128
5.262489 5.004397 -1.411605
9.722658 9.242601 1.173639
5.664745 5.383167 -1.237710
9.352050 8.884070 1.583814
6.906518 6.558628 -1.169458
8.193325 7.777898 1.789298
8.227764 7.810591 -0.992530
8.204209 7.785501 2.198501
8.188299 7.767695 -0.591501
8.225435 7.800197 2.617081
8.198103 7.771554 -0.197177
8.225559 7.794863 3.036465
4.031902 3.811451 -1.486657
8.220474 7.768281 0.197422
4.585555 4.331797 -1.456333
9.737883 9.195797 0.701930
5.285632 4.991392 -1.413131
9.717194 9.173043 1.169107
5.677757 5.357936 -1.236458
9.495628 8.957628 1.602826
6.929372 6.534478 -1.169458
8.249175 7.776349 1.795555
8.269479 7.795488 -0.994273
8.261335 7.785097 2.206515
8.251710 7.773300 -0.594118
8.278152 7.795482 2.625179
8.261578 7.777161 -0.198050
8.276637 7.788607 3.045265
4.039549 3.792064 -1.484586
8.275249 7.765536 0.198085
4.597804 4.313098 -1.455433
9.739194 9.136123 0.699836
5.291567 4.962167 -1.410079
9.731714 9.122714 1.167015
5.689217 5.331332 -1.234894
9.742702 9.126637 1.639143
6.943447 6.502107 -1.167996
8.299431 7.771902 1.800874
8.333001 7.800616 -0.998630
8.317132 7.783038 2.214148
8.321095 7.784016 -0.597153
8.333778 7.793161 2.634177
8.310693 7.771573 -0.198608
8.334877 7.791462 3.057171
4.047108 3.772671 -1.482516
8.334592 7.769418 0.198888
4.612080 4.297829 -1.455433
9.750568 9.083009 0.698371
5.311729 4.946343 -1.410842
9.734327 9.061545 1.163529
5.701080 5.307054 -1.233642
9.752570 9.075342 1.635731
6.962062 6.476343 -1.167508
8.377134 7.789972 1.811824
8.401041 7.809462 -1.003511
8.378846 7.788829 2.223688
8.368807 7.776774 -0.598723
8.413829 7.815884 2.651273
8.381732 7.783336 -0.199656
8.397422 7.795176 3.070112
4.065265 3.764481 -1.484586
8.393948 7.770161 0.199656
4.624195 4.279055 -1.454533
9.733829 9.004164 0.694917
5.333868 4.934032 -1.412368
9.787730 9.050856 1.166318
5.719572 5.287119 -1.233642
6.975876 6.443921 -1.166046
8.433304 7.787483 1.818082
8.459093 7.811297 -1.007346
8.439161 7.790164 2.232466
8.428191 7.777315 -0.601026
8.455386 7.799677 2.655772
8.438254 7.781140 -0.200354
8.452988 7.792005 3.080464
4.078382 3.750267 -1.484586
8.450465 7.767877 0.200354
4.636233 4.260252 -1.453634
9.671062 8.883661 0.688218
5.342383 4.907416 -1.410079
9.293890 8.534200 1.103915
5.739447 5.268459 -1.233955
9.273052 8.509109 1.545303
6.998329 6.419529 -1.166046
8.485185 7.780695 1.823400
8.520082 7.812695 -1.011355
8.503929 7.795152 2.242388
8.490631 7.780229 -0.603538
8.511299 7.796443 2.664770
8.491905 7.775952 -0.200982
8.521463 7.800277 3.095476
4.082890 3.728191 -1.481480
8.514451 7.772038 0.201226
4.642439 4.236159 -1.450934
9.309507 8.491815 0.660375
5.359482 4.888736 -1.410079
9.285343 8.466805 1.099383
5.756343 5.247060 -1.233642
9.271887 8.448609 1.540185
7.006018 6.381695 -1.163609
8.547348 7.782945 1.830909
8.569401 7.803026 -1.013970
8.560126 7.791849 2.250020
8.556144 7.785494 -0.606260
8.567295 7.792908 2.673768
8.548589 7.773167 -0.201680
8.567222 7.787378 3.102205
4.093016 3.711322 -1.480445
8.568195 7.766445 0.201855
4.658643 4.221236 -1.451384
9.312446 8.435134 0.658491
5.370693 4.864727 -1.408552
9.285301 8.407597 1.095896
5.770232 5.222957 -1.232704
9.271880 8.389558 1.535310
7.028249 6.357202 -1.163609
8.605235 7.780882 1.837479
8.633534 7.806470 -1.018328
8.620770 7.792202 2.258797
8.621796 7.790396 -0.608981
8.639278 7.803447 2.687715
8.612773 7.776784 -0.202553
8.634508 7.793666 3.116699
4.108818 3.699596 -1.481480
8.638354 7.775286 0.202867
4.669003 4.201039 -1.450034
9.319561 8.382539 0.656921
5.387642 4.845949 -1.408552
9.299775 8.361815 1.094153
5.795773 5.209386 -1.234268
9.268626 8.327951 1.529948
7.044493 6.327323 -1.162634
8.669087 7.783792 1.845301
8.703722 7.814889 -1.023383
8.669835 7.781731 2.264521
8.677185 7.785594 -0.610970
8.701280 7.804471 2.698513
8.684534 7.786718 -0.203600
8.690430 7.789269 3.127052
4.113065 3.677506 -1.478374
8.698245 7.774400 0.203635
4.680732 4.182120 -1.449135
9.311522 8.316697 0.654304
5.404524 4.827115 -1.408552
9.296212 8.300106 1.090318
5.802131 5.178602 -1.231765
9.270976 8.271760 1.525561
7.048758 6.286841 -1.159709
8.731590 7.785036 1.852810
8.763663 7.813632 -1.027218
8.740912 7.790610 2.275970
8.726676 7.775189 -0.612540
8.764852 7.806452 2.709760
8.746016 7.786938 -0.204403
8.762300 7.798704 3.143099
4.133101 3.669538 -1.480963
8.768705 7.782483 0.204647
4.695301 4.165757 -1.449135
9.303143 8.251009 0.651687
5.412529 4.800402 -1.406262
9.131324 8.095775 1.067658
5.820171 5.158319 -1.231765
9.270079 8.213017 1.520686
7.067689 6.259563 -1.159221
8.791248 7.783319 1.859693
8.825193 7.813372 -1.031227
8.804810 7.792578 2.285510
8.789666 7.776440 -0.615052
8.816859 7.797763 2.717409
8.785127 7.766959 -0.204682
8.830003 7.803889 3.157593
4.141537 3.651257 -1.479410
8.830320 7.782238 0.205450
4.701041 4.141611 -1.446435
9.144528 8.053483 0.638603
5.420412 4.773695 -1.403973
9.259719 8.152061 1.079337
5.835177 5.135359 -1.231139
9.280807 8.164871 1.517761
7.092476 6.237478 -1.159709
8.851004 7.781276 1.866576
8.876356 7.803564 -1.034016
8.868827 7.794194 2.295051
8.854267 7.778667 -0.617669
8.886489 7.804228 2.730456
8.854264 7.773183 -0.205659
8.889132 7.801054 3.168981
4.142628 3.626599 -1.475269
8.886025 7.776386 0.206113
4.730138 4.138006 -1.450934
9.309398 8.141161 0.648129
5.448864 4.765086 -1.407026
9.291121 8.122310 1.079685
5.838194 5.101959 -1.228011
9.282337 8.108924 1.513374
7.105236 6.204846 -1.158246
8.919782 7.786705 1.875337
8.950073 7.813149 -1.039419
8.927038 7.790302 2.303065
8.918994 7.780533 -0.620286
8.948929 7.803897 2.741254
8.923544 7.779027 -0.206636
8.949809 7.799167 3.180886
4.161095 3.617185 -1.477339
8.950846 7.778118 0.206986
4.722485 4.102301 -1.444186
9.321173 8.094209 0.646977
5.459535 4.740886 -1.405499
9.299851 8.072855 1.077419
5.867902 5.091908 -1.230514
9.277599 8.047854 1.508011
7.120854 6.174802 -1.157271
8.990192 7.793046 1.884410
9.014927 7.814487 -1.043777
8.985336 7.786090 2.311079
8.967236 7.767658 -0.621751
9.017363 7.808333 2.753851
8.996004 7.787091 -0.207684
9.013502 7.799479 3.193827
4.164920 3.595065 -1.474233
9.014280 7.778177 0.207823
4.742679 4.090881 -1.445985
9.319230 8.038465 0.644988
5.461181 4.708981 -1.401683
9.308357 8.023430 1.075153
5.879656 5.066234 -1.229262
9.284575 7.997284 1.504599
7.136344 6.144732 -1.156296
9.060893 7.801861 1.893796
9.075374 7.811564 -1.047612
9.066033 7.800778 2.324817
9.027601 7.764969 -0.624054
9.075596 7.803487 2.763299
9.049073 7.780682 -0.208312
9.067150 7.793473 3.203662
4.190647 3.591819 -1.478892
9.087094 7.788582 0.208905
4.756218 4.075132 -1.445985
9.318405 7.981207 0.643000
5.465657 4.679673 -1.398630
9.307549 7.966271 1.071841
5.912931 5.060839 -1.232704
9.283893 7.943224 1.500212
7.150648 6.115870 -1.155321
9.127110 7.803558 1.901931
9.125299 7.799261 -1.050227
9.127668 7.801286 2.333976
9.097341 7.772611 -0.627090
9.129577 7.797397 2.771847
9.109630 7.777619 -0.209080
9.150135 7.809434 3.223332
4.189295 3.566632 -1.474233
9.156868 7.793101 0.209883
4.773382 4.061031 -1.446885
9.323389 7.929219 0.641430
5.481144 4.661523 -1.398630
9.303559 7.909550 1.068355
5.935075 5.044007 -1.233642
9.285848 7.888917 1.496068
7.174981 6.093441 -1.155809
9.205492 7.815120 1.912568
9.148076 7.766376 -1.049878
9.190771 7.799863 2.343135
9.174678 7.783444 -0.630544
9.226591 7.824723 2.792992
9.179434 7.781978 -0.210057
9.212713 7.807420 3.235756
4.201718 3.551988 -1.474233
9.214557 7.786911 0.210581
4.778597 4.036798 -1.444186
9.323545 7.873429 0.639545
5.497384 4.642361 -1.398630
9.302180 7.852614 1.065043
5.967744 5.035997 -1.236771
9.290570 7.837253 1.492412
7.181028 6.055566 -1.153372
9.268965 7.813493 1.920077
9.162946 7.724121 -1.048484
9.247970 7.793033 2.350767
9.238451 7.782255 -0.633056
9.270247 7.806274 2.797941
9.247849 7.784655 -0.211000
9.276863 7.806313 3.248697
4.208174 3.532330 -1.472163
9.286107 7.791972 0.211593
4.777728 4.007571 -1.439687
9.326484 7.820305 0.637871
5.516562 4.625667 -1.399393
9.312740 7.806014 1.063126
6.009512 5.035436 -1.241777
9.304173 7.793306 1.490219
7.196035 6.025363 -1.152397
9.344658 7.821661 1.930089
9.180687 7.684414 -1.047438
9.320285 7.798501 2.362215
9.287005 7.767901 -0.634521
9.327342 7.798865 2.806939
9.322530 7.792084 -0.212082
9.354458 7.815999 3.266297
4.217511 3.515145 -1.471128
9.350121 7.790232 0.212431
4.788692 3.988375 -1.438787
9.341447 7.777477 0.637033
5.529659 4.603869 -1.398630
9.364432 7.793854 1.065915
6.054387 5.037168 -1.247409
9.367952 7.791243 1.496068
7.207864 5.992594 -1.150934
9.414440 7.824349 1.938849
9.199792 7.645955 -1.046566
9.392756 7.803556 2.373664
9.347865 7.763511 -0.636824
9.391991 7.797381 2.818187
9.375834 7.781204 -0.212675
9.426290 7.820300 3.281826
4.238685 3.507792 -1.474233
9.432727 7.803432 0.213687
4.811597 3.979086 -1.441486
9.402403 7.772820 0.639336
5.536616 4.577034 -1.396340
9.431514 7.794115 1.070447
6.096299 5.036134 -1.252414
9.439478 7.795153 1.503137
7.237925 5.974978 -1.152397
9.490448 7.831674 1.948861
9.223351 7.611260 -1.046218
9.450225 7.795709 2.381296
9.427301 7.774035 -0.640383
9.470275 7.806695 2.833483
9.438431 7.777679 -0.213478
9.487823 7.815601 3.293731
4.238964 3.483162 -1.470092
9.501632 7.804726 0.214630
4.822444 3.959793 -1.440587
9.481969 7.783033 0.642895
5.561666 4.565152 -1.398630
9.498712 7.794003 1.074979
6.129113 5.027352 -1.255543
9.512684 7.799912 1.510449
7.240316 5.934575 -1.149472
9.554397 7.828547 1.956370
9.220578 7.555028 -1.042906
9.529021 7.804968 2.394271
9.497652 7.776506 -0.643314
9.535167 7.804450 2.844731
9.496477 7.770009 -0.214176
9.549442 7.810563 3.305637
4.236125 3.456134 -1.464916
9.561358 7.798054 0.215363
4.830196 3.938009 -1.438787
9.555524 7.787744 0.646035
5.577567 4.545712 -1.398630
9.562930 7.791002 1.079162
6.175728 5.029626 -1.261488
9.579877 7.799248 1.516786
7.260986 5.909266 -1.149472
9.636832 7.840025 1.967633
9.245351 7.521537 -1.042731
9.583623 7.793957 2.401140
9.565031 7.776064 -0.646035
9.603186 7.804299 2.856879
9.573207 7.777163 -0.215293
9.608140 7.802759 3.316508
4.257172 3.448622 -1.468022
9.630483 7.798607 0.216305
4.840883 3.918673 -1.437887
9.621463 7.785753 0.648652
5.581189 4.516335 -1.395577
9.636540 7.795163 1.084392
6.208606 5.020461 -1.264616
9.639461 7.791968 1.521904
7.269218 5.873902 -1.147522
9.719462 7.851021 1.978896
9.266902 7.485460 -1.042208
9.668812 7.807327 2.415642
9.629417 7.772733 -0.648547
9.697102 7.824572 2.876674
9.650102 7.783876 -0.216410
9.677428 7.803123 3.331001
4.263163 3.428896 -1.465951
9.705952 7.803793 0.217387
4.854533 3.901750 -1.437887
9.678165 7.775885 0.650641
5.603044 4.501744 -1.397104
9.713395 7.801408 1.089970
6.246119 5.014833 -1.268684
9.711499 7.794302 1.528973
7.271093 5.833590 -1.144597
9.793037 7.854125 1.988282
9.283648 7.445589 -1.041162
9.729706 7.800543 2.424038
9.701682 7.775303 -0.651583
9.738041 7.801643 2.880723
9.727163 7.790142 -0.217527
9.751360 7.806720 3.347048
4.284163 3.421228 -1.469057
9.780020 7.807290 0.218434
4.868124 3.884780 -1.437887
9.761456 7.786895 0.654409
5.609514 4.474813 -1.394814
9.777956 7.797265 1.094153
6.288301 5.012699 -1.273690
9.788324 7.799945 1.536773
7.294519 5.810645 -1.145085
9.851301 7.844501 1.994540
9.289322 7.397001 -1.038896
9.804492 7.804439 2.435868
9.783465 7.784913 -0.655246
9.814020 7.806421 2.895120
9.793425 7.787257 -0.218399
9.816353 7.802692 3.359989
4.290025 3.401450 -1.466986
9.843259 7.801670 0.219237
4.878598 3.865346 -1.436987
9.815198 7.773852 0.656188
5.609711 4.443015 -1.390998
9.842605 7.792765 1.098337
6.328991 5.009111 -1.278383
9.854414 7.796519 1.542866
7.317873 5.787608 -1.145572
9.928205 7.849277 2.004552
9.305702 7.357124 -1.037851
9.876345 7.805467 2.446935
9.838791 7.772998 -0.657130
9.893201 7.813188 2.910417
9.837814 7.766650 -0.218783
9.881445 7.798297 3.372930
4.295797 3.381678 -1.464916
9.906574 7.795708 0.220040
4.898188 3.853111 -1.438787
9.901935 7.786454 0.660166
5.625187 4.423404 -1.390998
9.913606 7.792840 1.103217
6.368185 5.004075 -1.282763
9.934647 7.803763 1.551153
7.331785 5.757126 -1.144597
9.326627 7.320902 -1.037328
9.919293 7.780520 -0.660689
9.926248 7.780371 -0.220145
4.307577 3.366661 -1.464916
9.977850 7.795549 0.221017
4.902392 3.828794 -1.436087
9.973129 7.786264 0.663097
5.652969 4.413411 -1.394051
9.975303 7.785152 1.107052
6.402744 4.995182 -1.286204
7.336183 5.719292 -1.142160
9.339555 7.278501 -1.035933
9.976335 7.769161 -0.662678
9.991216 7.775156 -0.220982
4.314724 3.348050 -1.463363
10.091902 7.828083 0.222937
4.908028 3.805686 -1.433838
5.662136 4.388838 -1.392524
6.462308 5.005459 -1.294652
7.362380 5.698510 -1.143134
9.371206 7.250735 -1.036630
10.034992 7.758724 -0.664771
10.106912 7.808695 -0.222937
4.334036 3.338864 -1.465951
4.915107 3.783774 -1.432038
5.664973 4.359470 -1.389471
6.496968 4.996116 -1.298093
9.847417 7.569857 1.525073
7.360188 5.655844 -1.139722
9.383820 7.208267 -1.035236
13.081725 10.041596 -0.864276
4.333390 3.314325 -1.461810
4.944656 3.780475 -1.436987
5.664557 4.327749 -1.385655
6.537047 4.992529 -1.302786
7.388373 5.638629 -1.141185
9.386744 7.158554 -1.032796
12.254072 9.341866 -0.807544
4.338202 3.295264 -1.459739
4.951612 3.758480 -1.435188
5.691388 4.318435 -1.388708
6.565452 4.978036 -1.304976
7.408012 5.612803 -1.141185
9.402488 7.121374 -1.031924
12.283425 9.296620 -0.807335
28.939915 21.887081 -0.633348
4.348136 3.278939 -1.459222
4.953808 3.732962 -1.432038
5.715836 4.305631 -1.390998
6.612776 4.977658 -1.310921
7.421213 5.582139 -1.140210
9.424106 7.086112 -1.031575
13.216371 9.930349 -0.866369
28.960165 21.743912 -0.632126
4.367288 3.269528 -1.461810
4.963687 3.713314 -1.431139
5.721397 4.278596 -1.388708
6.649099 4.968736 -1.314675
7.418386 5.539569 -1.136797
9.443993 7.049600 -1.031052
12.303202 9.177202 -0.804404
28.887829 21.540182 -0.628985
4.381776 3.256567 -1.462845
4.974409 3.695672 -1.430689
48.685085 36.156731 3.178154
5.717382 4.244555 -1.384128
6.686160 4.961965 -1.318743
7.430336 5.510210 -1.135822
9.466944 7.015403 -1.030878
12.349614 9.148245 -0.805450
28.673542 21.225050 -0.622702
4.370790 3.225959 -1.455598
4.990417 3.680598 -1.431589
5.731428 4.225570 -1.384128
6.719345 4.950311 -1.321871
7.443130 5.479534 -1.134847
9.474107 6.972163 -1.029135
13.340450 9.810298 -0.867835
28.637424 21.051683 -0.620398
4.388257 3.215250 -1.457669
4.996306 3.659421 -1.429789
49.171780 36.001507 3.193855
5.749309 4.207861 -1.384892
6.726160 4.921001 -1.319994
7.483693 5.471225 -1.138260
9.490345 6.933171 -1.028263
13.389038 9.777787 -0.868882
28.684896 20.932724 -0.619840
4.403135 3.201418 -1.458704
5.004014 3.635629 -1.427989
5.758337 4.182147 -1.383365
6.745004 4.895139 -1.319994
7.475722 5.421471 -1.133873
9.517303 6.899512 -1.028438
13.439424 9.735675 -0.869719
28.725788 20.801653 -0.619072
4.415852 3.187158 -1.459222
5.009722 3.614453 -1.426190
5.772902 4.162019 -1.383365
6.748380 4.863504 -1.317491
7.490436 5.394331 -1.133385
9.520304 6.851121 -1.026172
13.585128 9.772701 -0.877046
28.775488 20.684919 -0.618583
4.420116 3.167994 -1.457151
5.034981 3.606025 -1.429789
5.783481 4.140565 -1.382602
43.374798 31.041857 4.666493
6.768526 4.842222 -1.318117
7.502762 5.363533 -1.132410
9.547832 6.822990 -1.026695
13.693928 9.778608 -0.881861
15.156002 10.818659 -0.325034
4.428000 3.150305 -1.456116
15.151800 10.779762 0.324580
5.040560 3.584790 -1.427989
15.172901 10.786811 0.975647
5.781897 4.108978 -1.378786
43.645313 31.005661 4.683924
6.797431 4.828900 -1.320620
7.523746 5.340919 -1.132897
9.552093 6.775785 -1.024603
13.749092 9.749314 -0.883326
15.161040 10.742570 -0.324336
4.433687 3.132263 -1.454563
15.176260 10.717588 0.324301
5.053043 3.567172 -1.427989
15.187614 10.717664 0.974182
5.798697 4.092050 -1.379549
6.775501 4.777819 -1.313111
7.529361 5.305478 -1.130948
9.566367 6.738332 -1.023731
13.756906 9.682871 -0.881652
15.218077 10.703382 -0.324754
4.449339 3.120094 -1.456116
15.279080 10.710457 0.325697
5.049504 3.538329 -1.423490
15.241296 10.676040 0.975228
5.819377 4.076288 -1.381076
6.814794 4.770000 -1.317491
7.541327 5.274613 -1.129973
24.894199 17.405228 4.810986
9.588196 6.703759 -1.023557
13.715306 9.582177 -0.876837
15.304532 10.684540 -0.325802
4.460205 3.104542 -1.456116
15.352484 10.682188 0.326465
5.060225 3.519567 -1.423040
15.291591 10.631889 0.976066
5.836796 4.058189 -1.381839
6.824915 4.741673 -1.316240
7.562952 5.250523 -1.130460
24.987265 17.340742 4.817244
9.604993 6.665703 -1.022860
13.735538 9.525140 -0.875999
15.414057 10.681162 -0.327337
4.469424 3.087857 -1.455598
15.498280 10.703530 0.328768
5.085309 3.510741 -1.426640
15.391074 10.621558 0.980043
5.837999 4.028871 -1.378786
6.834918 4.713336 -1.314988
7.564890 5.212826 -1.128023
25.151754 17.325136 4.837267
9.615074 6.623095 -1.021465
13.752254 9.465809 -0.874953
15.494083 10.656758 -0.328245
4.478583 3.071143 -1.455081
15.594928 10.690064 0.330025
5.087887 3.486360 -1.423940
15.507151 10.621940 0.985067
5.845549 4.004028 -1.377259
6.851328 4.689450 -1.314988
7.586318 5.188626 -1.128510
9.614612 6.570944 -1.018851
13.758827 9.399716 -0.873278
15.673226 10.699568 -0.331247
4.475433 3.044928 -1.450422
5.101637 3.469674 -1.424390
5.863432 3.984785 -1.378023
6.858667 4.657647 -1.313111
7.607667 5.164346 -1.128998
9.642434 6.540699 -1.019374
13.793185 9.349228 -0.873278
4.489238 3.031449 -1.451457
5.106243 3.445503 -1.422141
5.874051 3.962096 -1.377259
6.868330 4.629263 -1.311860
7.610078 5.125340 -1.126560
9.660248 6.503665 -1.018851
13.832366 9.305478 -0.873697
4.503000 3.017914 -1.452493
5.103070 3.418788 -1.418091
5.891106 3.943756 -1.378023
6.880361 4.604262 -1.311234
7.610530 5.089043 -1.124123
9.672954 6.463262 -1.017805
49.325817 32.958462 11.531351
13.793386 9.212976 -0.869300
28.674730 19.138138 -0.601759
4.506550 2.998683 -1.450422
5.124711 3.407427 -1.420791
5.900883 3.922024 -1.377259
6.896392 4.580215 -1.311234
7.618326 5.055859 -1.122661
9.681053 6.422336 -1.016410
49.299843 32.692780 11.498532
13.798829 9.147112 -0.867626
28.627993 18.962841 -0.599385
4.526663 2.989320 -1.453528
5.130064 3.385228 -1.418991
5.907983 3.897076 -1.375733
6.905738 4.551771 -1.309982
7.639244 5.031416 -1.123148
9.680110 6.373171 -1.013970
13.830676 9.098885 -0.867626
28.637201 18.825439 -0.598199
4.538685 2.974561 -1.454045
5.140221 3.366230 -1.418541
5.911694 3.869979 -1.373443
49.459644 32.365498 5.171299
6.918280 4.525473 -1.309357
7.680022 5.019926 -1.126560
9.705635 6.341519 -1.014318
13.765353 8.987226 -0.861555
28.615656 18.668539 -0.596384
4.539324 2.952381 -1.450940
5.150306 3.347207 -1.418091
43.484188 28.249777 2.717597
5.925166 3.849321 -1.373443
49.405231 32.084126 5.153868
6.927405 4.496995 -1.308105
7.697499 4.993085 -1.126560
9.717680 6.301100 -1.013273
13.776530 8.926086 -0.860299
28.600061 18.516392 -0.594708
4.543110 2.932326 -1.448869
5.155408 3.324982 -1.416292
43.498608 28.043692 2.712364
5.948468 3.834996 -1.375733
49.352791 31.805712 5.136785
6.953026 4.479203 -1.309982
7.701528 4.957592 -1.124610
9.732917 6.262826 -1.012575
13.955437 8.972999 -0.869510
28.556854 18.347261 -0.592474
4.564704 2.923744 -1.452493
38.324692 24.537962 0.794329
5.175190 3.312217 -1.418541
43.582764 27.883080 2.711526
5.928742 3.793049 -1.368101
49.379585 31.579582 5.128069
6.958634 4.448520 -1.308105
7.712093 4.926405 -1.123635
9.753040 6.227739 -1.012401
14.118002 9.008029 -0.877674
28.546526 18.200171 -0.590938
4.563470 2.900537 -1.448869
38.241337 24.296787 0.790838
5.188365 3.295178 -1.418991
43.668255 27.734108 2.711107
5.955206 3.780748 -1.371153
49.321304 31.300257 5.110639
6.974119 4.424204 -1.308105
7.739303 4.905830 -1.125098
9.767987 6.189393 -1.011704
14.179737 8.977922 -0.879558
28.444519 18.002737 -0.587588
4.563763 2.878408 -1.445763
38.237122 24.116508 0.789093
5.199263 3.277956 -1.418991
5.981656 3.768310 -1.374206
49.345959 31.074825 5.101923
6.972035 4.390527 -1.304976
7.755530 4.880136 -1.125098
9.777726 6.147832 -1.010484
13.326734 8.376057 -0.824919
28.422520 17.850151 -0.585842
4.561821 2.856083 -1.442140
38.222763 23.921350 0.787069
5.194154 3.249450 -1.414492
5.980802 3.740127 -1.371153
49.279793 30.805393 5.084492
6.990671 4.368256 -1.305602
7.789356 4.863550 -1.127535
9.792361 6.109452 -1.009786
14.250689 8.887537 -0.880186
28.460892 17.736031 -0.585354
4.590312 2.850554 -1.447834
28.826771 17.901236 0.592300
5.200497 3.228217 -1.413142
5.981126 3.709898 -1.368101
49.223034 30.519590 5.067060
6.993200 4.334280 -1.303099
7.840036 4.857238 -1.132410
9.806853 6.071035 -1.009089
14.011396 8.667138 -0.863439
28.495411 17.619755 -0.584795
4.593655 2.830460 -1.445763
28.863251 17.777626 0.591706
5.217273 3.212198 -1.414492
5.997380 3.691059 -1.368864
49.224064 30.282843 5.056253
7.015019 4.313981 -1.304351
7.871315 4.836785 -1.134360
9.813756 6.025671 -1.007520
13.966668 8.572204 -0.858833
28.495020 17.475473 -0.583469
4.592461 2.806550 -1.442140
5.230116 3.194984 -1.414942
6.000817 3.662912 -1.366574
49.164642 29.998459 5.038822
7.020664 4.282070 -1.302473
7.928830 4.834079 -1.140210
9.822822 5.984119 -1.006300
14.100354 8.583269 -0.865113
28.525101 17.357183 -0.582841
4.607862 2.796118 -1.444210
5.239016 3.176614 -1.414492
6.015652 3.646078 -1.367337
49.108681 29.753014 5.023483
7.013805 4.247715 -1.298719
7.978783 4.828316 -1.145085
9.841571 5.953232 -1.006300
14.243483 8.609179 -0.872231
28.452419 17.183920 -0.580188
4.627522 2.785998 -1.447316
5.231704 3.147255 -1.409543
6.031705 3.627084 -1.368101
49.126862 29.530073 5.014767
7.031977 4.225239 -1.299345
8.043241 4.829047 -1.151909
9.860585 5.917814 -1.006126
14.242615 8.540922 -0.870347
28.471066 17.059822 -0.579350
4.628926 2.764874 -1.444728
5.242658 3.128975 -1.409543
6.040958 3.603995 -1.367337
49.058533 29.256348 4.997336
7.039895 4.196622 -1.298093
8.083926 4.815162 -1.155321
48.832977 29.075676 9.001554
9.860638 5.871129 -1.004034
14.159058 8.423752 -0.863439
28.444481 16.909264 -0.577605
4.640212 2.749682 -1.445246
5.253549 3.110654 -1.409543
6.036607 3.572884 -1.363521
48.988861 28.983505 4.979905
7.057903 4.174032 -1.298719
8.141701 4.811153 -1.161171
48.818523 28.836706 8.980278
9.872496 5.831604 -1.003163
14.123013 8.335702 -0.859461
28.417215 16.759071 -0.575860
4.639789 2.727595 -1.442140
5.267736 3.094270 -1.410443
6.038884 3.545828 -1.361231
48.983208 28.749788 4.969098
7.062208 4.143371 -1.296842
8.202969 4.808808 -1.167508
48.762096 28.574228 8.951494
9.892794 5.797104 -1.003163
14.100316 8.256080 -0.856321
28.389238 16.609289 -0.574114
4.647614 2.710408 -1.441622
5.271770 3.071939 -1.408643
6.058011 3.528677 -1.362758
48.955841 28.504448 4.956198
7.073213 4.116708 -1.296216
8.254026 4.800102 -1.172383
48.769314 28.350245 8.934599
9.895742 5.752525 -1.001419
14.101418 8.190756 -0.854646
4.645341 2.687397 -1.437999
5.272337 3.047668 -1.405944
6.066891 3.505547 -1.361995
48.944633 28.269600 4.945043
7.077274 4.086068 -1.294339
8.314600 4.798504 -1.178720
48.691948 28.089664 8.903312
9.929570 5.725913 -1.002814
14.084928 8.115561 -0.851925
28.501637 16.415665 -0.574114
4.660928 2.675827 -1.440069
5.292558 3.035984 -1.408643
6.081888 3.487363 -1.362758
7.104499 4.070431 -1.296842
8.375254 4.796557 -1.185058
48.685406 27.871107 8.885166
9.941586 5.688993 -1.002117
14.059750 8.039063 -0.848785
28.555920 16.321053 -0.574114
4.678169 2.665136 -1.442657
5.285660 3.008777 -1.404144
6.097437 3.468052 -1.363521
48.871269 27.796610 4.918896
7.117957 4.046850 -1.296842
8.419563 4.782979 -1.188957
48.651840 27.626871 8.861388
9.954453 5.650323 -1.001419
14.063401 7.976146 -0.847319
4.674449 2.640372 -1.438516
5.301744 2.992257 -1.405494
6.096426 3.437967 -1.360468
48.840923 27.542934 4.905648
7.115535 4.011033 -1.293713
8.464709 4.767676 -1.192857
48.604748 27.365011 8.834481
9.955997 5.603049 -0.999502
14.078616 7.916712 -0.846482
4.682410 2.622276 -1.437999
5.314376 2.973758 -1.405944
6.108391 3.416664 -1.360468
48.847630 27.311243 4.896235
7.130188 3.984928 -1.293713
8.509029 4.753588 -1.196757
48.603386 27.141260 8.816960
9.961576 5.560495 -0.998108
14.057326 7.840277 -0.843551
4.699525 2.611425 -1.440587
5.310577 2.948551 -1.402345
6.105956 3.388765 -1.357415
48.728867 27.033112 4.875318
7.150273 3.965095 -1.294965
8.521276 4.723418 -1.196270
48.541061 26.895693 8.789428
9.976474 5.525503 -0.997759
14.062272 7.782022 -0.842295
4.708158 2.595827 -1.440587
5.323740 2.932804 -1.403245
6.130917 3.376076 -1.360468
48.706532 26.809893 4.864162
7.166844 3.943264 -1.295590
8.530749 4.689825 -1.195295
48.516937 26.661386 8.768153
9.995702 5.490642 -0.997759
14.070493 7.725738 -0.841248
4.707469 2.572995 -1.437481
5.347627 2.921676 -1.406844
6.143249 3.353584 -1.360468
48.804485 26.631157 4.864162
7.160437 3.905621 -1.291836
8.547069 4.660016 -1.195295
48.509106 26.437029 8.750007
9.997310 5.446187 -0.996016
14.070651 7.658826 -0.839573
4.713024 2.554707 -1.436446
28.340399 15.355589 0.562631
5.346304 2.895561 -1.403695
6.141107 3.324640 -1.357415
48.658821 26.331709 4.840456
7.187927 3.888119 -1.294339
8.550119 4.621109 -1.193345
48.462055 26.192434 8.724977
10.012755 5.409360 -0.995667
14.051599 7.585008 -0.836852
4.720212 2.537324 -1.435928
5.359310 2.879662 -1.404594
6.159593 3.306900 -1.358942
48.687248 26.127769 4.834180
7.179893 3.853054 -1.290584
8.575896 4.598357 -1.194807
48.438282 25.961510 8.704328
10.035090 5.376256 -0.996016
14.073156 7.536479 -0.836643
4.723486 2.518931 -1.434375
5.360729 2.856356 -1.402345
6.153196 3.277227 -1.355126
48.661072 25.906237 4.823024
7.196786 3.829826 -1.291210
8.584885 4.564663 -1.193832
48.436913 25.754356 8.688684
10.042304 5.337345 -0.994970
14.046460 7.459203 -0.833503
4.747621 2.510554 -1.439034
5.356390 2.831277 -1.398746
6.164599 3.255727 -1.355126
48.624340 25.669260 4.810474
7.216435 3.809626 -1.292462
8.589438 4.530614 -1.192370
48.400696 25.518801 8.666158
10.067925 5.305971 -0.995667
14.046378 7.399553 -0.832037
4.738813 2.485821 -1.433858
5.371418 2.815278 -1.400095
6.158533 3.225082 -1.351309
48.571518 25.435787 4.796878
7.226189 3.782582 -1.291836
8.601682 4.498766 -1.191882
48.363430 25.283810 8.643631
10.091683 5.273561 -0.996190
14.066324 7.344319 -0.831618
4.746177 2.467546 -1.433340
5.373054 2.791078 -1.397846
6.180768 3.207913 -1.353599
48.576008 25.211691 4.788162
7.240005 3.756070 -1.291836
8.611065 4.463553 -1.190907
48.357559 25.055477 8.626110
10.098559 5.230126 -0.994970
14.057670 7.274360 -0.829525
4.750037 2.447480 -1.431787
5.383247 2.771367 -1.397846
6.177962 3.179134 -1.350546
48.540524 24.967852 4.775612
7.246695 3.725897 -1.290584
8.620304 4.428331 -1.189932
48.297138 24.810692 8.599830
10.100804 5.186650 -0.993401
14.033222 7.199713 -0.826594
4.761993 2.432641 -1.432822
5.394143 2.754388 -1.398296
6.189023 3.157548 -1.350546
48.474728 24.720453 4.760621
7.251971 3.698257 -1.289333
8.645553 4.405129 -1.191395
48.277821 24.588196 8.581058
10.108192 5.145938 -0.992355
14.035659 7.142272 -0.825338
4.766588 2.415089 -1.431787
5.401987 2.734660 -1.397846
6.213475 3.144096 -1.353599
48.520882 24.541569 4.757134
7.314198 3.697874 -1.298093
8.657332 4.373136 -1.190907
48.253304 24.374512 8.562284
10.103858 5.101616 -0.990264
14.056935 7.091438 -0.825129
4.787072 2.404509 -1.435410
5.407543 2.714982 -1.396946
50.490894 25.339085 2.960645
6.206861 3.113589 -1.349783
48.438843 24.288092 4.740749
7.291105 3.655889 -1.291836
8.657588 4.337292 -1.188957
48.210930 24.142233 8.539759
10.126951 5.068988 -0.990786
14.055367 7.032276 -0.823663
4.775999 2.379144 -1.429716
5.420474 2.697829 -1.397846
50.571877 25.159138 2.960227
6.213637 3.091239 -1.349020
48.408508 24.072338 4.729942
7.282596 3.619863 -1.288082
8.686899 4.314106 -1.190907
48.206444 23.929869 8.524115
10.118721 5.022973 -0.988346
14.044044 6.965419 -0.821570
4.777346 2.359036 -1.427646
5.428112 2.678029 -1.397396
6.241999 3.078212 -1.352836
48.377861 23.846846 4.718786
7.263288 3.578709 -1.282450
8.673409 4.269731 -1.187008
48.169144 23.702181 8.502840
10.130827 4.984990 -0.987823
14.061105 6.912825 -0.821151
4.795961 2.347445 -1.430752
5.418170 2.649646 -1.392447
6.238593 3.049511 -1.349783
48.389210 23.642832 4.711814
7.293488 3.562001 -1.285579
8.673989 4.232462 -1.185058
48.162815 23.490582 8.487196
10.144587 4.947847 -0.987475
14.038466 6.840955 -0.818430
4.814555 2.335747 -1.433858
5.420372 2.627318 -1.390647
6.227999 3.017442 -1.345204
48.363857 23.421659 4.701355
7.305877 3.536522 -1.285579
8.695859 4.205614 -1.186033
48.127136 23.265585 8.466547
10.161795 4.912407 -0.987475
14.037084 6.779745 -0.816964
48.037724 23.191341 12.315170
27.779968 13.405456 -0.538407
4.815715 2.315577 -1.431787
5.457615 2.621882 -1.397846
6.249114 3.000782 -1.347493
48.333950 23.199253 4.690547
7.318178 3.510996 -1.285579
8.703326 4.171804 -1.185058
48.090027 23.051207 8.446524
10.157320 4.866573 -0.985383
14.039044 6.720360 -0.815708
47.949635 22.942759 12.271979
27.900032 13.349502 -0.539873
4.802841 2.288781 -1.425575
5.455723 2.598742 -1.395146
6.259550 2.978951 -1.347493
48.299484 22.975632 4.679392
7.308373 3.476528 -1.281824
8.742212 4.154850 -1.188470
48.091686 22.845915 8.432757
10.174247 4.831085 -0.985383
14.050426 6.668633 -0.815080
47.916286 22.731850 12.244086
4.820885 2.277795 -1.428681
5.471809 2.583011 -1.396946
6.265843 2.956500 -1.346730
48.195213 22.730333 4.661961
7.313317 3.447628 -1.280573
8.727929 4.110773 -1.184570
48.035305 22.613966 8.408979
10.181195 4.793083 -0.984511
14.066391 6.616143 -0.814662
47.861320 22.501427 12.209893
4.818309 2.256036 -1.425575
5.466672 2.557288 -1.393347
6.258340 2.926296 -1.342914
48.209278 22.531605 4.655685
7.336045 3.427093 -1.282450
8.745822 4.081964 -1.185058
48.017288 22.401045 8.392084
10.206893 4.761724 -0.985383
14.056812 6.551817 -0.812777
47.921906 22.326004 12.205395
4.836669 2.244083 -1.428681
5.457886 2.529993 -1.388848
6.289893 2.914338 -1.347493
48.218941 22.331356 4.649062
7.344379 3.399803 -1.281824
8.752811 4.048074 -1.184083
47.991199 22.185209 8.373938
10.254198 4.740276 -0.988346
14.036081 6.482607 -0.810265
47.822620 22.076897 12.160404
4.833942 2.222343 -1.425575
5.477309 2.515807 -1.391547
6.285754 2.885810 -1.344440
48.169834 22.104746 4.636860
7.334655 3.364264 -1.278070
8.738013 4.004266 -1.180183
48.010872 21.991240 8.363926
10.279737 4.708604 -0.989218
14.036831 6.423603 -0.809009
47.828499 21.877417 12.142408
4.845185 2.207058 -1.426611
5.482510 2.495057 -1.390647
6.288640 2.860600 -1.342914
48.156010 21.895245 4.628144
7.357145 3.343543 -1.279947
8.759167 3.977025 -1.181158
10.277970 4.664456 -0.987475
14.037337 6.364672 -0.807753
47.822929 21.673313 12.121713
4.859904 2.193310 -1.428681
5.508949 2.483918 -1.395146
6.302168 2.840243 -1.343677
48.152222 21.690998 4.620474
7.357962 3.312980 -1.278070
8.772997 3.946424 -1.181158
10.297821 4.630191 -0.987823
14.048541 6.310719 -0.807125
47.748966 21.439186 12.083920
4.849895 2.168446 -1.423505
5.496235 2.455134 -1.389748
6.304874 2.815024 -1.342151
48.107559 21.469204 4.608970
7.322577 3.266351 -1.269935
8.804852 3.923859 -1.183595
10.306641 4.590971 -0.987126
14.059533 6.256773 -0.806497
47.734474 21.232813 12.061426
4.868031 2.156200 -1.426611
5.490516 2.429623 -1.386148
6.321841 2.796180 -1.343677
48.091095 21.260851 4.600254
7.344777 3.245559 -1.271812
8.814862 3.891494 -1.183108
10.362707 4.572659 -0.990961
14.041083 6.189929 -0.804194
47.704872 21.020472 12.035332
4.868453 2.136089 -1.424540
5.509672 2.415138 -1.388848
6.306389 2.763063 -1.338334
7.363299 3.223072 -1.273064
8.832032 3.862289 -1.183595
10.469885 4.576359 -0.999676
14.058946 6.139277 -0.803985
47.688652 20.814856 12.012836
4.872335 2.117543 -1.423505
5.521645 2.397442 -1.389748
6.319597 2.742597 -1.339098
48.019005 20.829473 4.579337
7.381755 3.200491 -1.274315
8.830884 3.825130 -1.181645
10.522366 4.555614 -1.003163
14.039956 6.072731 -0.801682
47.632236 20.592573 11.980443
4.869051 2.095938 -1.420399
5.526399 2.376615 -1.388848
6.339955 2.725171 -1.341387
7.345689 3.154440 -1.266181
8.818644 3.783322 -1.178233
10.604122 4.547126 -1.009438
14.061070 6.023682 -0.801682
47.639336 20.398550 11.964247
4.894109 2.086504 -1.425575
5.527489 2.354256 -1.387048
6.342204 2.699947 -1.339861
7.436637 3.162798 -1.279947
8.864681 3.766491 -1.182620
10.693285 4.541238 -1.016410
14.041561 5.957404 -0.799379
47.613369 20.191061 11.939952
4.897802 2.067906 -1.424540
5.532083 2.333431 -1.386148
6.351589 2.677793 -1.339861
7.356609 3.098480 -1.264304
8.844841 3.721664 -1.178233
10.778862 4.533232 -1.023034
14.047541 5.902160 -0.798542
47.651215 20.011166 11.931854
4.897861 2.047817 -1.422469
37.655922 15.736363 0.712372
5.543790 2.315610 -1.387048
6.357274 2.654094 -1.339098
7.454891 3.109282 -1.279321
8.846785 3.686183 -1.176770
10.864511 4.524689 -1.029658
14.034867 5.839276 -0.796658
47.569626 19.781866 11.894062
4.901410 2.029231 -1.421434
5.537433 2.290284 -1.383449
6.351985 2.625888 -1.336045
7.429183 3.068158 -1.273064
19.132635 7.897627 2.541463
8.863268 3.656796 -1.177258
10.924447 4.504964 -1.033841
14.029309 5.779601 -0.795193
47.526672 19.569681 11.866168
4.904888 2.010643 -1.420399
5.559423 2.277820 -1.387048
6.353845 2.600723 -1.334518
7.410065 3.031535 -1.268058
8.860644 3.621378 -1.175308
10.940104 4.466805 -1.033841
14.037303 5.728522 -0.794565
47.508305 19.378099 11.845472
4.915109 1.995818 -1.421434
5.556505 2.254007 -1.384349
6.369712 2.582587 -1.336045
7.416938 3.004173 -1.267432
8.876913 3.591913 -1.175796
10.973327 4.437974 -1.035585
18.960705 7.664472 3.975315
14.023882 5.666017 -0.792681
47.492523 19.178614 11.824777
4.932801 1.982971 -1.424540
5.549484 2.229754 -1.380750
6.371402 2.557410 -1.334518
7.452527 2.989856 -1.271812
8.885090 3.560977 -1.175308
19.784058 7.925082 3.375543
10.999850 4.404084 -1.036630
18.749079 7.506694 3.925704
14.005509 5.604636 -0.790587
47.421974 18.967449 11.791485
4.936102 1.964316 -1.423505
5.575729 2.216597 -1.385249
6.376638 2.533709 -1.333755
7.459764 2.961062 -1.271187
8.890701 3.525463 -1.174333
10.997394 4.356402 -1.034887
14.025956 5.553268 -0.790587
4.928887 1.940550 -1.419364
5.579805 2.195694 -1.384349
6.382228 2.508885 -1.332992
7.492630 2.942367 -1.274941
8.902954 3.494405 -1.174333
18.703802 7.337476 3.182190
10.993985 4.310711 -1.033144
18.803604 7.369046 3.925704
14.031337 5.495999 -0.789750
19.461946 7.619223 4.825200
4.932032 1.921929 -1.418329
5.595078 2.178058 -1.386148
6.401925 2.490861 -1.335281
7.480761 2.907609 -1.271187
8.930505 3.467500 -1.176283
19.664753 7.635351 3.341128
10.994105 4.266545 -1.031750
14.020641 5.435432 -0.788075
19.412109 7.521666 4.806304
4.935106 1.903310 -1.417293
5.573176 2.148278 -1.378950
6.403253 2.465676 -1.333755
7.494048 2.884206 -1.271812
8.916013 3.427895 -1.172871
11.020092 4.232425 -1.032796
14.031130 5.386048 -0.787656
4.952219 1.891067 -1.420399
5.591567 2.132977 -1.381649
6.411395 2.444426 -1.333755
7.500379 2.856622 -1.271187
19.652376 7.480937 2.581924
8.939056 3.400989 -1.174333
11.026617 4.193028 -1.032098
19.704317 7.488900 4.097433
14.016236 5.324274 -0.785772
4.962403 1.875139 -1.421434
5.595333 2.112068 -1.380750
6.412540 2.419261 -1.332228
7.521397 2.834601 -1.273064
19.748960 7.438886 2.591186
8.947159 3.368364 -1.173846
11.048646 4.157316 -1.032796
19.598030 7.370320 4.069956
14.012302 5.266880 -0.784516
4.958062 1.853745 -1.418329
37.158298 13.885534 0.692407
5.617275 2.097980 -1.384349
6.417267 2.395490 -1.331465
7.534946 2.809711 -1.273690
8.951421 3.334338 -1.172871
18.603157 6.925850 3.144020
11.025746 4.104823 -1.029309
19.601557 7.293654 4.065377
14.034348 5.219324 -0.784725
19.819319 7.362871 -0.369049
4.957255 1.833746 -1.416258
19.774590 7.310918 0.368001
5.620908 2.077007 -1.383449
19.760538 7.297894 1.103975
6.414539 2.368996 -1.329176
19.736061 7.284930 1.840555
7.526177 2.776553 -1.270561
19.614155 7.232165 2.566812
8.948104 3.297581 -1.170921
19.783890 7.286896 3.339250
11.040009 4.066308 -1.029309
14.003744 5.152375 -0.782004
19.422113 7.142099 4.777511
19.784838 7.271564 -0.367932
4.963626 1.816430 -1.416258
19.769941 7.230862 0.367443
5.609821 2.050684 -1.378950
19.789644 7.230238 1.104184
6.441210 2.353326 -1.332992
7.543244 2.752975 -1.271812
8.981940 3.274488 -1.173846
19.456564 7.089307 3.279805
11.039158 4.022292 -1.027915
19.899193 7.246653 4.116514
13.984108 5.089803 -0.779911
19.851442 7.217494 -0.368700
4.973570 1.800406 -1.417293
37.102341 13.423552 0.688707
5.620611 2.032413 -1.379850
6.442001 2.328157 -1.331465
7.563956 2.730650 -1.273690
19.776207 7.135471 2.581437
8.967172 3.233689 -1.170433
11.049383 3.982379 -1.027566
14.001787 5.040961 -0.779911
4.976186 1.781733 -1.416258
37.092491 13.273734 0.687660
5.624001 2.011470 -1.378950
50.999290 18.230274 2.838388
6.431601 2.299049 -1.327649
7.569721 2.702903 -1.273064
8.982144 3.203700 -1.170921
19.442322 6.930740 3.269168
