# This PCD file was generated using the MATLAB® pcwrite function
# from Computer Vision Toolbox®.
# .PCD v.7 - Point Cloud Data file format
VERSION .7
FIELDS x y z
SIZE 4 4 4
TYPE F F F
COUNT 1 1 1
WIDTH 1617
HEIGHT 1
VIEWPOINT 0 0 0 1 0 0 0
POINTS 1617
DATA ascii
-18.039648 -0.582679 -1.579088
-83.679482 -2.644346 -1.461360
-7.953670 -0.240230 -2.132151
-9.597167 -0.286514 -2.216668
-11.968619 -0.355221 -2.327488
-16.046988 -0.470658 -2.542686
-18.059500 -0.520222 -1.580657
-83.636238 -2.350791 -1.460452
-7.935149 -0.211947 -2.126975
-9.592265 -0.252860 -2.215318
-11.973711 -0.313543 -2.328252
-16.016937 -0.413828 -2.537680
-18.063196 -0.457229 -1.580831
-83.631935 -2.058534 -1.460243
-7.935840 -0.184246 -2.126975
-9.595037 -0.219417 -2.215768
-11.966882 -0.271566 -2.326725
-16.018284 -0.357911 -2.537680
-18.098543 -0.394912 -1.583794
-83.640610 -1.766631 -1.460278
-7.936435 -0.156546 -2.126975
-9.587951 -0.185771 -2.213968
-11.979534 -0.230021 -2.329015
-16.027336 -0.302143 -2.538932
-18.098959 -0.334878 -2.222653
-18.330891 -0.335969 -1.604014
-83.648262 -1.474713 -1.460313
-7.944660 -0.128967 -2.129046
-9.588541 -0.152304 -2.213968
-11.992041 -0.188388 -2.331304
-16.028294 -0.246199 -2.538932
-18.127806 -0.272115 -2.226066
-18.345898 -0.272191 -1.605235
-83.648903 -1.182639 -1.460243
-7.964378 -0.101480 -2.134222
-9.596808 -0.118929 -2.215768
-11.996552 -0.146572 -2.332067
-16.036955 -0.190342 -2.540183
-18.122690 -0.208771 -2.225334
-83.640526 -0.890512 -1.460033
-7.953093 -0.073571 -2.131116
-9.601062 -0.085464 -2.216668
-11.989138 -0.104629 -2.330541
-16.037521 -0.134361 -2.540183
-18.127279 -0.145541 -2.225822
-18.600374 -0.146088 -1.627372
-83.659012 -0.613259 -1.460313
-7.957165 -0.045831 -2.132151
-9.601293 -0.053625 -2.216668
-11.997283 -0.062819 -2.332067
-16.022076 -0.081097 -2.537680
-18.135605 -0.085465 -2.226797
-18.425442 -0.080395 -1.612033
-19.239429 -0.080593 -1.008305
-83.344688 -0.320015 -1.454798
-7.937955 -0.019396 -2.126975
-9.593627 -0.020095 -2.214868
-12.005279 -0.023049 -2.333594
-16.030163 -0.025185 -2.538932
-18.246956 -0.022294 -2.240446
-18.471436 -0.019340 -1.616042
-19.263561 -0.013451 -1.009561
-83.617264 -0.029199 -1.459545
-7.965020 0.008341 -2.134222
-9.613126 0.013422 -2.219367
-11.993505 0.018839 -2.331304
-16.057808 0.030828 -2.543312
-83.654877 0.233582 -4.384183
-83.678841 0.262877 -1.460627
-7.957215 0.036107 -2.132151
-9.597431 0.046903 -2.215768
-11.997293 0.060722 -2.332067
-16.073404 0.086966 -2.545815
-24.070831 0.138639 -2.955575
-83.509750 0.524710 -4.376647
-83.645424 0.554759 -1.460068
-7.949303 0.065211 -2.130081
-9.593311 0.080369 -2.214868
-11.981285 0.104560 -2.329015
-16.088783 0.146018 -2.548318
-24.042410 0.222405 -2.952163
-22.271896 0.213801 -1.948628
-83.646973 0.846776 -1.460138
-7.945163 0.092912 -2.129046
-9.604644 0.115673 -2.217567
-11.988700 0.146478 -2.330541
-16.092125 0.202231 -2.548944
-22.326797 0.292274 -1.953509
-83.647514 1.138810 -1.460208
-7.944790 0.120645 -2.129046
-9.596414 0.147401 -2.215768
-11.995967 0.188446 -2.332067
-16.075563 0.255339 -2.546440
-22.305719 0.369878 -1.951766
-83.615494 1.401105 -4.382718
-83.661026 1.431098 -1.460522
-7.936620 0.146848 -2.126975
-9.588047 0.180753 -2.213968
-12.007053 0.228450 -2.334357
-16.106174 0.312068 -2.551446
-22.274488 0.443250 -1.949151
-83.230698 1.685289 -4.362831
-83.655518 1.723103 -1.460522
-7.955373 0.174976 -2.132151
-9.597099 0.214436 -2.216218
-11.990481 0.270007 -2.331304
-16.069439 0.367471 -2.545815
-22.284758 0.521275 -1.950197
-22.317078 0.529830 -1.169918
-83.656982 2.015299 -1.460662
-7.939264 0.202349 -2.128010
-9.598239 0.247986 -2.216668
-11.993390 0.311960 -2.332067
-16.083858 0.423979 -2.548318
-22.300728 0.599543 -1.951766
-22.311098 0.607615 -1.169709
-83.665436 2.307768 -1.460941
-7.942372 0.230173 -2.129046
-9.593420 0.281374 -2.215768
-12.007929 0.354289 -2.335121
-16.038841 0.478823 -2.541435
-22.346294 0.678836 -1.955949
-83.623726 2.569537 -4.384603
-83.652863 2.599658 -1.460871
-7.945381 0.258023 -2.130081
-9.588484 0.314730 -2.214868
-12.002693 0.396073 -2.334357
-16.088402 0.536514 -2.549569
-24.049639 0.810414 -2.954601
-22.409500 0.759061 -1.961701
-83.127182 2.844757 -4.359062
-83.695244 2.893445 -1.461779
-7.940571 0.285617 -2.129046
-9.579536 0.347918 -2.213068
-11.989466 0.437539 -2.332067
-16.086432 0.592674 -2.549569
-24.126013 0.897304 -2.964350
-22.522192 0.841596 -1.971811
-83.668648 3.184972 -1.461499
-7.951108 0.313789 -2.132151
-9.597736 0.382130 -2.217567
-11.972174 0.478757 -2.329015
-16.084265 0.648823 -2.549569
-22.543005 0.921185 -1.973903
-83.737556 3.465720 -1.462896
-7.938384 0.341044 -2.129046
-9.608098 0.414459 -2.220267
-11.970428 0.520545 -2.329015
-16.062288 0.701296 -2.546440
-22.889778 1.007390 -2.813232
-22.483921 0.997392 -1.969023
-22.393044 0.997282 -1.174733
-83.744911 3.758877 -1.463245
-7.937210 0.367367 -2.129046
-9.594913 0.447449 -2.217567
-11.992169 0.561340 -2.333594
-16.063690 0.757542 -2.547066
-22.346785 1.061667 -2.746935
-22.460587 1.070997 -1.967279
-22.389425 1.075442 -1.174733
-83.787209 4.053886 -1.464222
-7.939737 0.395263 -2.130081
-9.589399 0.480744 -2.216668
-11.966609 0.602013 -2.329015
-16.053057 0.813211 -2.545815
-22.223993 1.133594 -2.732311
-22.448753 1.148986 -1.966582
-22.411463 1.154921 -1.176094
-83.788528 4.347185 -1.464501
-7.934451 0.422770 -2.129046
-9.568204 0.513171 -2.212169
-11.968355 0.643992 -2.329778
-16.061954 0.869883 -2.547692
-22.271437 1.213973 -2.738648
-22.482407 1.229408 -1.969894
-7.944499 0.451121 -2.132151
-9.581920 0.547454 -2.215768
-11.958194 0.685317 -2.328252
-16.074596 0.926855 -2.550195
-24.173517 1.402301 -2.973125
-83.740166 4.931073 -1.464222
-7.935163 0.478385 -2.130081
-9.576059 0.580664 -2.214868
-11.955729 0.727055 -2.328252
-16.071262 0.982960 -2.550195
-24.097149 1.482281 -2.964350
-83.674088 5.191037 -4.393604
-83.734421 5.224100 -1.464431
-7.929589 0.505834 -2.129046
-9.573974 0.614088 -2.214868
-11.953118 0.768781 -2.328252
-16.063793 1.038799 -2.549569
-24.091827 1.566393 -2.964350
-83.111374 5.447403 -4.365029
-83.747597 5.518442 -1.464990
-7.916210 0.532732 -2.125940
-9.567883 0.647238 -2.213968
-11.942527 0.809970 -2.326725
-16.052187 1.094325 -2.548318
-24.086212 1.650481 -2.964350
-83.715858 5.809934 -1.464780
-7.918156 0.560636 -2.126975
-9.573341 0.681186 -2.215768
-11.963125 0.853331 -2.331304
-16.064032 1.151481 -2.550821
-24.080305 1.734542 -2.964350
-83.806755 6.110266 -1.466735
-7.920003 0.588557 -2.128010
-9.578679 0.715180 -2.217567
-11.928751 0.892738 -2.325199
-16.067793 1.208145 -2.552072
-24.074102 1.818588 -2.964350
-82.776939 6.296662 -4.350688
-83.784912 6.402772 -1.466735
-7.917901 0.616200 -2.128010
-9.560580 0.747397 -2.213968
-11.941219 0.935599 -2.328252
-16.102861 1.267321 -2.558329
-24.119059 1.906679 -2.970687
-82.754448 6.585591 -4.350688
-83.762054 6.695179 -1.466735
-7.908000 0.643209 -2.125940
-9.561798 0.781082 -2.214868
-11.945708 0.977917 -2.329778
-16.090466 1.322876 -2.557078
-24.132040 1.992499 -2.973125
-83.738174 6.987525 -1.466735
-7.905707 0.670807 -2.125940
-9.551247 0.813793 -2.213068
-11.926572 1.018271 -2.326725
-16.105433 1.380722 -2.560207
-24.053740 2.070589 -2.964350
-83.812881 7.288467 -1.468480
-7.914863 0.699421 -2.129046
-9.548347 0.847126 -2.213068
-11.934678 1.060942 -2.329015
-16.088709 1.435874 -2.558329
-24.046366 2.154541 -2.964350
-83.609901 7.535528 -4.399570
-7.904678 0.726338 -2.126975
-9.533690 0.879377 -2.210369
-11.907442 1.100428 -2.324435
-16.095400 1.493125 -2.560207
-24.038696 2.238465 -2.964350
-82.904991 7.763835 -4.363877
-7.882863 0.752090 -2.121799
-9.534442 0.913025 -2.211269
-11.919164 1.143486 -2.327488
-16.097954 1.550057 -2.561458
-24.030737 2.322357 -2.964350
-7.895570 0.781123 -2.125940
-9.544771 0.947648 -2.214418
-11.915100 1.185083 -2.327488
-16.112103 1.608202 -2.564587
-24.022484 2.406233 -2.964350
-7.881265 0.807498 -2.122834
-9.529775 0.979762 -2.211719
-11.918701 1.227472 -2.329015
-16.067091 1.660370 -2.558329
-23.915644 2.475656 -2.952163
-7.890070 0.834849 -2.125940
-9.514846 1.010125 -2.209019
-11.910662 1.266574 -2.328252
-16.081141 1.715737 -2.561458
-24.005999 2.565498 -2.964350
-7.887259 0.861009 -2.125940
-9.509507 1.041460 -2.208570
-11.918104 1.307349 -2.330541
-16.079290 1.769488 -2.562084
-23.925861 2.641443 -2.955575
-7.861169 0.885938 -2.119728
-9.509686 1.075086 -2.209469
-11.917370 1.349385 -2.331304
-16.080868 1.826496 -2.563336
-23.987503 2.733029 -2.964350
-7.869542 0.914711 -2.122834
-9.529102 1.110983 -2.214868
-11.932088 1.393251 -2.335121
-16.035152 1.878023 -2.557078
-23.906839 2.808407 -2.955575
-61.236496 7.226138 -3.231536
-7.881646 0.944016 -2.126975
-9.503884 1.141680 -2.209919
-11.931049 1.435365 -2.335884
-16.024578 1.933508 -2.556452
-23.869299 2.888502 -2.952163
-61.191074 7.437441 -3.230489
-7.870633 0.970576 -2.124904
-9.495973 1.174372 -2.209019
-11.937657 1.478452 -2.338174
-16.025572 1.990410 -2.557704
-23.859072 2.971799 -2.952163
-61.212307 7.656929 -3.233002
-7.882355 1.001363 -2.129046
-9.505347 1.209234 -2.212169
-11.908789 1.519212 -2.333594
-16.041681 2.052138 -2.561458
-23.848553 3.055071 -2.952163
-7.863486 1.026872 -2.124904
-9.496987 1.243556 -2.211269
-11.922879 1.563327 -2.337410
-16.022671 2.106577 -2.559581
-23.935602 3.155427 -2.964350
-7.836878 1.051231 -2.118693
-9.488949 1.274524 -2.210369
-11.905675 1.603362 -2.335121
-16.015596 2.159699 -2.559581
-23.854185 3.225209 -2.955575
-7.844831 1.078793 -2.121799
-53.096851 7.311129 0.935554
-9.476720 1.306575 -2.208570
-11.900292 1.642834 -2.335121
-15.988393 2.212883 -2.556452
-23.815252 3.304636 -2.952163
-53.016670 7.384959 -2.805312
-7.848670 1.107249 -2.123869
-9.491630 1.340719 -2.213068
-11.898373 1.684914 -2.335884
-15.969230 2.264227 -2.554575
-23.831678 3.387505 -2.955575
-52.932571 7.552266 -2.802172
-7.829462 1.132428 -2.119728
-9.482796 1.374940 -2.212169
-11.876876 1.724181 -2.332831
-15.980372 2.325587 -2.557704
-23.764103 3.466806 -2.948751
-52.975674 7.756653 -2.805940
-7.833105 1.160882 -2.121799
-9.477939 1.408033 -2.212169
-11.882438 1.767359 -2.335121
-15.960436 2.379608 -2.555827
-23.681177 3.539175 -2.939976
-7.825185 1.187638 -2.120763
-9.499938 1.445210 -2.218467
-11.876196 1.808826 -2.335121
-15.944220 2.434109 -2.554575
-23.668678 3.621817 -2.939976
-7.820992 1.214948 -2.120763
-9.487390 1.475507 -2.216668
-11.865929 1.849669 -2.334357
-15.916544 2.483924 -2.551446
-7.816920 1.240875 -2.120763
-9.478333 1.508003 -2.215768
-11.859400 1.891075 -2.334357
-15.911679 2.540091 -2.552072
-7.831388 1.272616 -2.125940
-9.501594 1.547432 -2.222516
-11.848514 1.933897 -2.333594
-15.886664 2.595849 -2.549569
-23.629454 3.869473 -2.939976
-45.227009 7.414316 7.258873
-45.399788 7.467050 10.622189
-7.819047 1.300043 -2.123869
-44.861893 7.467062 0.793840
-9.470868 1.578083 -2.216668
-11.849438 1.976540 -2.335121
-15.896528 2.657312 -2.552698
-23.615112 3.956048 -2.939976
-45.142410 7.562342 7.249487
-44.799400 7.528996 -2.380763
-7.803034 1.325388 -2.120763
-9.480953 1.612094 -2.220267
-11.842466 2.017887 -2.335121
-15.872049 2.707356 -2.550195
-23.652740 4.043035 -2.946313
-45.244247 7.741863 7.270136
-43.366879 7.428422 8.552442
-44.660011 7.657939 -2.374692
-45.346554 7.783808 10.622189
-7.821439 1.355215 -2.126975
-9.444548 1.639843 -2.213068
-11.820234 2.054458 -2.332067
-15.843043 2.759351 -2.547066
-23.587639 4.116700 -2.939976
-42.884285 7.499928 8.462379
-44.731380 7.831007 -2.379925
-7.812856 1.381836 -2.125940
-9.439058 1.671154 -2.213068
-11.824590 2.097764 -2.334357
-15.845474 2.813949 -2.548944
-23.573858 4.194898 -2.939976
-41.689922 7.426104 6.706972
-44.752354 7.987723 -2.382438
-7.813933 1.408765 -2.127493
-9.437003 1.704785 -2.213968
-11.813704 2.136266 -2.333594
-15.827781 2.867831 -2.547692
-23.414539 4.250921 -2.921940
-40.974083 7.453639 8.095263
-7.791619 1.434246 -2.122834
-9.430994 1.737719 -2.213968
-11.813519 2.180974 -2.335121
-15.801623 2.922953 -2.545189
-40.583572 7.507070 5.067571
-40.087109 7.429706 6.457303
-40.877007 7.590854 8.081525
-40.355675 7.508626 9.476738
-7.797957 1.463573 -2.125940
-9.432223 1.773712 -2.215768
-11.786539 2.218566 -2.331304
-15.760265 2.972233 -2.540183
-23.430334 4.427208 -2.927789
-38.788418 7.357187 -0.689126
-7.796596 1.491512 -2.126975
-38.710033 7.405347 0.687939
-9.418633 1.803515 -2.213968
-39.178139 7.509064 2.090612
-11.778723 2.259699 -2.331304
-15.750322 3.024480 -2.540183
-23.318056 4.486131 -2.915602
-38.868591 7.506011 9.139312
-38.173492 7.378699 -0.678654
-7.795399 1.518094 -2.128010
-9.393153 1.832649 -2.209469
-11.790434 2.302510 -2.335121
-15.747424 3.080958 -2.541435
-40.553387 7.941564 5.073909
-23.302256 4.567494 -2.915602
-38.000206 7.448451 6.133170
-37.516747 7.360487 -3.344863
-38.195869 7.514495 8.987245
-37.466007 7.370905 -0.666507
-7.809002 1.549057 -2.133187
-37.289619 7.397070 0.663575
-9.406138 1.867584 -2.213968
-11.766920 2.340585 -2.332067
-15.721622 3.130076 -2.538932
-37.346336 7.455752 6.031801
-36.834358 7.360235 -3.286294
-37.366131 7.466494 7.406824
-36.915260 7.383092 -1.972961
-37.559269 7.518712 8.843275
-36.828300 7.379079 -0.655617
-7.765949 1.567299 -2.122834
-9.399562 1.900406 -2.213968
-36.851433 7.457328 1.970449
-11.759093 2.379593 -2.332067
-15.749320 3.192786 -2.545189
-36.844841 7.476077 4.616168
-23.270626 4.726002 -2.915602
-36.665783 7.453071 5.926051
-36.222729 7.369593 -3.234001
-36.920444 7.511545 7.323631
-36.204285 7.372421 -1.936326
-37.070702 7.555592 8.734400
-36.238029 7.392467 -0.645564
-7.779074 1.599645 -2.128010
-36.061844 7.415553 0.642633
-9.377602 1.930061 -2.210369
-36.629559 7.545622 1.959982
-11.765676 2.425848 -2.335121
-36.057610 7.440913 3.221102
-15.706559 3.244096 -2.540183
-36.779636 7.596614 4.611292
-23.253986 4.807203 -2.915602
-36.105648 7.470547 5.839699
-35.537342 7.359427 -3.175084
-36.100636 7.482651 7.166405
-35.543400 7.373621 -1.902412
-36.187958 7.513925 8.532844
-35.577637 7.387200 -0.634255
-7.746971 1.621247 -2.120763
-9.366650 1.963621 -2.209469
-36.700737 7.693929 1.965215
-11.753293 2.466094 -2.334357
-15.695139 3.298902 -2.540183
-36.778744 7.737080 4.614705
-23.236212 4.892402 -2.915602
-35.599972 7.495601 5.762108
-34.973358 7.370041 -3.126974
-35.432693 7.473287 7.038945
-35.001534 7.388740 -1.874779
-35.740139 7.551173 8.433415
-34.980331 7.390641 -0.624063
-7.756381 1.651498 -2.124904
-34.835686 7.417257 0.621690
-9.360086 1.994671 -2.209469
-36.673660 7.821984 1.965215
-11.740773 2.506290 -2.333594
-15.684114 3.350932 -2.540183
-36.795593 7.868134 4.620068
-23.122803 4.948658 -2.903415
-34.797100 7.453500 5.636334
-34.386356 7.371787 -3.076772
-34.897087 7.481278 6.937434
-34.332417 7.366499 -1.840237
-35.661552 7.658195 8.420817
-34.424507 7.398820 -0.614604
-7.765967 1.680479 -2.129046
-34.293621 7.427078 0.612475
-9.364494 2.029807 -2.212169
-36.622704 7.944870 1.963959
-11.720886 2.542710 -2.331304
-15.672320 3.405656 -2.540183
-22.977367 5.001476 -2.887329
-34.303787 7.473155 5.560620
-33.850391 7.380579 -3.031102
-34.325993 7.484277 6.829054
-33.853779 7.387507 -1.815953
-33.917889 7.413901 -0.606017
-7.740889 1.704777 -2.123869
-33.736301 7.429749 0.602981
-9.353546 2.061644 -2.211269
-11.719156 2.587345 -2.332831
-33.810196 7.470775 3.029359
-15.659733 3.463079 -2.540183
-33.859509 7.487877 4.257872
-22.603146 5.002716 -2.842481
-33.722046 7.469816 5.470514
-33.307011 7.383987 -2.984735
-33.757839 7.490107 6.721438
-33.303940 7.395496 -1.787901
-33.313988 7.403836 -0.595686
-7.719810 1.728411 -2.119728
-33.236626 7.447537 0.594534
-9.342124 2.095060 -2.210369
-11.698560 2.625658 -2.330541
-33.301811 7.480457 2.986130
-15.632132 3.514251 -2.537680
-33.332172 7.499499 4.194987
-22.294165 5.020121 -2.805920
-33.551842 7.561228 5.447362
-32.731636 7.382390 -2.935580
-33.202908 7.488681 6.616111
-32.712929 7.384178 -1.757546
-36.528419 8.252136 8.645769
-32.861435 7.429747 -0.588076
-7.736026 1.761842 -2.125940
-32.683987 7.443617 0.585109
-9.323353 2.125059 -2.207669
-39.020725 8.901104 2.097521
-11.692685 2.669391 -2.331304
-32.912895 7.519921 2.953708
-15.599891 3.567120 -2.534552
-32.806522 7.501642 4.132102
-21.877884 5.006683 -2.755710
-32.286186 7.400450 -2.897928
-32.700676 7.501472 6.521470
-32.218460 7.396763 -1.732425
-36.524517 8.392075 8.652067
-32.445511 7.454859 -0.581095
-33.043564 7.598343 9.085067
-7.722612 1.785743 -2.123869
-32.170753 7.444947 0.576383
-9.319676 2.158471 -2.208570
-11.691420 2.709925 -2.332831
-32.472435 7.532676 2.916405
-15.603367 3.622405 -2.537054
-32.312206 7.507402 4.073117
-21.570246 5.015583 -2.719149
-33.557316 7.802854 5.456748
-31.760813 7.390969 -2.852956
-32.182304 7.494982 6.423013
-31.750259 7.400197 -1.708560
-36.485104 8.510485 8.649367
-7.714450 1.812249 -2.123352
-31.659212 7.437262 0.567657
-9.308672 2.188472 -2.207669
-39.005894 9.177474 2.100033
-11.666602 2.747120 -2.329778
-31.961123 7.531732 2.872828
-15.579735 3.671410 -2.535177
-31.780933 7.495116 4.009258
-21.232782 5.011391 -2.678689
-33.556789 7.926302 5.461128
-31.323761 7.404628 -2.816002
-31.736937 7.502299 6.339056
-31.305731 7.406127 -1.685951
-36.509773 8.643998 8.661965
-31.919638 7.569012 8.790012
-7.710278 1.838268 -2.123869
-31.267384 7.460477 0.561095
-9.300977 2.220950 -2.207669
-39.024124 9.325653 2.102754
-11.668883 2.788530 -2.332067
-15.570666 3.726687 -2.535803
-31.298979 7.496889 3.951736
-21.029839 5.041054 -2.655289
-33.594227 8.059049 5.471765
-30.868927 7.405266 -2.777305
-31.260029 7.504868 6.248995
-30.871868 7.417377 -1.663970
-31.371170 7.543131 7.449029
-31.479828 7.580883 8.676133
-7.688794 1.861536 -2.119728
-30.798040 7.462205 0.553137
-9.308319 2.257077 -2.211269
-39.018505 9.468410 2.104220
-11.636185 2.823690 -2.327488
-30.824894 7.485800 2.775213
-15.511495 3.769821 -2.528294
-30.890705 7.513209 3.903476
-20.954254 5.100343 -2.647977
-30.413143 7.408301 -2.738608
-30.791130 7.506067 6.160460
-30.395626 7.415274 -1.639686
-30.909227 7.546288 7.345552
-33.376968 8.154943 -0.599734
-7.697257 1.892051 -2.123869
-30.348490 7.465533 0.545527
-9.289030 2.286763 -2.208570
-11.645319 2.868985 -2.331304
-30.384602 7.491289 2.737911
-15.517419 3.828679 -2.531423
-30.394051 7.504881 3.844003
-20.874655 5.158218 -2.640178
-33.649822 8.315017 5.489912
-30.000273 7.418761 -2.703745
-30.516991 7.552192 6.110849
-30.051611 7.442581 -1.622519
-30.451429 7.547248 7.242974
-33.357502 8.267505 -0.599874
-7.686857 1.917973 -2.122834
-29.888960 7.457692 0.537709
-9.273833 2.315664 -2.206770
-38.968658 9.737647 2.105057
-11.627617 2.907712 -2.329778
-29.975573 7.501543 2.703397
-15.523802 3.884912 -2.534552
-29.960762 7.503394 3.792331
-20.691837 5.185910 -2.619216
-33.643578 8.438200 5.493666
-29.042751 7.289648 -2.619727
-30.095705 7.553936 6.031473
-29.069847 7.301835 -1.570812
-29.961311 7.531321 7.132298
-33.402134 8.402433 -0.601201
-7.672963 1.941557 -2.120763
-29.444029 7.455950 0.530169
-9.258137 2.346107 -2.204970
-38.957661 9.879506 2.106313
-11.606492 2.943360 -2.327488
-29.564299 7.502880 2.668535
-15.498656 3.936159 -2.532674
-29.553453 7.511107 3.744070
-20.604349 5.240492 -2.610441
-33.640717 8.562410 5.498046
-29.095652 7.405576 -2.626700
-29.494600 7.512592 5.916224
-29.109982 7.420043 -1.574370
-29.560959 7.540490 7.043218
-32.159691 8.209352 -0.579350
-32.469151 8.294392 8.979468
-7.669880 1.969290 -2.121799
-29.111813 7.480050 0.524654
-9.261214 2.381321 -2.207669
-39.019650 10.040320 2.111547
-11.577133 2.978964 -2.323672
-29.198341 7.518597 2.637856
-15.477171 3.988261 -2.531423
-29.165678 7.521034 3.698247
-20.601309 5.316357 -2.612391
-29.050922 7.502257 4.752167
-28.784121 7.433356 -2.600902
-29.107042 7.522169 5.843717
-28.728115 7.429598 -1.555111
-29.153370 7.544998 6.952337
-28.805088 7.460225 -0.519384
-29.212271 7.571129 8.086024
-7.655483 1.994102 -2.119728
-28.675295 7.474698 0.517254
-9.241532 2.410684 -2.204970
-11.559067 3.017371 -2.322146
-28.767105 7.514717 2.601250
-15.474622 4.045260 -2.533300
-28.782042 7.529352 3.652912
-20.613352 5.396275 -2.616291
-28.711170 7.521520 4.700856
-28.407221 7.441894 -2.569177
-28.695091 7.522667 5.766248
-28.381315 7.445695 -1.537735
-28.742340 7.545770 6.860557
-28.419132 7.466226 -0.512891
-28.871782 7.590525 7.999062
-7.644740 2.019828 -2.118693
-28.308775 7.484787 0.511111
-9.236830 2.443923 -2.205870
-28.445438 7.531544 1.542131
-11.567442 3.062730 -2.325962
-28.440254 7.535483 2.574058
-15.445133 4.095202 -2.530797
-28.371841 7.527956 3.604164
-20.586716 5.466159 -2.615316
-28.501463 7.572999 4.670821
-28.046019 7.451984 -2.538847
-28.528257 7.585448 5.738008
-27.961409 7.439953 -1.516382
-28.320370 7.540758 6.766078
-28.300150 7.540662 -0.511216
-28.606182 7.627553 7.932804
-7.641375 2.047500 -2.119728
-27.957989 7.496545 0.505247
-9.209420 2.471101 -2.201371
-28.002323 7.518917 1.519522
-11.564264 3.105126 -2.327488
-28.436865 7.640917 2.576149
-15.449819 4.154220 -2.533926
-27.962009 7.523790 3.555417
-20.556009 5.534891 -2.613854
-27.940798 7.528542 4.583218
-27.658167 7.452388 -2.506076
-27.568892 7.438656 -1.496495
-27.943941 7.545084 6.682396
-28.308403 7.648793 -0.511844
-7.634181 2.074162 -2.119728
-27.483974 7.472376 0.497149
-9.219543 2.508351 -2.205870
-27.629028 7.522178 1.500681
-11.523046 3.137222 -2.321382
-15.419977 4.203969 -2.531423
-27.556385 7.517900 3.507156
-20.525074 5.603470 -2.612391
-27.537048 7.522953 4.521269
-27.286032 7.454377 -2.474700
-28.516270 7.795818 5.746404
-27.207552 7.443143 -1.478282
-27.556553 7.543788 6.596014
-28.285387 7.748618 -0.511914
-27.654211 7.580900 7.683302
-7.623169 2.099770 -2.118693
-27.106863 7.471560 0.490797
-9.203216 2.538445 -2.204070
-27.259905 7.523982 1.482050
-11.512025 3.177424 -2.321382
-28.451965 7.858353 2.582425
-15.412825 4.259874 -2.532674
-27.170282 7.514556 3.461333
-20.505388 5.675087 -2.612391
-27.171759 7.525183 4.465579
-26.887341 7.446414 -2.440884
-28.481318 7.893208 5.744878
-26.846518 7.445198 -1.460069
-27.154499 7.535712 6.506034
-28.304411 7.860141 -0.512752
-27.266485 7.577041 7.582881
-7.612072 2.125328 -2.117657
-26.745499 7.472513 0.484723
-9.201806 2.572652 -2.205870
-26.914190 7.529766 1.464674
-11.515989 3.221821 -2.324435
-28.420523 7.956548 2.582076
-15.340798 4.297659 -2.523288
-26.818949 7.518263 3.419898
-20.470161 5.742341 -2.610441
-26.863852 7.540965 4.419274
-26.512066 7.442215 -2.409159
-28.548094 8.019133 5.763958
-26.501192 7.449150 -1.442693
-26.809118 7.540745 6.429551
-28.292202 7.963236 -0.513031
-26.931192 7.585234 7.496953
-7.612041 2.153992 -2.119728
-26.434494 7.485189 0.479557
-9.177771 2.600507 -2.202271
-26.549553 7.527786 1.446252
-11.482007 3.255576 -2.319856
-28.442417 8.069839 2.586608
-15.352306 4.358736 -2.527668
-26.452642 7.515274 3.376512
-20.446175 5.812670 -2.609954
-26.442167 7.522266 4.354198
-26.156315 7.440947 -2.379178
-28.565243 8.131635 5.773117
-26.140802 7.446398 -1.424480
-26.583979 7.577656 6.381861
-28.364227 8.090469 -0.514846
-26.544167 7.576326 7.396531
-7.611904 2.182678 -2.121799
-26.073755 7.481452 0.473484
-9.172383 2.633603 -2.203171
-26.208303 7.529960 1.429086
-11.485668 3.299971 -2.322909
-28.471516 8.185588 2.591837
-15.340794 4.413396 -2.528294
-26.197336 7.541660 3.347264
-20.395241 5.875214 -2.606054
-26.104458 7.524797 4.302887
-25.850668 7.451641 -2.353728
-28.608368 8.251967 5.787619
-25.815298 7.451198 -1.408151
-26.250320 7.581731 6.308077
-26.209496 7.579845 7.310603
-7.593109 2.206002 -2.118693
-25.732569 7.480871 0.467759
-9.159392 2.664516 -2.202271
-25.910866 7.537610 1.414222
-11.458999 3.335654 -2.319856
-29.498684 8.592495 2.688057
-15.313918 4.463599 -2.526417
-25.949791 7.568585 3.318990
-20.378418 5.947483 -2.606542
-25.768375 7.520553 4.251576
-25.510853 7.450227 -2.325141
-29.574373 8.642546 5.989113
-25.482410 7.451581 -1.391404
-25.834671 7.559477 6.214498
-25.835659 7.564662 7.213287
-7.581655 2.231402 -2.117657
-25.419868 7.481474 0.462524
-9.146768 2.693772 -2.201371
-25.543383 7.527515 1.395591
-11.451052 3.376743 -2.320619
-29.453226 8.690903 2.686663
-15.306609 4.516593 -2.527668
-25.616129 7.563532 3.279504
-20.354776 6.013904 -2.606054
-25.442663 7.521969 4.202143
-25.205753 7.456712 -2.299691
-29.586967 8.752824 5.997509
-25.185619 7.455536 -1.376541
-25.417078 7.528878 6.120018
-25.501648 7.563612 7.127359
-7.563105 2.253222 -2.114552
-25.086985 7.478749 0.456939
-9.135441 2.725130 -2.200921
-25.206913 7.524089 1.378634
-11.439791 3.414698 -2.320619
-29.437609 8.792510 2.687883
-15.241542 4.555289 -2.519534
-25.300488 7.566450 3.242456
-20.348875 6.089467 -2.608004
-25.124828 7.523471 4.153961
-24.883137 7.451098 -2.272499
-29.559996 8.857176 5.998272
-24.864819 7.455071 -1.360421
-25.114393 7.534677 6.053433
-25.802292 7.745965 -0.470238
-25.190161 7.566999 7.047643
-7.569991 2.284072 -2.118693
-24.792713 7.485363 0.452052
-9.114679 2.753620 -2.198222
-24.912844 7.531115 1.363980
-11.442836 3.459152 -2.323672
-29.475389 8.915988 2.694158
-15.217985 4.606175 -2.518282
-24.867350 7.531574 3.190296
-20.331293 6.161618 -2.608492
-24.795956 7.519408 4.103902
-24.597672 7.459278 -2.248792
-29.551445 8.967140 6.002851
-24.548155 7.453619 -1.344511
-24.834356 7.545253 5.992246
-32.084942 9.754256 -0.585354
-24.871576 7.566045 6.965856
-7.556428 2.308789 -2.117140
-24.487234 7.486501 0.446956
-9.099422 2.783708 -2.196872
-24.624166 7.533058 1.349535
-11.411920 3.493328 -2.319856
-29.489807 9.032827 2.698342
-15.243364 4.671999 -2.525165
-24.514479 7.518228 3.148373
-20.267910 6.219738 -2.603129
-24.510277 7.521619 4.060727
-24.304838 7.463210 -2.224389
-29.602535 9.095618 6.019643
-24.266172 7.460613 -1.330485
-24.729639 7.607823 5.973350
-32.090645 9.872362 -0.586052
-24.598940 7.572320 6.896492
-7.557551 2.338008 -2.119728
-24.171898 7.477833 0.441651
-9.088280 2.813291 -2.196422
-24.288654 7.523236 1.332578
-11.392153 3.530820 -2.318329
-15.205146 4.715502 -2.521411
-24.235363 7.520638 3.115712
-20.247173 6.286916 -2.603129
-24.208454 7.521553 4.015048
-23.978031 7.454550 -2.196848
-23.962860 7.454425 -1.315203
-24.674503 7.680521 5.966152
-32.075081 9.990275 -0.586401
-24.295700 7.571920 6.818847
-7.527633 2.356131 -2.113516
-23.935738 7.496415 0.437811
-9.083983 2.846747 -2.197772
-24.027243 7.529679 1.319599
-11.376637 3.567401 -2.317566
-29.545502 9.270323 2.709149
-15.199903 4.772100 -2.523288
-23.940035 7.520713 3.081101
-20.202383 6.350406 -2.600204
-23.919554 7.518859 3.971246
-23.690897 7.451527 -2.172792
-28.244030 8.889054 5.755563
-23.673803 7.455232 -1.300758
-24.636395 7.763092 5.963453
-32.083736 10.109799 -0.587169
-23.971983 7.558338 6.734990
-7.510154 2.379476 -2.110928
-23.655302 7.494815 0.433134
-9.076350 2.877444 -2.198222
-23.715248 7.522918 1.303898
-11.364115 3.607091 -2.317566
-29.463591 9.357720 2.704617
-15.165166 4.816500 -2.520159
-23.672808 7.523098 3.049902
-20.184994 6.418568 -2.600692
-23.629627 7.518458 3.927444
-23.402752 7.450769 -2.148738
-23.653551 7.530616 4.825178
-23.420584 7.460954 -1.288197
-24.673641 7.864870 5.978749
-32.093971 10.236322 -0.588006
-23.676756 7.556218 6.659414
-7.523456 2.414069 -2.117140
-23.401682 7.513457 0.429015
-9.059669 2.910485 -2.196872
-23.450409 7.538131 1.290919
-11.358294 3.651122 -2.319093
-29.448063 9.471747 2.706360
-15.090150 4.856539 -2.510773
-23.371653 7.526319 3.014804
-20.148863 6.492378 -2.599230
-23.359934 7.531545 3.887397
-23.159111 7.466797 -2.128866
-23.387169 7.544832 4.776712
-23.144674 7.471068 -1.274590
-24.702602 7.978719 5.993146
-32.081070 10.368081 -0.588495
-23.441696 7.580500 6.601439
-7.507635 2.437928 -2.115069
-23.192738 7.535777 0.425664
-9.032774 2.936669 -2.192823
-23.180847 7.540854 1.277521
-11.338013 3.688316 -2.317566
-29.464081 9.590518 2.710892
-15.069348 4.907960 -2.510148
-23.201794 7.561116 2.996280
-20.114756 6.558975 -2.597767
-23.119417 7.543191 3.851730
-22.886669 7.467253 -2.106205
-23.114334 7.546003 4.726339
-22.841269 7.461263 -1.259308
-25.374769 8.293750 6.163209
-32.094101 10.496173 -0.589403
-23.264538 7.613008 6.558992
-7.488067 2.460503 -2.111964
-22.942131 7.542989 0.421545
-9.037279 2.973052 -2.196422
-22.928045 7.542786 1.264960
-11.310149 3.722963 -2.314513
-29.472055 9.707021 2.714727
-15.037116 4.955583 -2.507645
-23.130016 7.627134 2.990430
-20.062731 6.615695 -2.593867
-22.809135 7.525738 3.804174
-22.641001 7.474638 -2.085986
-22.860426 7.551509 4.679781
-22.614071 7.474508 -1.248213
-25.365631 8.383966 6.167708
-23.382689 7.733088 -0.429888
-22.997068 7.610004 6.490664
-7.483533 2.486538 -2.112999
-22.700668 7.547108 0.417566
-9.012576 2.998083 -2.192823
-22.656536 7.536821 1.251353
-11.312644 3.765406 -2.317566
-29.469948 9.814775 2.717516
-15.005606 5.000425 -2.505142
-23.108364 7.705051 2.990918
-20.036913 6.680933 -2.593380
-22.540453 7.520064 3.763501
-22.370405 7.467670 -2.063325
-22.615526 7.553884 4.634751
-22.361847 7.473489 -1.235652
-32.082573 10.728451 -0.590485
-22.627287 7.570982 6.393348
-7.455102 2.504573 -2.107305
-22.413942 7.534418 0.412749
-9.013667 3.031682 -2.195522
-22.395363 7.536868 1.238374
-11.277104 3.797357 -2.312987
-14.940271 5.033760 -2.497007
-19.994661 6.744491 -2.590942
-22.278240 7.519106 3.724079
-22.151661 7.480685 -2.045545
-22.324907 7.543538 4.580561
-22.116146 7.477298 -1.223510
-25.385511 8.582645 6.186604
-32.090385 10.855752 -0.591322
-22.326242 7.557014 6.315702
-7.469649 2.539966 -2.114034
-22.170361 7.543086 0.408770
-8.991426 3.060932 -2.192823
-22.170967 7.551928 1.227488
-11.277978 3.843728 -2.316040
-29.464832 10.042120 2.723443
-14.809541 5.050234 -2.478235
-23.042736 7.862344 2.989455
-19.951023 6.811312 -2.588505
-22.041166 7.529192 3.689038
-21.867693 7.474195 -2.021839
-22.063053 7.545262 4.532477
-21.888285 7.489767 -1.212415
-25.368635 8.680678 6.190203
-32.107140 10.992730 -0.592370
-22.097361 7.569920 6.258762
-7.462116 2.567955 -2.114552
-21.927017 7.550080 0.404791
-8.976462 3.092595 -2.191923
-21.898987 7.544698 1.213880
-11.253355 3.879233 -2.313750
-29.480564 10.168244 2.728323
-14.652751 5.056789 -2.455083
-23.032526 7.953226 2.991893
-19.895901 6.874023 -2.584605
-21.813107 7.536417 3.655248
-21.675760 7.493192 -2.006500
-21.817640 7.546508 4.487446
-21.624193 7.483822 -1.199226
-25.362429 8.782522 6.196502
-32.083691 11.109966 -0.592649
-21.851755 7.571120 6.196646
-7.456756 2.595259 -2.115587
-21.690340 7.549135 0.400882
-8.955115 3.118500 -2.189224
-21.672598 7.551436 1.202785
-11.224914 3.913324 -2.310697
-29.486280 10.285520 2.732158
-14.494150 5.055906 -2.431305
-23.961880 8.363168 3.116199
-19.858004 6.934727 -2.582655
-21.588999 7.543440 3.622084
-21.427544 7.491221 -1.985931
-21.603464 7.552724 4.448521
-21.403191 7.486906 -1.188340
-25.377310 8.882030 6.207300
-32.086235 11.236442 -0.593417
-21.726740 7.612855 6.168694
-7.426241 2.612277 -2.109375
-21.475229 7.558408 0.397391
-8.951528 3.152330 -2.191023
-21.435129 7.552698 1.191062
-11.208173 3.949216 -2.309934
-29.485832 10.395167 2.735296
-14.346011 5.060471 -2.409404
-23.966234 8.458658 3.120587
-19.829935 7.002676 -2.582168
-21.413532 7.566106 3.597054
-21.177153 7.482586 -1.965013
-21.336338 7.543025 4.398911
-21.173571 7.489634 -1.177036
-25.360846 8.975761 6.210898
-32.084515 11.361725 -0.594115
-21.670902 7.678321 6.160411
-7.404335 2.633653 -2.105752
-21.226410 7.554210 0.393273
-8.933126 3.180940 -2.189224
-21.190386 7.549724 1.178920
-11.201715 3.990954 -2.311460
-21.154297 7.541026 1.964839
-14.171972 5.054774 -2.383123
-23.955259 8.548931 3.123024
-19.805370 7.071854 -2.582168
-21.227013 7.583653 3.570148
-20.970785 7.492113 -1.948280
-21.113916 7.547404 4.358459
-20.944193 7.490856 -1.165731
-25.366056 9.077372 6.219897
-32.089844 11.489822 -0.594953
-21.647604 7.755223 6.161447
-7.406004 2.663406 -2.108858
-21.015514 7.561908 0.389852
-8.918302 3.210786 -2.188324
-20.972240 7.554605 1.168243
-11.187716 4.030031 -2.311460
-20.957277 7.553349 1.948977
-14.001864 5.049264 -2.357468
-23.981289 8.652711 3.130336
-19.765625 7.135552 -2.580218
-20.988609 7.581201 3.534481
-20.742123 7.492168 -1.929454
-20.895418 7.551662 4.318771
-20.730093 7.496003 -1.155264
-20.917910 7.568046 5.135633
-20.700113 7.493334 -0.384267
-20.919277 7.576799 5.961638
-7.396662 2.689242 -2.108858
-20.759729 7.551816 0.385593
-8.910701 3.243230 -2.189224
-20.731800 7.549856 1.156311
-11.162512 4.065029 -2.309170
-20.743586 7.558243 1.931545
-13.872801 5.057514 -2.338696
-20.694820 7.548664 2.704768
-19.714491 7.194977 -2.576806
-20.776464 7.586662 3.503194
-20.513721 7.490720 -1.910628
-20.680841 7.555836 4.279846
-20.501209 7.494262 -1.143960
-20.799856 7.607548 5.113138
-20.531109 7.513317 -0.381614
-20.736691 7.592653 5.917121
-7.389043 2.715709 -2.109375
-20.523035 7.546941 0.381684
-8.899325 3.274315 -2.189224
-20.525389 7.555935 1.146262
-11.151940 4.105323 -2.309934
-20.533854 7.563127 1.914463
-13.721608 5.056728 -2.316169
-20.493267 7.556297 2.681857
-19.659458 7.252757 -2.572906
-20.557127 7.588001 3.470655
-20.337917 7.507087 -1.896683
-20.444391 7.550437 4.236341
-20.295073 7.499322 -1.133911
-20.499001 7.578742 5.045652
-20.339714 7.523887 -0.378543
-20.525265 7.596597 5.864322
-7.357788 2.733412 -2.103164
-20.241648 7.523782 0.376937
-8.880537 3.302640 -2.187424
-20.322931 7.562064 1.136423
-11.130181 4.141487 -2.308407
-20.298203 7.556901 1.894940
-13.592807 5.063220 -2.297397
-20.306797 7.568172 2.660896
-19.641460 7.324112 -2.573881
-20.197378 7.535418 3.414339
-20.076385 7.490277 -1.874720
-20.259731 7.562715 4.203522
-20.100382 7.507228 -1.124490
-20.289877 7.582032 5.000662
-20.129768 7.526211 -0.375122
-20.324921 7.603219 5.814629
-7.359053 2.763156 -2.106270
-20.020580 7.521251 0.373307
-8.865306 3.332248 -2.186524
-20.120684 7.566877 1.126584
-11.108306 4.177551 -2.306881
-20.092686 7.560347 1.878206
-13.471522 5.071661 -2.279876
-20.196659 7.607522 2.649927
-19.578627 7.378623 -2.569006
-19.986118 7.536179 3.383052
-19.900976 7.504075 -1.860775
-20.023806 7.554387 4.160018
-19.872248 7.501165 -1.113186
-20.066397 7.578457 4.952073
-20.062220 7.580880 -0.374354
-20.280188 7.667284 5.809453
-7.352975 2.790196 -2.107305
-19.807253 7.520112 0.369816
-8.839046 3.357640 -2.182925
-19.907452 7.566105 1.116117
-11.093657 4.216299 -2.306881
-19.891117 7.563870 1.861821
-13.442657 5.114444 -2.277999
-20.181112 7.682209 2.651390
-19.537909 7.441269 -2.567056
-19.782482 7.538377 3.353017
-19.684757 7.501137 -1.842995
-19.821205 7.557089 4.123383
-19.666798 7.502151 -1.103137
-19.857754 7.578969 4.907082
-20.058054 7.659421 -0.374773
-20.307438 7.758712 5.824982
-7.337780 2.813771 -2.105752
-19.605385 7.521874 0.366535
-8.834550 3.391265 -2.184725
-19.705658 7.568238 1.106277
-11.086203 4.257813 -2.308407
-19.689774 7.566081 1.845436
-13.428412 5.162752 -2.278625
-20.196789 7.769000 2.656996
-19.485876 7.499446 -2.563644
-19.593828 7.544914 3.325484
-19.465088 7.495340 -1.824867
-19.622499 7.559887 4.087511
-19.457857 7.500362 -1.092880
-19.656631 7.580918 4.863892
-20.066641 7.743069 -0.375436
-20.294645 7.835123 5.829123
-7.329714 2.840065 -2.106270
-19.411203 7.525212 0.363394
-8.822658 3.422083 -2.184725
-19.470581 7.556049 1.094554
-11.045650 4.286542 -2.303065
-19.477512 7.562650 1.828004
-13.380847 5.198150 -2.273619
-20.188047 7.846644 2.659433
-19.367075 7.531441 -2.551457
-19.401688 7.548800 3.297326
-19.286549 7.504001 -1.810573
-19.464266 7.577059 4.060034
-19.267782 7.504444 -1.083668
-19.470263 7.587221 4.824300
-19.987324 7.792734 -0.374459
-20.299568 7.918554 5.838440
-7.314359 2.863519 -2.104717
-19.220968 7.528745 0.360322
-8.819730 3.456414 -2.186974
-19.296654 7.562274 1.086181
-11.026965 4.323637 -2.302302
-19.302612 7.572384 1.814060
-13.312973 5.225339 -2.265171
-20.190098 7.928676 2.663333
-19.211336 7.548185 -2.534395
-19.185335 7.537969 3.264788
-19.063684 7.494013 -1.792096
-19.233068 7.564480 4.017293
-19.063051 7.501447 -1.073620
-19.251455 7.579466 4.776611
-20.041382 7.890468 -0.375960
-20.291172 7.992908 5.843616
-7.291743 2.884062 -2.101093
-19.013660 7.520365 0.356902
-8.791912 3.479189 -2.182925
-19.095581 7.560470 1.076341
-11.015454 4.363551 -2.303065
-19.150110 7.589798 1.802206
-13.198242 5.230884 -2.248589
-20.215366 8.016070 2.670158
-19.005371 7.540110 -2.510509
-19.026714 7.552421 3.242261
-18.881868 7.498736 -1.777454
-19.032719 7.558645 3.980658
-18.874733 7.499722 -1.064409
-19.070477 7.581352 4.737919
-20.065742 7.981076 -0.376937
-20.302639 8.079399 5.855005
-7.273170 2.904642 -2.098505
-18.827597 7.522881 0.353900
-8.774286 3.507686 -2.181576
-18.928135 7.570714 1.068386
-10.997278 4.398598 -2.302302
-18.902864 7.564434 1.781289
-13.157898 5.268108 -2.244835
-20.190947 8.088068 2.670645
-18.805729 7.536989 -2.487597
-18.923229 7.587908 3.229120
-18.705257 7.500505 -1.763161
-18.827650 7.553402 3.943259
-18.692741 7.503066 -1.055616
-18.884762 7.583963 4.698328
-20.073019 8.065231 -0.377600
-20.317331 8.167513 5.867428
-7.271943 2.933628 -2.101093
-18.641750 7.524184 0.350898
-8.756567 3.536103 -2.180226
-18.760853 7.579878 1.060431
-10.970935 4.432546 -2.300012
-18.724876 7.569139 1.766995
-13.143091 5.315488 -2.245461
-20.192032 8.170412 2.674545
-18.621067 7.538520 -2.466636
-18.867332 7.642056 3.224115
-18.520145 7.501431 -1.748170
-18.651968 7.558614 3.911966
-18.496153 7.499225 -1.045987
-18.702871 7.586844 4.659636
-20.085506 8.151793 -0.378368
-20.320915 8.251467 5.876746
-7.272393 2.963367 -2.104199
-18.470936 7.530326 0.348175
-8.749583 3.568858 -2.181576
-18.575251 7.580416 1.051429
-10.944490 4.466362 -2.297722
-18.569220 7.581736 1.754794
-13.113483 5.356855 -2.243583
-20.207491 8.258865 2.680395
-18.440294 7.540362 -2.446162
-18.851511 7.712358 3.225992
-18.324198 7.496627 -1.732133
-18.458311 7.555256 3.876857
-18.329397 7.506219 -1.038031
-18.503162 7.581156 4.616446
-20.068029 8.226407 -0.378578
-20.320587 8.334080 5.885027
-7.240567 2.979911 -2.097987
-18.296612 7.533846 0.345383
-8.735271 3.598634 -2.181125
-18.360327 7.567578 1.040753
-10.910681 4.497056 -2.293906
-18.332663 7.559919 1.734922
-13.102010 5.405608 -2.244835
-22.615305 9.335208 3.004080
-18.252399 7.538009 -2.424713
-18.817171 7.775097 3.224740
-18.154287 7.501199 -1.718537
-18.293938 7.562634 3.847854
-18.155432 7.509092 -1.029658
-18.328932 7.584599 4.579554
-30.638939 12.684793 -0.578826
-21.340834 8.839663 6.189399
-7.237782 3.006871 -2.100058
-18.116419 7.530009 0.342451
-8.719689 3.626085 -2.180226
-18.176544 7.562442 1.031751
-10.895708 4.533214 -2.293906
-18.204487 7.577795 1.725161
-13.073070 5.444469 -2.242958
-22.576893 9.407099 3.003105
-18.110039 7.549606 -2.409113
-18.791285 7.837456 3.224740
-17.969868 7.498536 -1.703546
-18.134682 7.567311 3.819615
-17.971926 7.503078 -1.020656
-18.167017 7.588255 4.545361
-30.652061 12.809458 -0.579874
-21.350615 8.926779 6.200787
-7.216025 3.028890 -2.096952
-17.931454 7.526638 0.339449
-8.685418 3.647446 -2.174827
-18.006411 7.565500 1.023587
-10.886258 4.576164 -2.295432
-18.025991 7.581130 1.710867
-13.038461 5.486219 -2.240455
-22.562214 9.493548 3.005542
-17.929888 7.548083 -2.388639
-18.745609 7.895330 3.221612
-17.818731 7.508606 -1.691693
-18.001898 7.589496 3.797481
-17.800764 7.508353 -1.012491
-17.984678 7.589626 4.506670
-30.640320 12.930370 -0.580502
-7.212523 3.057078 -2.099023
-17.752783 7.528296 0.336587
-8.689933 3.686865 -2.179326
-17.832806 7.565898 1.015213
-10.881063 4.618737 -2.297722
-17.841705 7.577028 1.695876
-13.015596 5.530151 -2.239829
-22.563805 9.591711 3.010417
-17.748657 7.548484 -2.368165
-19.779533 8.412214 3.404327
-17.642076 7.506797 -1.677399
-17.870527 7.607682 3.775347
-17.623770 7.506268 -1.003908
-17.807484 7.588192 4.468878
-30.642828 13.057637 -0.581410
-17.861542 7.614906 5.202781
-7.201807 3.082236 -2.099023
-17.599031 7.532050 0.334144
-8.663327 3.709526 -2.175727
-17.670427 7.569905 1.007467
-10.836001 4.644316 -2.291616
-17.679646 7.581153 1.682977
-12.997186 5.573283 -2.239829
-22.531874 9.666484 3.010417
-17.563002 7.538399 -2.346716
-19.764570 8.487442 3.406830
-17.507761 7.521927 -1.667115
-17.704502 7.606453 3.745581
-17.466665 7.507882 -0.996372
-17.631845 7.582529 4.431086
-30.659513 13.191384 -0.582596
-17.699995 7.619157 5.163440
-7.163170 3.093846 -2.090740
-17.436798 7.534735 0.331561
-8.657480 3.742837 -2.177526
-17.504580 7.571281 0.999512
-10.827748 4.683342 -2.293143
-17.530069 7.585934 1.671124
-12.992155 5.624896 -2.242332
-22.538067 9.762434 3.015779
-17.412725 7.545986 -2.330142
-19.771069 8.572098 3.413088
-17.309067 7.504653 -1.650555
-17.540958 7.608830 3.716578
-17.290113 7.503605 -0.987789
-17.465843 7.583492 4.395994
-30.646299 13.312669 -0.583225
-17.496115 7.603895 5.111676
-7.166495 3.125007 -2.094882
-17.256430 7.528388 0.328629
-8.640790 3.771477 -2.176626
-17.331615 7.568396 0.991138
-10.804137 4.717967 -2.291616
-17.350119 7.580076 1.656482
-12.943480 5.657558 -2.237326
-22.554781 9.863319 3.022604
-17.257156 7.550224 -2.312837
-19.759123 8.648980 3.416216
-17.151350 7.507504 -1.638005
-17.374020 7.608585 3.686811
-17.146736 7.512613 -0.981090
-17.303619 7.584954 4.361801
-30.654577 13.443657 -0.584272
-17.342094 7.609036 5.074407
-7.155543 3.150004 -2.094882
-17.109259 7.535381 0.326325
-8.616873 3.796902 -2.173927
-17.184475 7.575671 0.984230
-10.784011 4.754066 -2.290853
-17.188652 7.581100 1.643583
-12.927266 5.704300 -2.237952
-22.523848 9.943588 3.023091
-17.096321 7.551072 -2.294800
-19.764946 8.733869 3.422473
-16.993826 7.509347 -1.625455
-17.210890 7.608850 3.657809
-16.966976 7.504562 -0.972297
-17.157640 7.592474 4.331657
-17.522635 7.757641 -0.334493
-17.188251 7.613195 5.037137
-7.151565 3.178100 -2.096952
-16.969563 7.544694 0.324161
-8.610689 3.830124 -2.175727
-17.015596 7.572271 0.976066
-10.770938 4.793277 -2.291616
-17.027393 7.581086 1.630684
-12.898253 5.745368 -2.236387
-22.532516 10.041544 3.028941
-16.924812 7.546034 -2.275301
-19.781246 8.823727 3.430608
-16.845600 7.514236 -1.613776
-16.951157 7.564874 3.608198
-16.816664 7.508373 -0.965180
-16.979795 7.584758 4.293416
-30.651264 13.698136 -0.586017
-17.052229 7.624259 5.005043
-7.133378 3.199881 -2.094882
-16.804470 7.541653 0.321508
-8.590157 3.856965 -2.173927
-16.866493 7.573026 0.968948
-10.746976 4.827630 -2.290090
-16.859081 7.576769 1.617088
-12.872716 5.787927 -2.235449
-22.533531 10.136429 3.033816
-16.768036 7.546406 -2.257752
-19.769890 8.897383 3.433737
-16.675749 7.508373 -1.600005
-16.795765 7.565942 3.580722
-16.673817 7.514504 -0.958481
-16.827084 7.587112 4.261473
-30.649427 13.819426 -0.586855
-16.878929 7.614038 4.961561
-7.120404 3.223966 -2.094364
-16.662781 7.544550 0.319274
-8.579093 3.886234 -2.174377
-16.712616 7.574144 0.961621
-10.705028 4.853762 -2.284747
-16.712776 7.581250 1.605583
-12.849853 5.828950 -2.234823
-22.543179 10.230782 3.039665
-16.623623 7.547806 -2.241665
-18.623632 8.459812 3.239758
-16.529720 7.512135 -1.588501
-16.638319 7.561489 3.552482
-16.521534 7.511889 -0.951154
-16.704271 7.598493 4.236728
-30.655596 13.951182 -0.587902
-16.711594 7.608865 4.920150
-7.100888 3.243547 -2.091776
-16.519943 7.549474 0.317040
-8.583199 3.924260 -2.178876
-16.551672 7.570959 0.953875
-10.703156 4.895768 -2.287800
-16.560726 7.578595 1.593381
-12.818651 5.868836 -2.232946
-16.584063 7.596277 2.239715
-16.427540 7.528051 -2.218754
-18.568850 8.513245 3.235378
-16.486912 7.562222 3.525769
-16.371775 7.512870 -0.944036
-16.537733 7.592522 4.201186
-30.650326 14.078131 -0.588739
-16.544502 7.602623 4.878739
-7.086013 3.266697 -2.090740
-16.395433 7.561868 0.315156
-8.542907 3.941948 -2.172127
-16.416340 7.578461 0.947595
-10.689566 4.934745 -2.288563
-16.414791 7.581221 1.581877
-12.772984 5.901943 -2.228566
-16.409693 7.585817 2.219728
-16.264231 7.522019 -2.200229
-18.560532 8.587965 3.239132
-16.335701 7.561996 3.499056
-16.218588 7.511220 -0.936709
-16.371447 7.585483 4.165644
-30.659054 14.211948 -0.589856
-16.423225 7.616438 4.850787
-7.078071 3.293042 -2.091776
-16.321802 7.597110 0.314248
-8.525560 3.970101 -2.171227
-16.264380 7.573840 0.940268
-10.647360 4.960422 -2.283221
-16.276264 7.586284 1.571069
-12.763044 5.951506 -2.230443
-16.282372 7.596055 2.206079
-16.109671 7.515486 -2.182680
-18.535534 8.651134 3.239758
-16.195364 7.565792 3.474632
-16.080088 7.515353 -0.930219
-16.233215 7.586920 4.136850
-30.662474 14.337255 -0.590834
-16.271889 7.611922 4.813517
-7.074106 3.319779 -2.093846
-16.329102 7.666491 0.314876
-8.508821 3.996693 -2.170328
-16.119864 7.571688 0.933360
-10.627298 4.994033 -2.282457
-16.128408 7.582574 1.559216
-12.728937 5.987071 -2.227940
-16.145731 7.597604 2.190967
-15.955337 7.508012 -2.165131
-16.052975 7.564225 3.449445
-15.944876 7.516685 -0.923834
-16.077526 7.579219 4.103557
-30.669024 14.464449 -0.591881
-16.131247 7.611431 4.779353
-7.038613 3.331648 -2.086599
-16.314434 7.725734 0.315086
-8.504326 4.029058 -2.172577
-15.985044 7.576588 0.927079
-10.592938 5.020839 -2.278641
-15.991560 7.583089 1.548409
-12.712585 6.030939 -2.228566
-16.002085 7.594927 2.174881
-15.799923 7.502351 -2.147582
-18.490492 8.783882 3.242261
-15.791901 7.501920 -1.529583
-15.914317 7.563482 3.425022
-15.800815 7.512915 -0.916926
-15.952423 7.588420 4.078362
-30.661680 14.592040 -0.592719
-15.978994 7.607896 4.742083
-7.030427 3.357861 -2.087634
-16.265713 7.772289 0.314667
-8.490210 4.058720 -2.172577
-15.832377 7.572016 0.919752
-10.571807 5.056088 -2.277878
-15.839186 7.578669 1.536207
-12.677199 6.068458 -2.226063
-15.860894 7.595861 2.159281
-15.662643 7.504278 -2.132470
-18.491779 8.863747 3.247893
-15.672190 7.512220 -1.520519
-15.802849 7.578237 3.406704
-15.670052 7.517918 -0.910855
-15.811641 7.589247 4.049119
-30.650217 14.718016 -0.593487
-15.840896 7.610088 4.708954
-7.015183 3.380704 -2.086599
-16.249290 7.834231 0.314876
-8.456683 4.079019 -2.167628
-15.715908 7.583834 0.914519
-10.508121 5.070776 -2.267956
-15.719334 7.588870 1.527143
-12.652384 6.110952 -2.225437
-15.716315 7.594178 2.143194
-15.539843 7.512251 -2.119308
-18.496294 8.945437 3.254150
-15.538256 7.514830 -1.510060
-15.769231 7.629933 3.405178
-15.532253 7.518622 -0.904365
-15.667543 7.587482 4.018976
-30.674238 14.861537 -0.594953
-15.706452 7.613099 4.676860
-7.003339 3.405171 -2.086599
-16.247023 7.903151 0.315365
-8.444145 4.109366 -2.168078
-15.578004 7.584441 0.908029
-10.446228 5.085940 -2.258415
-15.581692 7.589601 1.516336
-12.634526 6.156810 -2.226063
-15.564809 7.588100 2.126133
-15.385064 7.503795 -2.101759
-18.493362 9.023808 3.259156
-15.411655 7.520094 -1.500299
-15.742501 7.684932 3.405178
-15.398235 7.520202 -0.898085
-15.528904 7.587375 3.990182
-30.661699 14.987841 -0.595720
-15.565244 7.611861 4.642696
-7.005286 3.436401 -2.090740
-16.201384 7.951006 0.315016
-8.424502 4.136241 -2.166729
-15.454633 7.591220 0.902377
-10.350877 5.084287 -2.241624
-15.426358 7.580678 1.503785
-12.620049 6.204362 -2.227314
-15.442036 7.595075 2.112971
-15.248347 7.503116 -2.086647
-18.479471 9.097032 3.262285
-15.283421 7.523687 -1.490363
-15.722625 7.743307 3.406704
-15.262603 7.520059 -0.891700
-15.434155 7.607933 3.972636
-30.673756 15.126626 -0.596977
-15.431164 7.613154 4.610603
-6.969007 3.448839 -2.083493
-16.915451 8.374836 0.329467
-8.422237 4.171675 -2.169878
-15.363613 7.613200 0.898608
-10.250386 5.079420 -2.223688
-15.296268 7.583153 1.493675
-12.594777 6.246619 -2.226688
-15.315849 7.599521 2.099322
-15.129603 7.510400 -2.073973
-18.490068 9.182565 3.269794
-15.139294 7.518498 -1.478859
-15.691981 7.796394 3.405941
-15.141469 7.526174 -0.886153
-15.344687 7.630528 3.956439
-15.642501 7.782024 -0.304963
-15.286891 7.608440 4.575403
-6.950013 3.469694 -2.081423
-16.912951 8.447230 0.329990
-8.407624 4.201049 -2.169878
-15.244047 7.620344 0.893165
-10.192204 5.094979 -2.214911
-15.152096 7.577680 1.482170
-12.551694 6.279941 -2.222934
-15.182720 7.599626 2.084697
-15.007448 7.515165 -2.060811
-18.491457 9.263868 3.275738
-15.026136 7.531090 -1.470492
-15.668182 7.852883 3.406704
-15.016912 7.529741 -0.880396
-15.229122 7.639478 3.933494
-15.533026 7.795321 -0.303358
-15.160105 7.611476 4.545380
