# This PCD file was generated using the MATLAB® pcwrite function
# from Computer Vision Toolbox®.
# .PCD v.7 - Point Cloud Data file format
VERSION .7
FIELDS x y z
SIZE 4 4 4
TYPE F F F
COUNT 1 1 1
WIDTH 1660
HEIGHT 1
VIEWPOINT 0 0 0 1 0 0 0
POINTS 1660
DATA ascii
-6.055892 4.630078 -2.042600
-15.666149 11.982003 0.344266
-6.684492 5.114379 -1.943127
-10.171124 7.784851 0.671261
-8.094399 6.195351 -1.981361
-9.989940 7.648943 1.100777
-9.934678 7.609382 -1.982025
-9.960146 7.631643 1.540672
-9.924151 7.606816 -1.535310
-9.951072 7.630208 1.986092
-9.878664 7.574687 -1.089098
-9.944760 7.628122 2.436249
-9.868466 7.572340 -0.651897
-13.005089 9.982760 3.785026
-27.998377 21.499426 -0.616175
-11.530022 8.856891 3.895745
-6.033571 4.646474 -2.040529
-10.171667 7.836068 0.224124
-6.646534 5.122215 -1.937279
-10.147053 7.822746 0.671470
-8.057176 6.211581 -1.977545
-9.925313 7.654565 1.096593
-9.853315 7.601779 -1.971074
-9.881587 7.626341 1.532629
-9.866112 7.617150 -1.530435
-9.863406 7.617805 1.973890
-9.800129 7.568934 -1.083346
-9.862144 7.619581 2.422511
-9.794565 7.570100 -0.648757
-28.018057 21.670441 -0.618269
-6.009683 4.661587 -2.037941
-10.104757 7.840876 0.223251
-6.591668 5.116706 -1.926481
-10.130725 7.866696 0.672203
-8.033892 6.238467 -1.977163
-9.840318 7.643939 1.090144
-9.792406 7.609462 -1.964191
-9.801617 7.619367 1.524342
-9.801856 7.622294 -1.524586
-9.799334 7.623078 1.966381
-9.732760 7.571290 -1.078814
-9.801398 7.627434 2.414115
-9.731833 7.576025 -0.646349
-13.016571 10.136768 3.808871
-10.053401 7.831997 -0.222448
-11.528858 8.984670 3.916450
-5.985763 4.676589 -2.035353
-10.023756 7.834232 0.222064
-6.559950 5.128882 -1.922432
-10.111071 7.908162 0.672726
-8.007428 6.262842 -1.976018
-9.777485 7.650005 1.086135
-9.719116 7.607072 -1.954805
-9.732760 7.620491 1.517761
-9.725181 7.617294 -1.516786
-9.729125 7.623127 1.957621
-9.663927 7.572042 -1.074107
-9.723723 7.621634 2.401522
-9.661323 7.575442 -0.643418
-13.002572 10.198984 3.815170
-9.997684 7.844822 -0.221820
-11.529339 9.049905 3.927320
-5.975474 4.702234 -2.037424
-9.949211 7.832067 0.221017
-6.509856 5.126431 -1.912984
-10.095956 7.953295 0.673564
-7.979350 6.285896 -1.974492
-9.703775 7.647092 1.080905
-9.649067 7.606709 -1.946045
-9.657781 7.616313 1.510205
-9.661128 7.621687 -1.510936
-9.668342 7.630118 1.950738
-9.595208 7.572402 -1.069401
-9.644670 7.614166 2.388547
-9.587797 7.571983 -0.640278
-13.021938 10.287799 3.831367
-9.932588 7.849913 -0.220982
-11.529501 9.115258 3.938191
-5.946912 4.713464 -2.033283
-9.888906 7.840656 0.220284
-6.478180 5.138225 -1.908935
-10.068131 7.988489 0.673564
-7.958897 6.314931 -1.974873
-9.645809 7.656147 1.077419
-9.571404 7.599810 -1.935720
-9.579841 7.609234 1.502162
-9.618919 7.643016 -1.508499
-9.599897 7.630631 1.942291
-9.528167 7.573615 -1.064869
-9.585762 7.622127 2.380533
-9.517540 7.570595 -0.637347
-13.005774 10.348963 3.837215
-9.864447 7.852157 -0.220075
-11.533883 9.184330 3.950614
-5.939482 4.741425 -2.036388
-9.823974 7.845182 0.219447
-6.461728 5.162024 -1.909385
-10.104004 8.071696 0.677751
-7.912267 6.323062 -1.968767
-9.575454 7.654934 1.072539
-9.510878 7.606032 -1.928837
-9.517570 7.614104 1.496556
-9.533289 7.629411 -1.499237
-9.520560 7.619225 1.931340
-9.473674 7.584415 -1.061731
-9.522319 7.626089 2.371374
-9.453648 7.573798 -0.634835
-12.998462 10.417455 3.845763
-9.777498 7.836054 -0.218714
-11.536522 9.249112 3.962002
-5.915368 4.756075 -2.033800
-9.744919 7.835113 0.218260
-6.446093 5.184644 -1.909835
-10.134900 8.154491 0.681728
-7.882498 6.344490 -1.966859
-9.502117 7.650826 1.067309
-9.453291 7.611513 -1.922267
-9.459804 7.619475 1.491437
-9.467747 7.628601 -1.492900
-9.450844 7.617702 1.922580
-9.397511 7.577420 -1.056153
-9.466412 7.632976 2.363742
-9.394280 7.577520 -0.632532
-13.006309 10.494767 3.858360
-9.700293 7.829943 -0.217597
-11.532725 9.312383 3.971837
-5.887550 4.765942 -2.029659
-9.701967 7.856499 0.217911
-6.430984 5.209565 -1.910734
-10.135857 8.213711 0.683717
-7.865994 6.374301 -1.968004
-9.439548 7.652184 1.063126
-9.369898 7.598427 -1.910691
-9.394608 7.621184 1.485344
-9.416397 7.641589 -1.489000
-9.402723 7.633214 1.918200
-9.321285 7.567102 -1.050401
-9.412277 7.643696 2.356873
-9.330567 7.580042 -0.630020
-13.011940 10.574515 3.870958
-9.648076 7.843574 -0.217038
-11.537619 9.383056 3.984778
-5.875370 4.790128 -2.031212
-15.662345 12.773892 0.352783
-6.394641 5.217199 -1.905335
-10.142710 8.278090 0.686124
-7.833046 6.393032 -1.965333
-9.372654 7.652326 1.058594
-9.303538 7.598599 -1.902556
-9.318754 7.613742 1.477544
-9.377370 7.664362 -1.487050
-9.330145 7.628477 1.908814
-9.268594 7.578152 -1.047438
-9.330831 7.631759 2.343135
-9.256132 7.573359 -0.626776
-13.005113 10.644555 3.879956
-9.577314 7.841733 -0.216061
-11.536180 9.448979 3.995649
-5.854135 4.806928 -2.029659
-15.650111 12.855142 0.353516
-6.380908 5.243201 -1.906685
-10.135352 8.331201 0.687590
-7.815233 6.424076 -1.966478
-9.318186 7.662216 1.055456
-9.249496 7.608443 -1.896924
-9.249201 7.610907 1.470719
-9.293852 7.650367 -1.478032
-9.263810 7.628353 1.900679
-9.191327 7.568666 -1.041685
-9.263219 7.630579 2.332831
-9.184941 7.568786 -0.623740
-13.017495 10.730796 3.894803
-9.500515 7.834405 -0.214944
-11.547835 9.526069 4.011178
-5.844763 4.833489 -2.032247
-15.663692 12.958131 0.354842
-6.358061 5.261716 -1.905335
-10.132365 8.388179 0.689369
-7.767054 6.430032 -1.959990
-9.233071 7.646405 1.048832
-9.189415 7.612958 -1.890041
-9.188952 7.615277 1.465357
-9.209020 7.634618 -1.468770
-9.186948 7.619030 1.890354
-9.141848 7.581627 -1.039071
-9.201777 7.634035 2.324054
-9.127726 7.575294 -0.621647
-13.012944 10.803555 3.904701
-9.436191 7.836856 -0.214106
-11.539771 9.587309 4.019978
-5.813011 4.841499 -2.027071
-15.672138 13.057525 0.356064
-6.326184 5.272648 -1.901286
-10.132169 8.447797 0.691358
-7.744561 6.457105 -1.959990
-9.154300 7.635201 1.042906
-9.117283 7.607022 -1.880655
-9.122690 7.614234 1.459020
-9.151835 7.641274 -1.463895
-9.126945 7.623191 1.883471
-9.063336 7.570064 -1.033144
-9.129875 7.628345 2.312605
-9.067513 7.578930 -0.619344
-13.003560 10.872661 3.913248
-9.370430 7.837672 -0.213234
-11.524014 9.642409 4.026189
-5.785716 4.853069 -2.023447
-15.655565 13.136578 0.356727
-6.294307 5.283422 -1.897237
-10.125563 8.502378 0.692928
-7.729492 6.490412 -1.961898
-9.078776 7.626100 1.037328
-9.042279 7.598135 -1.870643
-9.053508 7.610268 1.452195
-9.094722 7.647620 -1.459020
-9.068533 7.628301 1.876901
-9.004838 7.574722 -1.029484
-9.062632 7.626040 2.302302
-9.001277 7.577092 -0.616622
-13.008756 10.954386 3.926296
-9.312425 7.844569 -0.212535
-11.539038 9.723655 4.043271
-5.773167 4.876977 -2.025000
-9.292455 7.852733 0.212361
-6.259456 5.291523 -1.892288
-10.091247 8.533803 0.692614
-7.691797 6.504676 -1.958082
-9.012551 7.624288 1.032796
-8.979512 7.599028 -1.863135
-8.992043 7.612325 1.446589
-9.025555 7.643399 -1.452195
-8.998140 7.622880 1.867828
-8.940337 7.573911 -1.025126
-9.006002 7.632241 2.294669
-8.932116 7.572303 -0.613692
-13.018000 11.040063 3.940693
-9.245341 7.843391 -0.211628
-11.528591 9.783875 4.051553
-5.753164 4.894596 -2.023965
-15.668550 13.334982 0.359136
-6.230561 5.304496 -1.889139
-9.903260 8.434298 0.681728
-7.678012 6.539124 -1.960372
-8.935834 7.613061 1.027043
-8.925870 7.607261 -1.857503
-8.927649 7.611469 1.440496
-8.887051 7.579534 -1.434159
-8.945930 7.632447 1.862509
-8.883531 7.579210 -1.021640
-8.931520 7.622847 2.282457
-8.870692 7.573608 -0.611284
-13.013464 11.114547 3.951040
-9.190538 7.852234 -0.211000
-11.528147 9.852926 4.063459
-5.738978 4.917162 -2.025000
-15.664422 13.426028 0.360113
-6.213485 5.327483 -1.889589
-9.822214 8.424605 0.678169
-7.643219 6.555660 -1.957319
-8.869893 7.610474 1.022511
-8.866283 7.610068 -1.850620
-8.864880 7.611550 1.434646
-8.854518 7.605334 -1.433184
-8.872787 7.623721 1.852810
-8.820752 7.579011 -1.017456
-8.873590 7.627104 2.274443
-8.816942 7.581089 -0.609400
-13.014478 11.194216 3.963187
-9.114569 7.842532 -0.209883
-11.539072 9.932177 4.079506
-5.710079 4.927068 -2.020859
-15.662873 13.519824 0.361160
-6.191901 5.346592 -1.888689
-9.880413 8.534561 0.684240
-7.608404 6.572032 -1.954266
-8.796538 7.601009 1.017107
-8.791843 7.599634 -1.840608
-8.808227 7.616477 1.429771
-8.812901 7.623211 -1.430746
-8.817739 7.630087 1.846866
-8.753564 7.574556 -1.012750
-8.809805 7.625908 2.264903
-8.751169 7.577827 -0.606678
-13.025404 11.282957 3.978484
-9.062959 7.853345 -0.209324
-11.533526 9.997702 4.089859
-5.687013 4.941901 -2.018789
-15.660858 13.613778 0.362207
-6.170260 5.365614 -1.887789
-10.123310 8.806262 0.703186
-7.588380 6.601127 -1.955029
-8.739891 7.605510 1.013621
-8.732485 7.601741 -1.833725
-8.748652 7.618498 1.424409
-8.741333 7.614811 -1.423434
-8.746375 7.621884 1.837479
-8.694025 7.576265 -1.008915
-8.740212 7.619203 2.253836
-8.690042 7.578136 -0.604271
-8.768411 7.649168 2.686365
-9.014394 7.866528 -0.208835
-11.527664 10.063310 4.100212
-5.663911 4.956635 -2.016718
-15.658381 13.707873 0.363254
-6.145629 5.381985 -1.885990
-10.136072 8.879714 0.706221
-7.566766 6.628870 -1.955411
-8.678827 7.605767 1.009612
-8.679159 7.608737 -1.828093
-8.680214 7.612344 1.417584
-8.678887 7.613857 -1.417584
-8.695961 7.631522 1.832474
-8.646562 7.588169 -1.006474
-8.687008 7.626352 2.246967
-8.629022 7.578110 -0.601864
-8.709449 7.651434 2.676468
-26.720310 23.482630 -0.620922
-11.533092 10.139199 4.114706
-5.652373 4.981483 -2.018789
-15.658435 13.804766 0.364371
-6.120958 5.398249 -1.884190
-10.099027 8.909755 0.705803
-7.540637 6.652645 -1.954647
-8.625337 7.612285 1.006474
-8.614043 7.604997 -1.819959
-8.623833 7.616314 1.412710
-8.613577 7.609933 -1.411247
-8.627823 7.625204 1.823713
-8.578218 7.581363 -1.001594
-8.620622 7.621516 2.236663
-8.563619 7.573783 -0.599142
-8.640359 7.644344 2.663420
-26.722038 23.649967 -0.622876
-11.543916 10.220375 4.131270
-5.637840 5.003748 -2.019824
-15.660995 13.904481 0.365558
-6.103534 5.420876 -1.884640
-9.646813 8.570864 0.676285
-7.505628 6.668494 -1.951595
-8.567439 7.614553 1.002814
-8.560873 7.611392 -1.814327
-8.561595 7.614709 1.406860
-8.551368 7.608286 -1.405397
-8.567217 7.625066 1.816517
-8.520450 7.583442 -0.997933
-8.577836 7.637201 2.232466
-8.510281 7.579720 -0.597258
-8.572885 7.638158 2.650823
-26.707991 23.804306 -0.624482
-10.357495 9.234680 3.718195
-5.605935 5.010524 -2.014647
-14.255807 12.746156 0.333795
-6.078765 5.436952 -1.882840
-9.581121 8.569520 0.673669
-7.469136 6.682871 -1.948160
-8.497754 7.605878 0.997759
-8.506290 7.616193 -1.808383
-8.502432 7.615411 1.401498
-8.518843 7.632791 -1.404422
-8.510988 7.625752 1.809947
-8.449416 7.573244 -0.992704
-8.507273 7.627779 2.221017
-8.448087 7.577375 -0.594746
-8.514259 7.639405 2.640925
-26.712254 23.967527 -0.626437
-10.338318 9.279296 3.722336
-5.578361 5.021014 -2.011024
-14.228323 12.806739 0.334144
-6.057804 5.454472 -1.881940
-9.537794 8.590882 0.672726
-7.441390 6.704959 -1.947015
-8.437114 7.604814 0.993750
-8.438436 7.606006 -1.799309
-8.450593 7.619637 1.397110
-8.428628 7.602496 -1.393698
-8.443252 7.618362 1.801187
-8.391870 7.574657 -0.989043
-8.452784 7.629639 2.213384
-8.394747 7.579917 -0.592757
-8.459956 7.641473 2.631927
-26.726355 24.149109 -0.628740
-10.304428 9.314035 3.721818
-5.560248 5.038188 -2.010506
-14.225015 12.893933 0.335121
-6.024292 5.462495 -1.877442
-9.552130 8.664377 0.675867
-7.424931 6.734876 -1.948542
-8.386765 7.609991 0.990786
-8.385506 7.611516 -1.793678
-8.382796 7.611722 1.390286
-8.369710 7.602509 -1.388336
-8.397601 7.630518 1.797119
-8.335894 7.577100 -0.985557
-8.379611 7.616839 2.201173
-8.331297 7.575581 -0.590140
-8.400074 7.640798 2.621579
-26.653730 24.253014 -0.629020
-10.276141 9.353847 3.723371
-5.541743 5.058535 -2.010506
-14.213888 12.974517 0.335924
-5.999433 5.478232 -1.875642
-9.493808 8.672073 0.673878
-7.390050 6.752775 -1.945870
-8.327936 7.612447 0.987126
-8.316733 7.604875 -1.784917
-8.315153 7.603430 1.383461
-8.354840 7.642398 -1.390286
-8.333026 7.625112 1.788985
-8.288816 7.587319 -0.983117
-8.322678 7.620986 2.193540
-8.271074 7.576384 -0.587838
-8.336093 7.638621 2.610332
-26.639671 24.410759 -0.630695
-10.249125 9.394882 3.725441
-5.518364 5.072617 -2.008436
-14.213345 13.069836 0.337041
-5.979312 5.500186 -1.875642
-9.416399 8.664887 0.670633
-7.364989 6.777198 -1.945489
-8.273460 7.615833 0.983814
-8.269793 7.615128 -1.780537
-8.263872 7.612336 1.379561
-8.271302 7.621850 -1.381024
-8.270162 7.623472 1.781476
-8.221405 7.581182 -0.978410
-8.268602 7.624704 2.186290
-8.210812 7.574065 -0.585430
-8.282167 7.642564 2.601784
-26.544146 24.502811 -0.630555
-10.251522 9.466459 3.738900
-5.489813 5.083621 -2.004812
-14.211653 13.160131 0.338088
-5.962936 5.523671 -1.876542
-9.362655 8.675984 0.668958
-7.334340 6.798810 -1.943962
-8.203125 7.606818 0.978759
-8.218657 7.623889 -1.775531
-8.213963 7.619535 1.375661
-8.221362 7.629073 -1.377124
-8.215993 7.626760 1.775531
-8.162772 7.580005 -0.974575
-8.219025 7.634917 2.180565
-8.158123 7.580996 -0.583651
-8.218420 7.639697 2.590536
-25.295546 23.514288 -0.602841
-10.239636 9.521919 3.746665
-5.475228 5.102160 -2.005330
-14.207427 13.244002 0.339030
-5.938885 5.538099 -1.874742
-9.310466 8.685186 0.667284
-7.315817 6.824496 -1.944725
-8.150053 7.605366 0.975273
-8.161451 7.618671 -1.768335
-8.156732 7.616926 1.370299
-8.158302 7.621059 -1.370786
-8.158904 7.624292 1.768648
-8.109802 7.578408 -0.971089
-8.163448 7.631204 2.172170
-8.105089 7.579304 -0.581557
-8.167336 7.640186 2.581988
-25.179468 23.562519 -0.601933
-10.236210 9.582228 3.757017
-5.453159 5.117275 -2.003777
-14.210681 13.340050 0.340217
-5.913835 5.553460 -1.872942
-9.248067 8.687549 0.664981
-7.281934 6.840582 -1.942054
-8.101675 7.613305 0.972658
-8.093069 7.607874 -1.759262
-8.101171 7.618154 1.365424
-8.053571 7.576044 -1.357625
-8.109224 7.631063 1.763642
-8.058636 7.583457 -0.968126
-8.108170 7.632739 2.164537
-8.052411 7.582904 -0.579673
-8.120761 7.649940 2.575690
-10.247683 9.660306 3.773582
-5.421223 5.123009 -1.998601
-14.210528 13.433530 0.341334
-5.885919 5.566036 -1.870243
-9.179963 8.684089 0.662259
-7.253735 6.861910 -1.940909
-8.043215 7.611409 0.968823
-8.032035 7.603487 -1.751753
-8.037052 7.610900 1.359087
-8.004021 7.582267 -1.353725
-8.056729 7.634866 1.758011
-7.995960 7.577279 -0.963768
-8.052979 7.633984 2.156905
-7.991113 7.577981 -0.577161
-8.055836 7.642028 2.563542
-8.309829 7.888486 3.070112
-5.383713 5.123259 -1.991354
-14.215693 13.532690 0.342591
-5.866455 5.586546 -1.870243
-9.103315 8.672000 0.658910
-7.221207 6.879065 -1.938620
-7.997847 7.621571 0.966557
-7.982569 7.609667 -1.746747
-7.983142 7.612877 1.354456
-7.974631 7.607419 -1.353237
-7.981440 7.616575 1.747373
-7.949282 7.585887 -0.961328
-7.989363 7.626800 2.146983
-7.929945 7.572724 -0.574649
-7.992472 7.635106 2.551845
-25.344816 24.220026 -0.611916
-10.254004 9.802361 3.801017
-5.344875 5.121971 -1.983589
-14.213120 13.625125 0.343673
-5.849731 5.609688 -1.871143
-9.044238 8.673108 0.656712
-7.194315 6.901512 -1.937856
-7.925192 7.605298 0.960979
-7.914630 7.597816 -1.737674
-7.940770 7.625573 1.351775
-7.959481 7.646212 -1.355187
-7.924798 7.612895 1.740490
-7.885402 7.577695 -0.956796
-7.937214 7.630150 2.140114
-7.876111 7.574056 -0.572660
-7.939090 7.637287 2.543297
-25.183659 24.226307 -0.609962
-10.254849 9.868461 3.813440
-5.301942 5.116449 -1.974272
-14.219662 13.722174 0.344929
-5.831096 5.629056 -1.871143
-8.170558 7.890217 0.595269
-7.161710 6.918399 -1.935566
-7.869942 7.605223 0.957493
-7.853881 7.589701 -1.729853
-7.889748 7.627029 1.347388
-7.896979 7.636685 -1.348850
-7.876881 7.619907 1.735797
-7.838859 7.585778 -0.954355
-7.878008 7.623663 2.130955
-7.832295 7.582073 -0.571299
-7.887121 7.637814 2.534749
-24.507195 23.740829 -0.595581
-10.249474 9.932429 3.824311
-5.275246 5.124580 -1.970648
-14.208961 13.807960 0.345837
-5.800231 5.638510 -1.867544
-8.085691 7.862993 0.591082
-7.138727 6.942110 -1.935566
-7.826115 7.613218 0.955227
-7.799024 7.589519 -1.723595
-7.830361 7.622675 1.341781
-7.790634 7.586647 -1.335201
-7.826178 7.623925 1.730478
-7.775127 7.574193 -0.949649
-7.813385 7.614121 2.120651
-7.777180 7.581482 -0.569206
-7.838089 7.643530 2.527550
-24.472839 23.873705 -0.596768
-10.252072 10.004573 3.838287
-5.237992 5.124050 -1.963401
-14.212127 13.907824 0.347093
-5.780514 5.658722 -1.867544
-8.016814 7.850642 0.588047
-7.114453 6.966985 -1.935566
-7.772449 7.614000 0.951915
-7.749909 7.594574 -1.718589
-7.788114 7.634674 1.339100
-7.792449 7.641594 -1.340075
-7.772725 7.624914 1.724534
-7.730151 7.583149 -0.947383
-7.767144 7.622097 2.115309
-7.717885 7.576405 -0.566799
-7.769648 7.629882 2.514053
-24.243855 23.816040 -0.593207
-10.259800 10.082277 3.854333
-5.211816 5.134169 -1.960296
-14.223310 14.016302 0.348559
-5.755177 5.673393 -1.865744
-7.968029 7.857543 0.586477
-7.067724 6.969721 -1.929461
-7.723127 7.618699 0.949126
-7.695234 7.593829 -1.712332
-7.743052 7.643684 1.335932
-7.734653 7.638063 -1.334713
-7.709525 7.615904 1.716399
-7.671034 7.577880 -0.943374
-7.718147 7.627083 2.109203
-7.660142 7.572409 -0.564496
-7.718027 7.632290 2.505955
-24.106546 23.847090 -0.591881
-10.253379 10.146564 3.865204
-5.166434 5.125118 -1.949943
-14.222561 14.113754 0.349746
-5.735338 5.693448 -1.865744
-7.916461 7.861384 0.584697
-7.043352 6.994349 -1.929461
-7.651256 7.600677 0.943548
-7.640655 7.592796 -1.706074
-7.690979 7.645476 1.331545
-7.699500 7.656616 -1.333251
-7.663287 7.623265 1.712019
-7.616285 7.576508 -0.939888
-7.670600 7.633207 2.103478
-7.623756 7.589236 -0.563763
-7.672007 7.639935 2.499656
-23.909819 23.818190 -0.589089
-10.252111 10.216383 3.878145
-5.128011 5.122643 -1.942178
-14.217057 14.207134 0.350828
-5.714050 5.712056 -1.865294
-7.863551 7.863549 0.582813
-7.016118 7.016116 -1.928697
-7.603549 7.606203 0.940933
-7.579196 7.584488 -1.698253
-7.644605 7.652614 1.328132
-7.630646 7.641305 -1.325938
-7.611510 7.624804 1.706387
-7.568677 7.581897 -0.937273
-7.605081 7.621023 2.092793
-7.563365 7.581866 -0.561251
-7.617768 7.639072 2.490658
-10.250478 10.286318 3.891086
-5.093754 5.124072 -1.935967
-14.219531 14.309156 0.352120
-5.687210 5.725054 -1.863045
-7.819165 7.873944 0.581557
-6.981901 7.030814 -1.926026
-7.554493 7.610074 0.938144
-7.517890 7.575845 -1.690431
-7.589886 7.651066 1.323257
-7.556400 7.619970 -1.317651
-7.569550 7.635895 1.702946
-7.519722 7.585631 -0.934484
-7.550794 7.619634 2.085161
-7.508741 7.579843 -0.559157
-7.571861 7.646229 2.484360
-10.241686 10.349499 3.901438
-5.050050 5.115699 -1.926131
-14.220064 14.409942 0.353376
-5.658979 5.736547 -1.860345
-7.759347 7.865705 0.579045
-6.954558 7.052346 -1.925263
-7.509702 7.617951 0.935878
-7.459509 7.569681 -1.683235
-7.546415 7.660543 1.320333
-7.499113 7.615184 -1.312289
-7.526168 7.642658 1.698879
-7.463845 7.582017 -0.930823
-7.509001 7.630551 2.080963
-7.448620 7.571836 -0.556645
-7.515065 7.642046 2.474462
-10.257418 10.434379 3.920591
-5.024049 5.125017 -1.923026
-14.219797 14.505571 0.354563
-5.637197 5.752499 -1.859445
-7.703891 7.864208 0.576952
-6.923033 7.069565 -1.923355
-7.462156 7.622764 0.933264
-7.410875 7.570379 -1.677916
-7.495978 7.659988 1.315945
-7.454387 7.620143 -1.308877
-7.469060 7.637812 1.691996
-7.413657 7.583805 -0.927860
-7.456208 7.627333 2.073331
-7.406721 7.579352 -0.555389
-7.469254 7.646015 2.467713
-10.257366 10.507447 3.934567
-4.986809 5.120890 -1.915261
-14.230451 14.618166 0.356099
-5.619801 5.774934 -1.860345
-7.680573 7.895345 0.577266
-6.896812 7.089669 -1.922591
-7.395168 7.604615 0.928034
-7.367881 7.579205 -1.674162
-7.447061 7.663328 1.312045
-7.438806 7.657510 -1.310827
-7.416206 7.636912 1.686051
-7.360707 7.579762 -0.924374
-7.410396 7.633591 2.067988
-7.360744 7.585095 -0.553924
-7.423522 7.652459 2.461414
-10.242143 10.565379 3.942850
-4.955474 5.124378 -1.910085
-14.216859 14.706573 0.357041
-5.596901 5.791712 -1.859445
-8.646533 8.950617 0.652211
-6.865202 7.106640 -1.920684
-7.340896 7.601721 0.924548
-7.302966 7.565082 -1.665402
-7.392695 7.660707 1.307171
-7.387222 7.657713 -1.306439
-7.371679 7.644266 1.681984
-7.312077 7.582460 -0.921585
-7.353728 7.628315 2.059592
-7.309276 7.584856 -0.552040
-7.368375 7.648851 2.451967
-10.250752 10.648387 3.960449
-4.920162 5.123531 -1.903355
-14.216680 14.809483 0.358333
-5.563157 5.797153 -1.854946
-8.589146 8.950420 0.650117
-6.841711 7.131980 -1.921065
-7.306043 7.618670 0.923502
-7.254642 7.567712 -1.660396
-7.335691 7.654936 1.301808
-7.302774 7.623246 -1.296202
-7.324424 7.645846 1.676978
-7.262138 7.583476 -0.918622
-7.299901 7.625577 2.051960
-7.246854 7.572805 -0.549318
-7.314688 7.646362 2.442968
-10.262115 10.731188 3.978566
-4.894248 5.132287 -1.900250
-14.226830 14.918773 0.359834
-5.535834 5.807106 -1.852247
-8.527536 8.948538 0.647815
-6.814067 7.152974 -1.920302
-7.256045 7.619596 0.920539
-7.199537 7.560257 -1.653512
-7.292475 7.660527 1.298640
-7.247348 7.615784 -1.290840
-7.262291 7.634154 1.668843
-7.209534 7.581349 -0.915310
-7.259692 7.634093 2.047762
-7.202436 7.576530 -0.547853
-7.258416 7.638085 2.432621
-9.716560 10.228389 -0.246253
-10.255190 10.799164 3.990472
-4.865245 5.135865 -1.895591
-14.221416 15.017710 0.361020
-5.514190 5.824980 -1.851797
-8.474284 8.955040 0.646140
-6.780863 7.165549 -1.917630
-7.206093 7.617565 0.917401
-7.151387 7.562377 -1.648507
-7.242507 7.661414 1.294496
-7.223445 7.643921 -1.291328
-7.194904 7.616380 1.659457
-7.169348 7.591981 -0.913566
-7.191215 7.615137 2.035932
-7.159492 7.584196 -0.546597
-7.207636 7.637865 2.424523
-10.257195 10.877059 4.006001
-4.821242 5.126924 -1.885756
-14.234664 15.137186 0.362696
-5.491156 5.841352 -1.850897
-8.429296 8.970012 0.645093
-6.750522 7.186061 -1.916486
-7.153577 7.617781 0.914264
-7.107398 7.571257 -1.644752
-7.196699 7.666386 1.291084
-7.200794 7.673431 -1.292059
-7.145297 7.616959 1.654138
-7.108732 7.580627 -0.909209
-7.160570 7.638578 2.035169
-7.112526 7.589985 -0.545131
-7.164938 7.648586 2.419574
-4.786177 5.125365 -1.879026
-14.228210 15.241879 0.363952
-5.475025 5.867138 -1.852697
-10.151114 10.881923 0.779911
-6.725398 7.209580 -1.916486
-7.097045 7.610650 0.910429
-7.051292 7.564230 -1.637869
-7.144194 7.666569 1.286697
-7.150972 7.676533 -1.288159
-7.101178 7.625747 1.650384
-7.059145 7.580608 -0.906245
-7.091059 7.617541 2.022957
-7.069663 7.597219 -0.543875
-7.103686 7.636453 2.407876
-9.607115 10.331256 -0.246253
-10.260647 11.037905 4.038095
-4.760375 5.133542 -1.875920
-14.219781 15.339849 0.365104
-5.441267 5.871919 -1.848198
-10.148354 10.955388 0.782632
-6.700190 7.233014 -1.916486
-7.051485 7.614910 0.907988
-7.003376 7.565603 -1.632863
-7.082333 7.653580 1.280359
-7.137612 7.716019 -1.290596
-7.051719 7.625831 1.645065
-7.015057 7.586185 -0.903979
-7.052429 7.629275 2.019522
-7.010569 7.586646 -0.541363
-7.061119 7.644025 2.402477
-7.073279 7.662554 2.794210
-4.733265 5.140181 -1.872297
-14.229805 15.458538 0.366745
-5.412820 5.882273 -1.845498
-10.143853 11.027494 0.785249
-6.666925 7.247688 -1.914196
-7.007330 7.620411 0.905722
-6.952861 7.563825 -1.627231
-7.036769 7.657793 1.276947
-7.030063 7.653170 -1.275972
-7.006350 7.630032 1.640685
-6.965622 7.585680 -0.901016
-7.005841 7.632152 2.013798
-6.965138 7.590469 -0.539898
-7.009363 7.641341 2.393929
-7.020380 7.658716 2.783858
-4.706170 5.146691 -1.868674
-14.225677 15.562727 0.368036
-5.392253 5.901133 -1.845498
-10.141670 11.102650 0.788075
-6.629671 7.257869 -1.910761
-6.963222 7.625698 0.903456
-6.911765 7.572002 -1.623790
-6.993938 7.664712 1.274022
-6.992603 7.665931 -1.274022
-6.945067 7.616491 1.632550
-6.924335 7.593754 -0.899099
-6.950061 7.624639 2.005403
-6.914389 7.588161 -0.538014
-6.952465 7.632627 2.383581
-6.964995 7.651746 2.772470
-4.663501 5.135913 -1.858838
-14.231747 15.678920 0.369607
-5.370313 5.918475 -1.845049
-10.149817 11.189760 0.791738
-6.601657 7.278058 -1.909998
-6.905779 7.616011 0.899447
-6.862738 7.571202 -1.618471
-6.953815 7.674368 1.271585
-6.923154 7.643214 -1.266223
-6.902527 7.623116 1.628796
-6.861677 7.578001 -0.894392
-6.920770 7.645941 2.004639
-6.869096 7.591518 -0.536548
-6.932316 7.664075 2.385831
-6.912334 7.647348 2.762117
-4.637783 5.143553 -1.855733
-14.227806 15.784946 0.370933
-5.336576 5.922708 -1.840549
-10.146787 11.265191 0.794565
-6.569642 7.293764 -1.908090
-6.855153 7.613420 0.896310
-6.820411 7.577491 -1.614717
-6.907066 7.676458 1.267929
-6.905725 7.677665 -1.267929
-6.854745 7.623660 1.623790
-6.817867 7.582645 -0.892126
-6.854666 7.626248 1.993191
-6.822531 7.593164 -0.534978
-6.866457 7.644732 2.372334
-6.862370 7.645552 2.752800
-4.608203 5.146756 -1.851074
-14.220629 15.888155 0.372190
-5.308073 5.932586 -1.837850
-10.151990 11.346408 0.797914
-6.538905 7.310801 -1.906564
-6.813929 7.620963 0.894392
-6.767592 7.571797 -1.608459
-6.851129 7.667958 1.262567
-6.911943 7.738736 -1.274022
-6.809689 7.624250 1.619097
-6.782068 7.595994 -0.890906
-6.807085 7.626696 1.987085
-6.768063 7.585636 -0.532780
-6.809896 7.635205 2.361986
-6.825408 7.655289 2.748141
-4.573521 5.144043 -1.844345
-6.984944 7.856277 0.183495
-5.283192 5.944330 -1.836051
-10.141508 11.414621 0.800217
-6.504221 7.323305 -1.903892
-6.760829 7.614904 0.890906
-6.726707 7.576471 -1.604705
-6.805902 7.668361 1.258910
-6.803243 7.668065 -1.258667
-6.763372 7.625806 1.614404
-6.731719 7.592790 -0.887768
-6.767429 7.633068 1.982887
-6.721675 7.584123 -0.531105
-6.767740 7.638783 2.356138
-6.775596 7.653031 2.738823
-4.546208 5.147596 -1.840203
-6.937625 7.858126 0.182971
-5.253385 5.952507 -1.832901
-6.927754 7.852468 0.548795
-6.466912 7.330112 -1.900076
-6.721044 7.620846 0.888989
-6.676705 7.573234 -1.599073
-6.751527 7.660799 1.253792
-6.738379 7.648571 -1.251598
-6.713211 7.622684 1.608772
-6.689386 7.595631 -0.885502
-6.708313 7.619804 1.973347
-6.683285 7.594046 -0.530163
-6.724301 7.643341 2.350289
-6.881589 7.824881 -0.181889
-6.728431 7.653421 2.730541
-4.506557 5.138743 -1.831404
-6.894336 7.864249 0.182552
-5.236427 5.975205 -1.834251
-6.906882 7.884114 0.549318
-6.429642 7.339350 -1.896641
-6.672086 7.618779 0.886025
-6.633315 7.577171 -1.595006
-6.712979 7.670875 1.251598
-6.659359 7.612284 -1.241849
-6.667057 7.623767 1.604079
-6.631353 7.582941 -0.881319
-6.670045 7.629871 1.969912
-6.643593 7.602290 -0.529117
-6.669373 7.634478 2.340391
-6.867387 7.863916 -0.182238
-6.669914 7.640479 2.717600
-4.469562 5.132590 -1.823639
-6.841897 7.859610 0.181889
-5.215537 5.993448 -1.834251
-10.154538 11.669115 0.810684
-6.397541 7.354342 -1.894733
-6.636301 7.631497 0.884805
-6.577016 7.565992 -1.587810
-6.669235 7.674782 1.248430
-6.632777 7.632827 -1.241605
-6.622308 7.623463 1.599386
-6.586555 7.584982 -0.878878
-6.618918 7.624938 1.962661
-6.600000 7.605823 -0.527756
-6.627417 7.637417 2.334542
-6.629353 7.645041 2.711389
-4.447461 5.141539 -1.821568
-6.793560 7.856541 0.181296
-5.189262 6.003338 -1.832001
-10.162807 11.757118 0.814452
-6.365416 7.366605 -1.892444
-6.596630 7.636876 0.882888
-6.538980 7.572809 -1.584681
-6.617805 7.666801 1.243555
-6.565921 7.606693 -1.233805
-6.576341 7.621454 1.594380
-6.545749 7.588677 -0.876787
-6.573083 7.623056 1.956556
-6.551268 7.600438 -0.525872
-6.584239 7.638690 2.328243
-6.587574 7.647954 2.704659
-4.417798 5.141605 -1.816392
-6.747925 7.856272 0.180772
-5.159170 6.008686 -1.828402
-10.142519 11.816772 0.816127
-6.335840 7.381713 -1.890917
-6.553106 7.637541 0.880447
-6.493256 7.570460 -1.579675
-6.572965 7.666099 1.239899
-6.581962 7.679304 -1.241849
-6.532990 7.624861 1.590313
-6.501105 7.587646 -0.874172
-6.541384 7.637355 1.954647
-6.505246 7.597846 -0.524197
-6.535992 7.636460 2.320595
-6.545771 7.653284 2.698447
-4.391045 5.146709 -1.812769
-6.710081 7.867606 0.180493
-5.140694 6.029622 -1.829302
-8.797909 10.322901 0.710827
-6.297297 7.388844 -1.887101
-6.516071 7.648235 0.879053
-6.448857 7.572027 -1.575295
-6.519140 7.657257 1.234780
-6.497221 7.634203 -1.230880
-6.485853 7.623548 1.585307
-6.465540 7.599672 -0.872952
-6.494333 7.636215 1.948542
-6.463163 7.602245 -0.522941
-6.487844 7.633983 2.312947
-6.500256 7.654000 2.690683
-4.359318 5.145790 -1.807075
-6.655436 7.858935 0.179760
-5.113318 6.040095 -1.827052
-8.774725 10.368792 0.711874
-6.267663 7.406283 -1.885956
-6.485472 7.666372 0.878530
-6.412185 7.582424 -1.572792
-6.482120 7.667836 1.232830
-6.444906 7.626514 -1.226006
-6.441358 7.625014 1.580927
-6.409402 7.587187 -0.868943
-6.438506 7.624338 1.939764
-6.415971 7.600342 -0.521266
-6.444820 7.637221 2.307098
-6.446102 7.644152 2.679295
-4.330138 5.147669 -1.802416
-6.604795 7.854573 0.179132
-5.092205 6.057906 -1.827052
-8.753899 10.417706 0.713130
-6.239248 7.425108 -1.885193
-6.470203 7.702696 0.880099
-6.352652 7.565427 -1.564658
-6.437449 7.669129 1.229418
-6.400379 7.627677 -1.222593
-6.394388 7.623239 1.575921
-6.363671 7.586619 -0.866328
-6.405547 7.639242 1.937856
-6.374003 7.604326 -0.520010
-6.400598 7.638761 2.300799
-6.395813 7.638465 2.669460
-4.304711 5.153858 -1.799310
-6.560678 7.857623 0.178678
-5.061036 6.063676 -1.823453
-8.721317 10.452802 0.713444
-6.210774 7.443829 -1.884430
-6.457315 7.742064 0.882016
-6.309759 7.567833 -1.560591
-6.387760 7.664106 1.225031
-6.381340 7.659122 -1.224056
-6.348778 7.622744 1.571228
-6.325625 7.597641 -0.864934
-6.348692 7.625347 1.928697
-6.325702 7.600430 -0.518231
-6.356447 7.640083 2.294501
-6.355527 7.644403 2.663766
-4.272231 5.153241 -1.793616
-6.523001 7.868159 0.178398
-5.037354 6.078304 -1.822553
-8.708988 10.512403 0.715433
-6.179694 7.462005 -1.883285
-6.431438 7.768747 0.882365
-6.271901 7.578736 -1.558087
-6.344513 7.666478 1.221862
-6.358363 7.685936 -1.224787
-6.310802 7.631155 1.568412
-6.280022 7.596642 -0.862319
-6.300693 7.624349 1.922591
-6.282536 7.605088 -0.516975
-6.303583 7.633278 2.285503
-6.315278 7.650151 2.658072
-4.250532 5.163649 -1.792063
-6.473791 7.867308 0.177840
-5.019992 6.102747 -1.824353
-8.698304 10.578193 0.717735
-6.141138 7.468369 -1.879469
-6.410605 7.798847 0.883236
-6.226598 7.577688 -1.553394
-6.294953 7.663602 1.217719
-6.325109 7.703054 -1.223812
-6.253962 7.619119 1.561216
-6.234506 7.595416 -0.859704
-6.259094 7.628085 1.918012
-6.238220 7.605351 -0.515509
-6.260838 7.635644 2.279654
-6.272502 7.655317 2.651860
-4.219035 5.162000 -1.786369
-6.438696 7.880568 0.177631
-4.998660 6.120232 -1.824353
-8.704276 10.661090 0.721294
-6.107584 7.480633 -1.877179
-6.385864 7.824262 0.883585
-6.190121 7.587131 -1.550892
-6.248091 7.660913 1.213819
-6.211632 7.618925 -1.206994
-6.216099 7.627121 1.558400
-6.181524 7.584698 -0.856044
-6.220026 7.634668 1.914196
-6.199024 7.611593 -0.514463
-6.215693 7.634782 2.272905
-6.220141 7.645694 2.640990
-4.191250 5.164696 -1.782228
-12.947013 15.959735 0.358717
-4.972358 6.131588 -1.822553
-8.701585 10.730227 0.724016
-6.082667 7.503433 -1.877560
-6.366038 7.855794 0.884631
-6.136242 7.574925 -1.544008
-6.203820 7.661080 1.210406
-6.245045 7.711990 -1.218450
-6.170884 7.623128 1.553394
-6.142476 7.590743 -0.854301
-6.174820 7.633436 1.908472
-6.162367 7.620762 -0.513625
-6.174409 7.635654 2.267057
-19.795435 24.488991 -0.549646
-6.175324 7.642240 2.632708
-4.174101 5.178566 -1.782228
-12.946715 16.067978 0.360183
-4.944661 6.138938 -1.819854
-8.708548 10.811912 0.727575
-6.049135 7.512858 -1.874889
-6.348698 7.887725 0.885851
-6.093754 7.573684 -1.539628
-6.143547 7.638299 1.203582
-6.189579 7.695532 -1.212600
-6.131957 7.626614 1.549953
-6.104790 7.595540 -0.852557
-6.129799 7.629382 1.902366
-6.108298 7.605339 -0.511218
-6.138073 7.642412 2.263008
-19.674063 24.504601 -0.548529
-6.137856 7.647607 2.627531
-4.160529 5.196902 -1.783781
-12.948335 16.179523 0.361719
-4.914535 6.143129 -1.816255
-8.703189 10.882797 0.730296
-6.018059 7.525209 -1.872981
-6.328725 7.916518 0.886723
-6.053805 7.575334 -1.535874
-6.098361 7.633813 1.199682
-6.114367 7.656597 -1.203094
-6.092971 7.632535 1.546824
-6.067136 7.600172 -0.850814
-6.087323 7.628182 1.897023
-6.064360 7.602135 -0.509648
-6.093132 7.640938 2.256259
-19.536047 24.507458 -0.547063
-6.094267 7.647837 2.620284
-4.136351 5.203834 -1.781193
-12.953982 16.302898 0.363464
-4.893063 6.160246 -1.816255
-8.704887 10.963167 0.733645
-5.988090 7.541559 -1.871836
-6.308487 7.947923 0.887768
-6.005225 7.568563 -1.530242
-6.051937 7.630171 1.195782
-6.103638 7.698113 -1.206263
-6.044208 7.625890 1.541193
-6.026959 7.604127 -0.848897
-6.043588 7.627843 1.891680
-6.025388 7.607599 -0.508601
-6.049490 7.640770 2.249960
-19.390818 24.500233 -0.545388
-6.053152 7.650881 2.614072
-4.110979 5.209142 -1.778087
-12.946541 16.410814 0.364860
-4.871531 6.177287 -1.816255
-8.706131 11.043679 0.736995
-5.950788 7.548542 -1.868402
-6.274540 7.962070 0.886897
-5.971437 7.580168 -1.528365
-6.008070 7.629417 1.192370
-6.036211 7.667898 -1.198220
-5.999229 7.623655 1.536500
-5.967018 7.585454 -0.844365
-6.004785 7.633463 1.887864
-5.986451 7.612884 -0.507554
-6.004715 7.638860 2.243212
-19.250807 24.498592 -0.543852
-6.000156 7.638540 2.602684
-4.088286 5.219611 -1.776534
-12.943429 16.525179 0.366396
-4.845132 6.188118 -1.814455
-8.709385 11.127476 0.740554
-5.921873 7.568754 -1.868020
-6.247769 7.988154 0.887245
-5.924145 7.577106 -1.523359
-5.964286 7.628448 1.188957
-5.966622 7.634180 -1.189689
-5.957985 7.625872 1.532745
-5.923336 7.584251 -0.841924
-5.952605 7.624470 1.880232
-5.946218 7.619030 -0.506507
-5.961095 7.640842 2.237363
-19.120897 24.508879 -0.542595
-5.962762 7.645730 2.598026
-4.070043 5.233850 -1.776534
-12.938004 16.643551 0.367967
-4.820028 6.202756 -1.813555
-8.700400 11.200330 0.743275
-5.880966 7.570773 -1.863441
-6.232069 8.025649 0.888989
-5.880703 7.575892 -1.518979
-5.910732 7.617321 1.183839
-5.958070 7.681094 -1.193588
-5.908208 7.619557 1.527113
-5.885731 7.593314 -0.840530
-5.912722 7.628135 1.876034
-5.895122 7.608164 -0.504414
-5.916490 7.638493 2.230615
-18.974617 24.506065 -0.540990
-5.912234 7.638505 2.588191
-4.048470 5.245674 -1.775499
-12.951908 16.782015 0.370026
-4.791203 6.210287 -1.810856
-8.707598 11.290733 0.747253
-5.848381 7.586058 -1.861914
-7.412725 9.618673 1.062428
-5.844457 7.586442 -1.516789
-5.868356 7.617465 1.180670
-5.951809 7.728582 -1.197732
-5.874343 7.630744 1.525236
-5.840965 7.590127 -0.837915
-5.878740 7.641973 1.874126
-5.845280 7.601221 -0.502530
-5.867074 7.632318 2.222516
-18.847528 24.518244 -0.539803
-5.883179 7.656034 2.587155
-4.039536 5.272041 -1.779640
-12.940170 16.894459 0.371457
-4.766042 6.224711 -1.809956
-8.704560 11.368631 0.750393
-5.799195 7.576804 -1.854663
-7.398478 9.669806 1.065217
-5.802340 7.586398 -1.512721
-5.828341 7.623151 1.178233
-5.857278 7.660999 -1.184083
-5.827281 7.624521 1.519917
-5.809599 7.604136 -0.837218
-5.836540 7.642163 1.869165
-5.813865 7.615229 -0.502111
-5.831090 7.637790 2.218467
-18.710880 24.517117 -0.538337
-5.849389 7.667307 2.584049
-4.010331 5.270035 -1.774463
-12.953087 17.027992 0.373447
-4.738295 6.231175 -1.807257
-8.701869 11.443542 0.753429
-5.763343 7.581929 -1.851229
-7.398920 9.737118 1.069924
-5.762811 7.586723 -1.508967
-5.789823 7.625048 1.175552
-5.799427 7.637695 -1.177502
-5.787634 7.624920 1.516163
-5.762671 7.594791 -0.834080
-5.786248 7.628629 1.861151
-5.771684 7.612186 -0.500646
-5.793954 7.641558 2.213968
-18.569075 24.499352 -0.536592
-5.806430 7.663567 2.576285
-3.991669 5.281763 -1.773946
-12.948377 17.139465 0.374948
-4.722304 6.253074 -1.809057
-8.708805 11.536013 0.757511
-5.725159 7.583762 -1.847031
-7.406192 9.814083 1.075676
-5.711449 7.571096 -1.502084
-5.754946 7.631525 1.173602
-5.751224 7.629359 -1.173114
-5.745527 7.624569 1.512096
-5.726664 7.599536 -0.832512
-5.738476 7.617979 1.853900
-5.736799 7.618518 -0.499808
-5.752011 7.641495 2.208120
-18.440165 24.506493 -0.535335
-5.764549 7.663717 2.569556
-3.976687 5.300299 -1.775499
-12.952063 17.269342 0.376797
-4.685250 6.249251 -1.803208
-8.711606 11.623876 0.761279
-5.691588 7.594273 -1.844741
-7.399367 9.876549 1.079685
-5.668407 7.568853 -1.497704
-5.705669 7.621372 1.168971
-5.679361 7.588992 -1.163852
-5.709409 7.631926 1.509593
-5.686971 7.601933 -0.830594
-5.707148 7.631673 1.852374
-5.683860 7.603306 -0.497506
-5.713635 7.645917 2.203620
-18.311430 24.513033 -0.534079
-5.723889 7.665218 2.563344
-3.953544 5.307951 -1.773428
-12.950216 17.393045 0.378508
-4.657591 6.257750 -1.800958
-8.701973 11.695878 0.764000
-5.656839 7.603069 -1.842070
-7.405271 9.956675 1.085612
-5.634882 7.579081 -1.495826
-5.657715 7.612566 1.164584
-5.700188 7.672511 -1.173602
-5.666247 7.629606 1.505213
-5.642446 7.600329 -0.828154
-5.661748 7.626329 1.846268
-5.647765 7.610268 -0.496668
-5.663691 7.634512 2.194623
-18.180483 24.515772 -0.532752
-5.675241 7.655664 2.553509
-3.927174 5.313084 -1.770322
-12.960746 17.534626 0.380602
-4.642669 6.283373 -1.803658
-8.703815 11.784017 0.767769
-5.607945 7.595321 -1.835201
-7.400676 10.027030 1.090318
-5.597681 7.586967 -1.493324
-5.621677 7.619491 1.162634
-5.679264 7.700347 -1.174821
-5.619653 7.622307 1.499894
-5.601695 7.600733 -0.826062
-5.620950 7.629641 1.842070
-5.607991 7.614834 -0.495622
-5.620650 7.634820 2.188774
-18.111385 24.601633 -0.533241
-5.634740 7.656757 2.547297
-3.891459 5.303399 -1.762558
-12.954339 17.661026 0.382312
-4.612692 6.290919 -1.800958
-8.709864 11.878757 0.771955
-5.572112 7.602184 -1.832148
-7.404486 10.105840 1.096071
-5.561828 7.593711 -1.490821
-5.586679 7.630433 1.161171
-5.642967 7.707314 -1.172871
-5.580176 7.624344 1.496452
-5.553954 7.591295 -0.822924
-5.590805 7.644463 1.840925
-5.567230 7.615016 -0.494365
-5.583801 7.637683 2.184275
-18.108000 24.777716 -0.535684
-5.594306 7.657660 2.541085
-3.871577 5.313150 -1.761522
-12.952219 17.781467 0.383988
-4.594101 6.309330 -1.801858
-8.708049 11.959239 0.775305
-5.526077 7.592048 -1.825279
-7.396724 10.165781 1.099905
-5.514541 7.581758 -1.484876
-5.547337 7.629649 1.158246
-5.601036 7.703505 -1.169458
-5.537444 7.618837 1.491759
-5.519379 7.596777 -0.821530
-5.542352 7.631189 1.833293
-5.526694 7.612424 -0.493005
-5.548141 7.641964 2.180226
-19.066374 26.271538 -0.566610
-5.549598 7.649586 2.532286
-3.851671 5.322831 -1.760487
-12.958809 17.915058 0.385943
-4.566303 6.315054 -1.799158
-8.711877 12.052694 0.779387
-5.490517 7.596013 -1.821844
-7.404977 10.248393 1.106181
-5.477803 7.583989 -1.481747
-5.501087 7.619034 1.153859
-5.533448 7.666673 -1.160927
-5.506194 7.631711 1.490508
-5.484672 7.604685 -0.820310
-5.500935 7.627235 1.827950
-5.492074 7.617750 -0.492167
-5.503200 7.635991 2.173027
-19.035337 26.422297 -0.568425
-5.503667 7.642262 2.523486
-3.833263 5.338480 -1.761005
-12.959181 18.047895 0.387827
-4.539684 6.324624 -1.797359
-8.707014 12.134956 0.782737
-5.452343 7.601727 -1.818410
-6.049693 8.437668 0.908337
-5.436159 7.584750 -1.477993
-5.462895 7.622055 1.151422
-5.499718 7.676260 -1.159465
-5.470317 7.638038 1.488005
-5.445336 7.605962 -0.818392
-5.458091 7.626590 1.822989
-5.440876 7.605339 -0.490074
-5.461574 7.637087 2.167628
-5.470612 7.649725 -0.164157
-5.469094 7.650425 2.519862
-3.813485 5.350255 -1.760487
-12.964885 18.196249 0.389991
-4.517606 6.342807 -1.797809
-5.605476 7.873105 0.506507
-5.410974 7.599920 -1.813449
-6.020201 8.458735 0.908337
-5.399345 7.589192 -1.475177
-5.418814 7.619379 1.148009
-5.432436 7.641358 -1.151178
-5.423975 7.632275 1.482999
-5.407210 7.608685 -0.816649
-5.431434 7.645597 1.822989
-5.407355 7.614516 -0.489446
-5.416831 7.630681 2.160430
-5.405503 7.617540 -0.163040
-5.429838 7.654663 2.514686
-3.788090 5.354072 -1.757381
-12.963644 18.329552 0.391876
-4.495436 6.358539 -1.797809
-5.564125 7.873053 0.505251
-5.371946 7.601127 -1.809251
-5.979143 8.463425 0.906594
-5.353448 7.580564 -1.469859
-5.377303 7.617164 1.144841
-5.394287 7.644053 -1.148741
-5.389331 7.639862 1.480809
-5.363391 7.603090 -0.814035
-5.385481 7.637233 1.816502
-5.360031 7.603960 -0.487562
-5.389041 7.647949 2.159980
-5.367367 7.620013 -0.162691
-5.384180 7.646716 2.505886
-3.770489 5.368843 -1.757899
-12.958187 18.458160 0.393656
-4.469856 6.369405 -1.796459
-5.531104 7.881650 0.504623
-5.338617 7.610188 -1.806961
-5.939271 8.469562 0.905025
-5.309943 7.574943 -1.465165
-5.344983 7.627761 1.143622
-5.363017 7.656332 -1.147766
-5.356035 7.646365 1.478619
-5.320818 7.598918 -0.811594
-5.340775 7.630252 1.810396
-5.333457 7.622622 -0.487562
-5.339972 7.634777 2.150982
-5.337482 7.631217 -0.162552
-5.348828 7.650281 2.501227
-3.753933 5.385142 -1.758934
-12.957508 18.587976 0.395506
-4.442023 6.374601 -1.793760
-5.490999 7.882884 0.503472
-5.304165 7.617500 -1.804290
-5.901700 8.478796 0.903805
-5.275768 7.579538 -1.462662
-5.301520 7.619371 1.139722
-5.337595 7.674075 -1.147766
-5.322544 7.655285 1.476742
-5.288577 7.609264 -0.810723
-5.306480 7.635023 1.807343
-5.283078 7.604184 -0.485259
-5.309069 7.644439 2.148732
-5.293707 7.625160 -0.162028
-5.308875 7.649859 2.495016
-3.731658 5.391206 -1.756864
-12.967644 18.741623 0.397810
-4.418634 6.388466 -1.793310
-5.447548 7.879002 0.502007
-5.273294 7.626972 -1.802382
-5.864490 8.485207 0.902411
-5.239172 7.583283 -1.459847
-5.261356 7.618228 1.136797
-5.329950 7.720431 -1.151909
-5.283446 7.655935 1.473300
-5.244075 7.598885 -0.807759
-5.271994 7.642186 1.804672
-5.242898 7.602846 -0.484003
-5.262442 7.634046 2.140634
-5.255713 7.627126 -0.161679
-5.268991 7.649251 2.488804
-3.716096 5.408977 -1.758417
-12.966678 18.880730 0.399800
-4.391897 6.397424 -1.791510
-5.408709 7.881503 0.500960
-5.227753 7.617816 -1.795894
-5.846108 8.522054 0.904154
-5.208201 7.595006 -1.458595
-5.227995 7.626726 1.135335
-5.227787 7.629275 -1.135579
-5.244412 7.656403 1.469859
-5.206260 7.600704 -0.806016
-5.236411 7.647584 1.801619
-5.207300 7.607917 -0.483166
-5.222558 7.633068 2.135236
-5.215509 7.625619 -0.161260
-5.231353 7.651651 2.483628
-3.688488 5.409147 -1.754276
-12.963759 19.018412 0.401754
-4.364054 6.404662 -1.789261
-5.367925 7.877938 0.499599
-5.188974 7.618168 -1.791697
-5.892573 8.654399 0.916007
-5.168322 7.593543 -1.454841
-5.190176 7.628514 1.132897
-5.249128 7.718058 -1.146059
-5.208996 7.659050 1.467043
-5.164016 7.595763 -0.803576
-5.196443 7.646329 1.797039
-5.171735 7.612830 -0.482328
-5.188220 7.639965 2.132086
-5.171096 7.614749 -0.160667
-5.188587 7.643384 2.475345
-3.665253 5.415588 -1.752205
-12.960029 19.149067 0.403604
-4.342789 6.419100 -1.789261
-5.335915 7.890010 0.499180
-5.150257 7.618342 -1.787499
-5.883521 8.706282 0.919319
-5.125414 7.584455 -1.449835
-5.155959 7.632526 1.130948
-5.214616 7.722263 -1.144109
-5.175596 7.667363 1.465165
-5.127439 7.598880 -0.802007
-5.150191 7.632599 1.789788
-5.130823 7.606759 -0.480863
-5.155229 7.645820 2.128937
-5.131070 7.612856 -0.160248
-5.152162 7.647029 2.470687
-3.648350 5.429317 -1.752723
-12.973384 19.313709 0.406117
-4.310580 6.419659 -1.785212
-5.297212 7.892004 0.498134
-5.116210 7.622340 -1.784446
-5.806886 8.654601 0.911823
-5.084605 7.580972 -1.445768
-5.104967 7.614202 1.125585
-5.169948 7.714033 -1.140210
-5.138907 7.670612 1.462350
-5.093123 7.605143 -0.800787
-5.100578 7.616274 1.781775
-5.093130 7.608024 -0.479816
-5.115505 7.644332 2.123538
-5.093349 7.614098 -0.159899
-5.113627 7.647300 2.464993
-3.629497 5.444261 -1.753240
-12.985747 19.478678 0.408631
-4.288146 6.434666 -1.785212
-5.247484 7.877205 0.496040
-5.076267 7.623067 -1.780248
-5.735383 8.616117 0.905548
-5.049123 7.588046 -1.443577
-5.067358 7.615450 1.123148
-5.127595 7.708894 -1.136797
-5.103353 7.675343 1.459847
-5.051103 7.599646 -0.798347
-5.059589 7.615295 1.777195
-5.045323 7.596691 -0.477932
-5.073438 7.641925 2.117689
-5.055676 7.615172 -0.159550
-5.079423 7.653838 2.461369
-3.608340 5.453674 -1.752205
-11.539779 17.447933 0.365139
-4.264532 6.450340 -1.785212
-5.215550 7.888808 0.495622
-5.034472 7.617807 -1.774905
-5.690993 8.614475 0.903282
-5.006279 7.580898 -1.438884
-5.033946 7.625687 1.121929
-5.084002 7.704438 -1.133385
-5.063471 7.673326 1.456092
-5.022352 7.613903 -0.797998
-5.028655 7.626354 1.775669
-5.015475 7.609255 -0.477618
-5.033867 7.640060 2.112290
-5.009263 7.602716 -0.158922
-5.038862 7.650547 2.454640
-3.586101 5.461391 -1.750652
-11.536738 17.569679 0.366884
-4.243117 6.464447 -1.785212
-5.175932 7.888597 0.494470
-4.996009 7.617276 -1.770708
-5.645592 8.610963 0.900842
-4.978943 7.594154 -1.438259
-4.998839 7.627395 1.119736
-5.038846 7.691366 -1.128998
-5.023666 7.671124 1.452338
-4.979377 7.606382 -0.795383
-4.992586 7.626560 1.771852
-4.978186 7.607460 -0.476467
-4.999968 7.643665 2.108691
-4.975033 7.608438 -0.158677
-5.001555 7.651920 2.449464
-3.565859 5.470017 -1.749617
-11.503719 17.653404 0.367792
-4.220527 6.479218 -1.785212
-8.730796 13.403238 0.838317
-4.966434 7.627222 -1.769181
-5.835471 8.965270 0.935878
-4.933014 7.581683 -1.432627
-4.959194 7.624830 1.116811
-5.007637 7.702252 -1.128023
-4.990665 7.676148 1.450148
-4.940010 7.601137 -0.793117
-4.950958 7.620894 1.766510
-4.942897 7.611392 -0.475629
-4.961586 7.643091 2.103742
-4.946507 7.619864 -0.158573
-4.962483 7.647396 2.442734
-3.542547 5.475942 -1.747546
-11.509203 17.790514 0.369851
-4.194787 6.486632 -1.783412
-8.726246 13.499046 0.842400
-4.932323 7.632968 -1.766510
-5.892789 9.122820 0.950172
-4.899273 7.584725 -1.430124
-4.924192 7.626223 1.114617
-4.959463 7.683790 -1.122904
-4.950990 7.673602 1.446393
-4.901569 7.599916 -0.791200
-4.917148 7.624070 1.763457
-4.904644 7.607597 -0.474373
-4.934104 7.656225 2.102843
-4.907968 7.618591 -0.158189
-4.927390 7.651680 2.438593
-3.524456 5.489900 -1.748064
-11.507638 17.931875 0.371911
-4.161512 6.487202 -1.779363
-8.715519 13.591468 0.846168
-4.899289 7.640224 -1.764220
-5.560925 8.675349 0.901539
-4.866110 7.594316 -1.428560
-4.880146 7.619147 1.110961
-4.890590 7.638389 -1.113642
-4.915376 7.680052 1.444203
-4.867491 7.605234 -0.789980
-4.882822 7.632120 1.761167
-4.864890 7.607016 -0.473222
-4.880816 7.634854 2.092045
-4.871396 7.623049 -0.157909
-4.887874 7.651778 2.432899
-3.502156 5.497282 -1.746511
-11.511576 18.076509 0.374075
-4.145123 6.511551 -1.782062
-8.714133 13.694262 0.850669
-4.859943 7.637401 -1.759641
-5.527403 8.689663 0.901016
-4.828974 7.594584 -1.425431
-4.842874 7.619381 1.108524
-4.895835 7.705678 -1.120954
-4.871595 7.670482 1.439197
-4.832370 7.608721 -0.788585
-4.844577 7.630884 1.756969
-4.830817 7.612145 -0.472489
-4.843695 7.635391 2.087546
-4.829766 7.616364 -0.157421
-4.849758 7.650844 2.427205
-3.476751 5.499677 -1.743405
-11.514640 18.221386 0.376239
-4.119244 6.521039 -1.780712
-8.717459 13.805659 0.855693
-4.825914 7.642701 -1.756969
-5.482150 8.685315 0.898576
-4.790837 7.593019 -1.421989
-4.808833 7.624488 1.106817
-4.832913 7.665626 -1.112667
-4.838469 7.677415 1.437320
-4.794094 7.607003 -0.786668
-4.809537 7.634461 1.753916
-4.792510 7.610370 -0.471338
-4.808709 7.639058 2.083947
-4.791433 7.614560 -0.157037
-4.811707 7.649740 2.421511
-3.457533 5.511779 -1.743405
-11.503015 18.344486 0.377949
-4.097492 6.537029 -1.781162
-8.703153 13.890162 0.859043
-4.791912 7.647853 -1.754298
-5.432760 8.674006 0.895438
-4.756967 7.597975 -1.419799
-4.777977 7.634495 1.105842
-4.855607 7.761547 -1.124123
-4.799073 7.674158 1.433566
-4.759062 7.610177 -0.785273
-4.767251 7.626231 1.748192
-4.757447 7.613504 -0.470500
-4.773757 7.642572 2.080347
-4.756353 7.617669 -0.156758
-4.770655 7.643544 2.414264
-3.437252 5.522173 -1.742887
-11.500178 18.483007 0.379974
-4.065387 6.536398 -1.777113
-7.513603 12.080498 0.745578
-4.758968 7.654529 -1.752008
-5.405603 8.697996 0.895961
-4.717909 7.594397 -1.416045
-4.738734 7.630890 1.102918
-4.790049 7.713523 -1.114861
-4.763178 7.673247 1.430437
-4.725117 7.614891 -0.784053
-4.728185 7.622804 1.743613
-4.715053 7.604603 -0.468930
-4.737089 7.640144 2.075398
-4.717372 7.611302 -0.156304
-4.742228 7.654397 2.412711
-3.423997 5.541759 -1.745476
-11.508179 18.633329 0.382278
-4.041640 6.546528 -1.776214
-7.467202 12.095152 0.744950
-4.722216 7.651892 -1.747811
-5.361040 8.690437 0.893346
-4.682329 7.593188 -1.412916
-4.701943 7.627975 1.100237
-4.769649 7.737815 -1.116079
-4.731491 7.678909 1.428560
-4.690434 7.615252 -0.782484
