# This PCD file was generated using the MATLAB® pcwrite function
# from Computer Vision Toolbox®.
# .PCD v.7 - Point Cloud Data file format
VERSION .7
FIELDS x y z
SIZE 4 4 4
TYPE F F F
COUNT 1 1 1
WIDTH 1663
HEIGHT 1
VIEWPOINT 0 0 0 1 0 0 0
POINTS 1663
DATA ascii
-8.580420 7.623409 -1.409297
-8.576966 7.623021 1.817456
-8.512338 7.565580 -0.996364
-8.567026 7.616862 2.228267
-8.527510 7.584394 -0.598095
-8.588405 7.641239 2.653972
-26.714146 23.776348 -0.624238
-5.605108 5.002750 -2.013095
-14.243815 12.717559 0.333306
-6.078199 5.428811 -1.881491
-9.597522 8.575149 0.674506
-7.485513 6.688121 -1.951213
-8.514946 7.610566 0.999153
-8.511607 7.610251 -1.808383
-8.509225 7.610797 1.401741
-8.536004 7.637432 -1.406372
-8.529698 7.634469 1.813076
-8.466578 7.577973 -0.994098
-8.527222 7.634933 2.224833
-8.448914 7.567476 -0.594432
-8.528298 7.641263 2.643625
-26.720331 23.949535 -0.626332
-10.346051 9.276462 3.723371
-5.591921 5.026159 -2.014647
-14.235026 12.799287 0.334144
-6.059211 5.449996 -1.881491
-9.527443 8.572529 0.671680
-7.456283 6.708956 -1.949686
-8.445384 7.601586 0.994098
-8.457096 7.614804 -1.802438
-8.450156 7.611225 1.396379
-8.429658 7.595424 -1.393210
-8.457511 7.623199 1.803377
-8.407515 7.578135 -0.990264
-8.458235 7.626527 2.213766
-8.394268 7.571504 -0.592443
-8.449487 7.623988 2.627428
-26.719698 24.117695 -0.628287
-10.317907 9.316407 3.724924
-5.567182 5.039165 -2.012059
-14.216943 12.873058 0.334772
-6.031484 5.463264 -1.878791
-9.541865 8.645965 0.674820
-7.422637 6.725714 -1.947015
-8.399605 7.613626 0.991832
-8.401197 7.617741 -1.796181
-8.395601 7.615334 1.391748
-8.379570 7.603462 -1.389311
-8.400132 7.624793 1.796807
-8.352981 7.581994 -0.986952
-8.386506 7.615090 2.201936
-8.341175 7.576589 -0.590559
-8.405516 7.637710 2.622029
-26.667908 24.240402 -0.629055
-10.282467 9.349764 3.723889
-5.545275 5.054663 -2.010506
-14.217724 12.964378 0.335854
-6.021016 5.492163 -1.881491
-9.508675 8.676525 0.674611
-7.391862 6.744965 -1.945107
-8.331775 7.605290 0.986952
-8.339547 7.615050 -1.788672
-8.339655 7.617817 1.386873
-8.358840 7.638022 -1.390286
-8.334100 7.618082 1.788359
-8.285289 7.573464 -0.982071
-8.336690 7.623123 2.195830
-8.288150 7.581394 -0.588675
-8.350052 7.640691 2.613031
-26.648027 24.392757 -0.630590
-10.248342 9.384295 3.723371
-5.517634 5.064845 -2.006883
-14.206264 13.045033 0.336657
-5.998939 5.510511 -1.880591
-9.431267 8.666423 0.671261
-7.369717 6.772058 -1.945489
-8.284643 7.615449 0.984511
-8.278017 7.612024 -1.781163
-8.279408 7.615974 1.381267
-8.294149 7.632203 -1.383948
-8.278390 7.620371 1.782102
-8.229485 7.575353 -0.978585
-8.275368 7.620261 2.186671
-8.226381 7.577801 -0.586163
-8.297535 7.646022 2.604933
-26.556835 24.480209 -0.630451
-10.252447 9.454062 3.736830
-5.502758 5.086697 -2.007918
-14.204686 13.135273 0.337704
-5.973944 5.526124 -1.878791
-9.377505 8.677585 0.669586
-7.346035 6.797740 -1.945489
-8.218533 7.607778 0.979805
-8.231104 7.622084 -1.776783
-8.213454 7.608404 1.374686
-8.217951 7.615234 -1.375661
-8.228559 7.627737 1.777096
-8.176688 7.579654 -0.975447
-8.225686 7.627739 2.180565
-8.160344 7.569797 -0.583337
-8.239366 7.645780 2.595035
-25.295828 23.481667 -0.602457
-10.260439 9.527912 3.751841
-5.484969 5.105874 -2.007918
-14.214359 13.236562 0.339030
-5.946062 5.538974 -1.876092
-9.317934 8.683034 0.667493
-7.322261 6.823341 -1.945489
-8.167150 7.613325 0.976842
-8.172664 7.621130 -1.769900
-8.162169 7.614008 1.370543
-8.165195 7.619496 -1.371274
-8.168671 7.625411 1.769900
-8.122508 7.582318 -0.972135
-8.176052 7.634967 2.174459
-8.109058 7.575058 -0.581557
-8.169911 7.634579 2.581538
-25.240005 23.594395 -0.603085
-10.246870 9.582146 3.759088
-5.462884 5.121026 -2.006365
-14.211830 13.327130 0.340078
-5.921006 5.554363 -1.874292
-9.249701 8.679972 0.664771
-7.286946 6.838111 -1.942436
-8.108567 7.611787 0.973007
-8.114331 7.619864 -1.763017
-8.102265 7.611193 1.364937
-8.045964 7.560953 -1.355675
-8.107462 7.621404 1.762391
-8.074218 7.590153 -0.969520
-8.113596 7.629838 2.164919
-8.056380 7.578687 -0.579673
-8.109154 7.630996 2.570741
-10.252740 9.654940 3.773582
-5.419690 5.116192 -1.997048
-14.217560 13.426087 0.341334
-5.901582 5.574997 -1.874292
-9.201928 8.695744 0.663515
-7.251617 6.852717 -1.939383
-8.052990 7.612671 0.969520
-8.050366 7.612853 -1.754882
-8.056903 7.621693 1.361768
-7.996455 7.567160 -1.351775
-8.052118 7.622499 1.756134
-7.995586 7.568983 -0.963245
-8.059826 7.632467 2.157668
-8.006679 7.584785 -0.577998
-8.057006 7.635128 2.562642
-8.313957 7.884135 3.070112
-5.386396 5.120438 -1.991354
-14.212632 13.515598 0.342346
-5.886322 5.599592 -1.875642
-9.115158 8.671147 0.659328
-7.234763 6.884758 -1.941291
-7.997506 7.613261 0.966034
-7.990844 7.609574 -1.747686
-7.997188 7.618280 1.356162
-7.994314 7.615543 -1.355675
-7.999626 7.623266 1.750189
-7.943160 7.572099 -0.960108
-7.993354 7.622615 2.146983
-7.945470 7.579600 -0.575486
-8.003442 7.634902 2.553644
-25.334234 24.176100 -0.611253
-10.246871 9.781861 3.795840
-5.361012 5.130258 -1.988248
-14.208179 13.601375 0.343324
-5.856461 5.608299 -1.872043
-9.051732 8.668174 0.656816
-7.196299 6.893770 -1.937093
-7.942008 7.610791 0.962374
-7.928489 7.600489 -1.739552
-7.940361 7.614530 1.350800
-7.966152 7.639262 -1.355187
-7.944366 7.621036 1.743619
-7.895002 7.576327 -0.957319
-7.943956 7.625968 2.140495
-7.885718 7.572706 -0.572974
-7.958401 7.642504 2.547346
-25.219313 24.226732 -0.610415
-10.256165 9.855945 3.811369
-5.318926 5.123883 -1.978930
-14.220593 13.703920 0.344720
-5.826607 5.616869 -1.868443
-8.177443 7.883082 0.595269
-7.176224 6.920321 -1.937856
-7.883744 7.605271 0.958364
-7.862020 7.586959 -1.730478
-7.893644 7.620139 1.347144
-7.897929 7.624275 -1.347875
-7.896315 7.625383 1.738613
-7.851207 7.584471 -0.955053
-7.893212 7.627710 2.133626
-7.834714 7.573828 -0.571090
-7.895184 7.632283 2.535198
-24.529339 23.720823 -0.595616
-10.265080 9.930195 3.826898
-5.285264 5.125354 -1.972719
-14.221004 13.795556 0.345837
-5.814940 5.642945 -1.870693
-8.102523 7.862865 0.591710
-7.133515 6.924936 -1.932514
-7.839901 7.613326 0.956098
-7.816980 7.593719 -1.726098
-7.846977 7.625521 1.343488
-7.798574 7.578485 -1.335201
-7.842656 7.623988 1.732355
-7.798873 7.584074 -0.951741
-7.839730 7.626464 2.125994
-7.789516 7.580266 -0.569625
-7.840502 7.629883 2.525750
-24.470600 23.821562 -0.596104
-10.266695 9.997875 3.839839
-5.245714 5.124443 -1.964954
-14.218971 13.895103 0.347024
-5.785858 5.656047 -1.867994
-8.033715 7.856217 0.588884
-7.106680 6.949664 -1.932132
-7.779187 7.609966 0.952089
-7.758036 7.591924 -1.719215
-7.800532 7.636180 1.340319
-7.803456 7.641706 -1.341050
-7.780870 7.622250 1.725160
-7.721313 7.566550 -0.945814
-7.778071 7.622170 2.116835
-7.731731 7.579402 -0.567427
-7.791669 7.640830 2.519452
-24.241911 23.780910 -0.592754
-10.243398 10.052108 3.845534
-5.210373 5.127374 -1.958743
-14.217417 13.990939 0.348175
-5.764691 5.674840 -1.867544
-7.974936 7.853380 0.586581
-7.072771 6.967397 -1.929842
-7.725697 7.613256 0.948952
-7.696394 7.587025 -1.711706
-7.751212 7.641064 1.336419
-7.748465 7.641023 -1.336176
-7.728901 7.624394 1.719528
-7.669329 7.568265 -0.942677
-7.717948 7.618903 2.108058
-7.678317 7.582430 -0.565542
-7.733112 7.639205 2.509554
-24.133152 23.840090 -0.592125
-10.257713 10.136685 3.864168
-5.169117 5.122413 -1.949943
-14.212907 14.089414 0.349327
-5.732782 5.684955 -1.863944
-7.927619 7.861482 0.585116
-7.048409 6.992042 -1.929842
-7.673619 7.614914 0.945814
-7.641826 7.586011 -1.705449
-7.687940 7.634453 1.330326
-7.709141 7.658179 -1.334226
-7.668607 7.617913 1.712019
-7.624492 7.576734 -0.940410
-7.671811 7.626421 2.102715
-7.616399 7.573977 -0.562926
-7.684294 7.644163 2.502356
-23.936369 23.811359 -0.589333
-10.256499 10.206500 3.877109
-5.134794 5.124051 -1.943731
-14.222725 14.192966 0.350724
-5.713899 5.703935 -1.863944
-7.871866 7.860878 0.583023
-7.023957 7.016605 -1.929842
-7.611758 7.606445 0.941456
-7.592874 7.587574 -1.700130
-7.649946 7.647275 1.328132
-7.627556 7.627554 -1.324476
-7.623813 7.626474 1.707952
-7.578279 7.583570 -0.937970
-7.624277 7.629600 2.096609
-7.571479 7.579410 -0.561460
-7.620347 7.630993 2.489758
-23.802248 23.843822 -0.588076
-10.254927 10.276423 3.890050
-5.094605 5.117774 -1.934931
-14.229517 14.299226 0.352120
-5.691205 5.721083 -1.863045
-7.813356 7.854374 0.580615
-6.988192 7.027328 -1.926408
-7.562613 7.607625 0.938493
-7.523177 7.570595 -1.690431
-7.603619 7.654216 1.324720
-7.564517 7.617511 -1.318139
-7.566467 7.619476 1.700756
-7.532035 7.587450 -0.935355
-7.565791 7.624115 2.087832
-7.525283 7.585943 -0.559995
-7.574453 7.638175 2.483460
-10.250712 10.340557 3.901438
-5.054978 5.113546 -1.926649
-14.224194 14.388997 0.353167
-5.666722 5.734379 -1.861245
-7.766243 7.861706 0.579150
-6.958100 7.046093 -1.924881
-7.509417 7.607037 0.935181
-7.484152 7.581443 -1.687302
-7.555886 7.656779 1.320820
-7.511332 7.614291 -1.313264
-7.520406 7.626150 1.696376
-7.473335 7.581061 -0.931346
-7.522551 7.630986 2.082871
-7.466440 7.576714 -0.557483
-7.531303 7.645203 2.477611
-10.253858 10.416203 3.916450
-5.025812 5.117875 -1.921990
-14.215907 14.481373 0.354214
-5.652133 5.759688 -1.863045
-7.721969 7.871659 0.577894
-6.933463 7.070338 -1.924881
-7.464620 7.611982 0.932741
-7.413393 7.562379 -1.677290
-7.516607 7.670350 1.318626
-7.462481 7.617775 -1.309364
-7.482684 7.641062 1.693873
-7.414768 7.574356 -0.927337
-7.456082 7.619219 2.072186
-7.416275 7.581183 -0.555808
-7.485493 7.651941 2.471312
-10.262000 10.497519 3.933532
-4.992187 5.121045 -1.916296
-14.224144 14.596391 0.355750
-5.614665 5.763616 -1.857646
-7.681918 7.888462 0.577056
-6.902026 7.090075 -1.923355
-7.408877 7.610735 0.929255
-7.360827 7.564020 -1.671659
-7.448304 7.656581 1.311558
-7.445583 7.656458 -1.311314
-7.429842 7.642943 1.688241
-7.371685 7.585763 -0.925420
-7.410323 7.628190 2.067225
-7.366174 7.585391 -0.554133
-7.437031 7.658357 2.464564
-10.249018 10.561401 3.943367
-4.969352 5.135144 -1.914743
-14.220604 14.700170 0.357006
-5.584021 5.774348 -1.854496
-8.642888 8.937474 0.651583
-6.877233 7.114126 -1.923355
-7.362933 7.619214 0.926988
-7.311096 7.568215 -1.666653
-7.392610 7.655272 1.306683
-7.396747 7.659556 -1.307414
-7.370192 7.634720 1.680732
-7.320257 7.585642 -0.922282
-7.360477 7.629989 2.060737
-7.314697 7.585178 -0.552249
-7.376437 7.649200 2.453316
-10.250964 10.637454 3.958379
-4.934893 5.133488 -1.908014
-14.218886 14.796268 0.358193
-5.571591 5.799861 -1.856746
-8.588295 8.940160 0.649699
-6.842726 7.125562 -1.920302
-7.311411 7.616280 0.923677
-7.266810 7.572465 -1.662273
-7.347943 7.659690 1.303271
-7.283355 7.592362 -1.291815
-7.318856 7.632030 1.674788
-7.273001 7.586863 -0.919493
-7.320193 7.638764 2.056540
-7.261871 7.580548 -0.550156
-7.317329 7.638440 2.442069
-10.258381 10.716045 3.974943
-4.896495 5.127471 -1.899732
-14.224974 14.901196 0.359589
-5.546946 5.812666 -1.854946
-8.546007 8.958524 0.648861
-6.813639 7.142533 -1.918775
-7.262738 7.615972 0.920713
-7.210309 7.563635 -1.655077
-7.304701 7.665331 1.300102
-7.254072 7.614863 -1.291328
-7.259477 7.623199 1.667279
-7.214878 7.579014 -0.915484
-7.266397 7.633133 2.048525
-7.211910 7.578545 -0.548272
-7.270473 7.642756 2.435320
-10.252859 10.785391 3.987366
-4.867036 5.134167 -1.895591
-14.221024 15.001555 0.360811
-5.525282 5.830579 -1.854496
-8.487215 8.959300 0.646768
-6.787414 7.167459 -1.918775
-7.206012 7.612155 0.917053
-7.151310 7.557012 -1.647881
-7.258798 7.670597 1.296690
-7.238360 7.651674 -1.293278
-7.211106 7.625529 1.662273
-7.166478 7.580987 -0.912695
-7.196569 7.615480 2.036695
-7.164884 7.584601 -0.546806
-7.223680 7.649516 2.429021
-10.248302 10.856234 4.000307
-4.831871 5.132839 -1.888861
-14.222134 15.113281 0.362242
-5.487851 5.833758 -1.849098
-8.433991 8.965597 0.645093
-6.761009 7.189678 -1.918394
-7.161658 7.618389 0.914787
-7.111360 7.567534 -1.644752
-7.198016 7.662427 1.290840
-7.206192 7.673811 -1.292546
-7.160104 7.624732 1.656641
-7.112700 7.576904 -0.909209
-7.164568 7.634828 2.035169
-7.113766 7.583347 -0.544922
-7.178273 7.654785 2.422723
-9.650309 10.290920 -0.246253
-10.264514 10.949728 4.021531
-4.798094 5.132738 -1.882650
-14.226560 15.218793 0.363638
-5.463154 5.846230 -1.847298
-10.145072 10.860242 0.778864
-6.731852 7.208927 -1.917249
-7.107828 7.614214 0.911300
-7.064659 7.567970 -1.639746
-7.145479 7.657227 1.285965
-7.138728 7.652667 -1.284990
-7.106500 7.620788 1.650384
-7.076698 7.591485 -0.907988
-7.116454 7.634132 2.028682
-7.072244 7.589358 -0.543666
-7.109015 7.631492 2.407876
-9.614327 10.324543 -0.246253
-10.265720 11.027908 4.037060
-4.767901 5.134464 -1.877473
-14.230490 15.329915 0.365104
-5.445364 5.868120 -1.848198
-10.139702 10.930728 0.781376
-6.695893 7.218258 -1.913814
-7.066283 7.620211 0.909209
-7.014025 7.566508 -1.634115
-7.097120 7.658824 1.282066
-7.126810 7.693560 -1.287672
-7.059723 7.623806 1.645691
-7.024442 7.588359 -0.904677
-7.067091 7.634433 2.022194
-7.015863 7.581750 -0.541363
-7.059836 7.631941 2.400228
-7.091740 7.671801 2.799387
-4.732028 5.133441 -1.870744
-14.232457 15.439782 0.366535
-5.419566 5.881359 -1.846398
-10.144786 11.013063 0.784725
-6.665400 7.238420 -1.912669
-7.007271 7.612344 0.905200
-6.970197 7.574720 -1.630360
-7.047492 7.658719 1.277922
-7.054216 7.668716 -1.279384
-7.006327 7.619320 1.639433
-6.965550 7.577629 -0.900493
-7.003195 7.621254 2.011890
-6.977220 7.595644 -0.540526
-7.018636 7.643412 2.395729
-7.017887 7.645275 2.780752
-4.697124 5.131402 -1.864015
-14.218974 15.539049 0.367652
-5.395343 5.898307 -1.845498
-10.158264 11.109130 0.788912
-6.642744 7.264539 -1.913433
-6.965869 7.620581 0.903282
-6.913064 7.565466 -1.623164
-7.007324 7.671308 1.275728
-7.004646 7.671064 -1.275485
-6.959708 7.624526 1.635053
-6.921593 7.582770 -0.898227
-6.956698 7.623900 2.006166
-6.929128 7.596344 -0.538851
-6.970904 7.644825 2.388530
-6.963798 7.642385 2.770399
-4.673985 5.142048 -1.861944
-14.225161 15.655186 0.369223
-5.362928 5.904123 -1.841449
-10.155675 11.184445 0.791738
-6.613386 7.283322 -1.912288
-6.916461 7.619771 0.900319
-6.864049 7.564681 -1.617846
-6.953829 7.666314 1.270854
-6.941824 7.655763 -1.268904
-6.917131 7.631210 1.631299
-6.875010 7.584740 -0.895612
-6.918181 7.635042 2.002731
-6.879774 7.595322 -0.537072
-6.940251 7.664778 2.387181
-6.918930 7.646593 2.763152
-4.645652 5.146860 -1.857803
-14.225350 15.765617 0.370654
-5.337066 5.917018 -1.839650
-10.151973 11.255138 0.794355
-6.576089 7.293241 -1.908853
-6.873814 7.626108 0.898227
-6.821733 7.570985 -1.614091
-6.907099 7.668417 1.267198
-6.899117 7.662247 -1.265979
-6.864029 7.623278 1.624729
-6.825835 7.583517 -0.892649
-6.861284 7.625577 1.993954
-6.830513 7.594047 -0.535292
-6.869156 7.639687 2.371884
-6.875456 7.649379 2.755905
-4.609608 5.142904 -1.850556
-14.231720 15.878222 0.372190
-5.321315 5.939038 -1.840999
-10.141939 11.323238 0.796658
-6.542735 7.307374 -1.906564
-6.827219 7.627786 0.895612
-6.780780 7.575902 -1.610337
-6.857805 7.664650 1.262810
-6.913372 7.729473 -1.273291
-6.812362 7.619212 1.618784
-6.792684 7.599870 -0.891778
-6.817643 7.627796 1.988612
-6.781339 7.589847 -0.533408
-6.817821 7.633356 2.362886
-6.829414 7.651714 2.748141
-4.573258 5.136519 -1.842792
-6.991715 7.855607 0.183564
-5.294075 5.950298 -1.838750
-10.150799 11.409034 0.800322
-6.505419 7.314360 -1.902747
-6.763496 7.607205 0.890557
-6.730673 7.572948 -1.604705
-6.816507 7.672216 1.260129
-6.816485 7.674893 -1.260373
-6.766071 7.618129 1.613778
-6.729082 7.579146 -0.886723
-6.777945 7.636862 1.984795
-6.736249 7.592555 -0.531943
-6.771738 7.635239 2.356138
-6.779653 7.646855 2.738306
-4.548903 5.145215 -1.840203
-6.937813 7.847286 0.182831
-5.273024 5.966361 -1.838300
-10.140006 11.477323 0.802624
-6.477248 7.334080 -1.901984
-6.722395 7.614338 0.888640
-6.684605 7.571534 -1.599699
-6.764757 7.665012 1.255254
-6.759478 7.661729 -1.254523
-6.718531 7.617996 1.608772
-6.678868 7.575688 -0.883585
-6.729211 7.632791 1.977926
-6.693867 7.595372 -0.530582
-6.736075 7.645955 2.352538
-6.897623 7.832079 -0.182168
-6.728667 7.642923 2.728471
-4.517793 5.144304 -1.834509
-6.898503 7.857933 0.182517
-5.247025 5.978871 -1.836500
-6.917714 7.882586 0.549632
-6.450302 7.352568 -1.901221
-6.689226 7.627601 0.887594
-6.628185 7.560655 -1.592503
-6.709176 7.655735 1.249892
-6.693449 7.640482 -1.247211
-6.675008 7.619432 1.604392
-6.647146 7.590300 -0.882713
-6.672785 7.622257 1.969149
-6.644952 7.593141 -0.528803
-6.684965 7.641554 2.343990
-6.875563 7.859425 -0.182273
-6.685481 7.644835 2.721224
-4.483302 5.141115 -1.827780
-6.854009 7.859664 0.182029
-5.216925 5.984487 -1.832901
-10.157435 11.655997 0.810265
-6.405252 7.352835 -1.895497
-6.646859 7.632874 0.885502
-6.592697 7.570678 -1.590000
-6.670717 7.662968 1.247455
-6.645922 7.637179 -1.243067
-6.635405 7.627781 1.601263
-6.598387 7.587898 -0.879750
-6.621707 7.614714 1.961517
-6.602701 7.595539 -0.527442
-6.635302 7.635733 2.335442
-6.639754 7.646245 2.713459
-4.453948 5.143590 -1.823121
-6.808142 7.865078 0.181575
-5.189854 5.997673 -1.831102
-10.151230 11.735448 0.813196
-6.365419 7.358817 -1.891299
-6.598022 7.630407 0.882539
-6.545529 7.572372 -1.585307
-6.624414 7.666340 1.244042
-6.599720 7.640454 -1.239655
-6.579000 7.619158 1.594380
-6.549721 7.585249 -0.876787
-6.579639 7.622586 1.957319
-6.557856 7.600031 -0.526081
-6.583087 7.631965 2.326894
-6.596550 7.652971 2.707247
-4.417073 5.137134 -1.815357
-6.759791 7.864532 0.181016
-5.170157 6.017231 -1.831551
-10.145342 11.811715 0.816022
-6.342253 7.383968 -1.892062
-6.551878 7.630719 0.879924
-6.508764 7.583183 -1.582804
-6.580811 7.669830 1.240874
-6.583349 7.675499 -1.241605
-6.534366 7.621081 1.590000
-6.505050 7.586889 -0.874346
-6.540217 7.630599 1.953503
-6.516994 7.606191 -0.524930
-6.531055 7.625295 2.317896
-6.547182 7.649534 2.697930
-4.389080 5.140767 -1.811216
-6.707634 7.859179 0.180353
-5.147855 6.033760 -1.831102
-10.144229 11.894163 0.819267
-6.304975 7.392617 -1.888628
-6.517447 7.644444 0.878878
-6.454063 7.572783 -1.575921
-6.532114 7.667066 1.236730
-6.515326 7.650073 -1.233805
-6.491075 7.624292 1.585933
-6.463026 7.591347 -0.872255
-6.485548 7.620489 1.945107
-6.474871 7.610641 -0.523674
-6.503132 7.646562 2.317446
-6.499174 7.647315 2.689130
-4.363612 5.147216 -1.808110
-6.655593 7.853561 0.179690
-5.116686 6.039797 -1.827502
-8.778344 10.365727 0.711874
-6.275323 7.410088 -1.887483
-6.492009 7.668670 0.879053
-6.407174 7.571138 -1.570915
-6.484796 7.665573 1.232830
-6.462949 7.642453 -1.228931
-6.447844 7.627291 1.581866
-6.415910 7.589515 -0.869466
-6.438632 7.619091 1.939001
-6.414756 7.593525 -0.520952
-6.451257 7.639437 2.308448
-6.457490 7.652236 2.682918
-4.340643 5.156503 -1.806039
-6.615264 7.861443 0.179341
-5.090556 6.051654 -1.825703
-8.747247 10.402425 0.712292
-6.244364 7.425939 -1.885956
-6.481869 7.711110 0.881319
-6.365459 7.575307 -1.567161
-6.435014 7.660805 1.228443
-6.380067 7.598075 -1.218206
-6.404672 7.630081 1.577798
-6.377801 7.600770 -0.868071
-6.395590 7.621970 1.934040
-6.374090 7.599040 -0.519801
-6.402015 7.635030 2.300349
-6.408406 7.648079 2.673601
-4.309326 5.157554 -1.800863
-6.571113 7.864541 0.178887
-5.069398 6.069388 -1.825703
-8.727525 10.452823 0.713653
-6.204525 7.433702 -1.882140
-6.453560 7.734817 0.881319
-6.319936 7.577351 -1.562780
-6.395521 7.667974 1.226006
-6.371301 7.641646 -1.221618
-6.351438 7.620527 1.571228
-6.332102 7.600025 -0.865457
-6.355048 7.630272 1.930224
-6.333418 7.607001 -0.518754
-6.350300 7.629986 2.291801
-6.360666 7.645154 2.664801
-4.271563 5.148776 -1.792581
-6.529480 7.873178 0.178538
-5.047120 6.087926 -1.825703
-8.710107 10.506286 0.715223
-6.174783 7.450778 -1.880995
-6.429065 7.760364 0.881667
-6.277070 7.579586 -1.558713
-6.348387 7.668426 1.222350
-6.357170 7.681771 -1.224300
-6.314722 7.630479 1.568725
-6.278867 7.589842 -0.861796
-6.304604 7.623662 1.922973
-6.295371 7.615210 -0.517812
-6.311216 7.637083 2.287302
-6.316714 7.646461 2.657554
-4.242510 5.150234 -1.787922
-6.480451 7.867003 0.177910
-5.029380 6.107640 -1.826603
-8.707650 10.578263 0.718049
-6.148738 7.472286 -1.880995
-6.410795 7.793531 0.882888
-6.233074 7.577477 -1.554020
-6.306530 7.669505 1.219181
-6.331662 7.702808 -1.224300
-6.266729 7.626527 1.563406
-6.230834 7.585541 -0.858833
-6.264334 7.626325 1.918394
-6.258678 7.622151 -0.516870
-6.269780 7.638389 2.281454
-6.276509 7.652032 2.651860
-4.220513 5.158295 -1.785851
-6.435225 7.867908 0.177421
-4.996930 6.111579 -1.822553
-8.707923 10.650373 0.720980
-6.118953 7.486556 -1.879469
-6.389960 7.820918 0.883585
-6.186594 7.574708 -1.549014
-6.252101 7.657641 1.213819
-6.238214 7.643354 -1.211381
-6.226417 7.628900 1.559652
-6.190533 7.587636 -0.856741
-6.225267 7.632929 1.914578
-6.203008 7.608346 -0.514463
-6.228307 7.642099 2.276055
-6.227914 7.644349 2.642025
-4.201265 5.171495 -1.785334
-12.945549 15.935164 0.358368
-4.972949 6.123580 -1.821204
-8.702166 10.719468 0.723597
-6.086596 7.500248 -1.877560
-6.371405 7.854007 0.884805
-6.148995 7.579844 -1.545886
-6.199168 7.644410 1.208457
-6.249082 7.708719 -1.218450
-6.182336 7.629104 1.555272
-6.156483 7.599911 -0.855695
-6.182619 7.632174 1.909235
-6.157630 7.604041 -0.512788
-6.175954 7.629391 2.266157
-6.184184 7.645012 2.634778
-4.180451 5.180890 -1.783781
-12.947595 16.051859 0.359973
-4.949098 6.137865 -1.820304
-8.699787 10.793322 0.726528
-6.049372 7.505105 -1.873744
-6.346576 7.876642 0.884979
-6.106392 7.581261 -1.541818
-6.152525 7.641266 1.204557
-6.173595 7.670175 -1.208944
-6.134619 7.624474 1.549953
-6.110015 7.593895 -0.852732
-6.135023 7.627701 1.902747
-6.117285 7.608366 -0.511636
-6.140740 7.640269 2.263008
-19.676352 24.489937 -0.548355
-6.142944 7.648477 2.628566
-4.152680 5.183389 -1.779640
-12.945238 16.164070 0.361474
-4.925208 6.152060 -1.819404
-8.706982 10.879764 0.730296
-6.021909 7.524644 -1.873363
-6.324020 7.904973 0.885677
-6.062621 7.580931 -1.537438
-6.110938 7.644091 1.201632
-6.119518 7.657563 -1.203582
-6.089474 7.622688 1.545260
-6.066062 7.593381 -0.850291
-6.088757 7.624527 1.896641
-6.071997 7.606261 -0.510066
-6.097018 7.640332 2.256709
-19.548340 24.505327 -0.547168
-6.094528 7.642688 2.619249
-4.132154 5.194829 -1.778605
-12.937269 16.270205 0.362836
-4.898851 6.163114 -1.817604
-8.711200 10.963255 0.733855
-5.991943 7.541006 -1.872218
-6.303825 7.936360 0.886723
-6.012781 7.572656 -1.531494
-6.065708 7.642052 1.197976
-6.106325 7.695982 -1.206263
-6.044413 7.620684 1.540567
-6.024660 7.595779 -0.848200
-6.037712 7.614964 1.889009
-6.035486 7.614886 -0.509229
-6.059418 7.647822 2.252660
-19.405575 24.501301 -0.545562
-6.053424 7.645739 2.613037
-4.113997 5.209221 -1.778605
-12.942355 16.393740 0.364581
-4.865234 6.164881 -1.813105
-8.706280 11.035932 0.736681
-5.958290 7.552626 -1.869928
-6.271150 7.952056 0.886025
-5.971633 7.574984 -1.527739
-6.007051 7.622640 1.191639
-6.048715 7.678266 -1.200169
-6.003108 7.623115 1.536812
-5.978384 7.591720 -0.845411
-6.005023 7.628279 1.887101
-5.984168 7.604516 -0.507135
-6.017020 7.649017 2.246811
-19.270494 24.506008 -0.544166
-6.007595 7.642524 2.604755
-4.095786 5.223550 -1.778605
-12.946735 16.517506 0.366326
-4.844887 6.183359 -1.813555
-8.697259 11.103994 0.739193
-5.927045 7.567198 -1.868402
-6.264233 8.000569 0.888989
-5.928112 7.574004 -1.523359
-5.960833 7.618548 1.187739
-5.985185 7.652424 -1.192857
-5.958213 7.620680 1.532119
-5.939578 7.596845 -0.843668
-5.956596 7.621352 1.880232
-5.937910 7.600177 -0.505461
-5.956699 7.626969 2.234214
-19.138065 24.513237 -0.542840
-5.966619 7.645171 2.598543
-4.076342 5.236291 -1.778087
-12.947944 16.638351 0.368001
-4.826866 6.204847 -1.814905
-8.702585 11.191043 0.742961
-5.887339 7.570792 -1.864204
-6.231378 8.016093 0.888291
-5.891942 7.582170 -1.520856
-5.918373 7.618927 1.184570
-5.956003 7.670133 -1.192370
-5.914619 7.619585 1.527739
-5.895921 7.595496 -0.841227
-5.920330 7.629689 1.877179
-5.906449 7.614545 -0.505042
-5.912129 7.624614 2.227465
-18.981319 24.488226 -0.540815
-5.930431 7.653734 2.594402
-4.053315 5.244373 -1.776016
-12.949691 16.760990 0.369712
-4.796837 6.210863 -1.811756
-8.702522 11.271943 0.746311
-5.844077 7.569541 -1.858861
-6.202139 8.036221 0.888117
-5.855784 7.590181 -1.518353
-5.879617 7.623823 1.182133
-5.940099 7.705027 -1.194563
-5.873514 7.621409 1.523985
-5.845047 7.584470 -0.837741
-5.881678 7.634757 1.873363
-5.865208 7.616129 -0.503786
-5.875966 7.632853 2.223866
-18.876217 24.528975 -0.540257
-5.884830 7.649890 2.586120
-4.031455 5.253893 -1.774463
-12.939790 16.869555 0.371108
-4.777501 6.230660 -1.812656
-8.702007 11.352977 0.749660
-5.810454 7.580545 -1.856572
-7.394320 9.650406 1.063649
-5.808836 7.583914 -1.513034
-5.836075 7.622233 1.178720
-5.887832 7.692611 -1.189445
-5.834873 7.626175 1.520856
-5.810063 7.593749 -0.836521
-5.841873 7.638086 1.869165
-5.821606 7.614341 -0.502321
-5.839821 7.640930 2.220267
-18.729784 24.515261 -0.538511
-5.851058 7.661173 2.583014
-4.009577 5.263324 -1.772911
-12.947461 17.002115 0.373028
-4.746278 6.234896 -1.809057
-8.710701 11.446861 0.753847
-5.769690 7.582035 -1.851992
-7.400397 9.728484 1.069401
-5.761999 7.577415 -1.507716
-5.791412 7.618855 1.175064
-5.810503 7.646732 -1.179208
-5.795072 7.629195 1.517415
-5.770262 7.596533 -0.834603
-5.789054 7.624035 1.860770
-5.772049 7.604388 -0.500332
-5.806045 7.651955 2.217567
-18.595751 24.516766 -0.537115
-5.810271 7.663078 2.576802
-3.998173 5.286532 -1.776016
-12.945917 17.123779 0.374703
-4.719787 6.245206 -1.807257
-8.701995 11.518629 0.756569
-5.732539 7.588029 -1.848558
-7.407215 9.808318 1.075328
-5.722423 7.580138 -1.504274
-5.751631 7.621593 1.172383
-5.757473 7.632105 -1.173846
-5.751756 7.627295 1.513034
-5.725717 7.592765 -0.831989
-5.744680 7.620679 1.855045
-5.739458 7.616516 -0.499808
-5.749988 7.633261 2.206320
-18.469166 24.527210 -0.535928
-5.774194 7.670965 2.572661
-3.978537 5.298911 -1.775499
-12.955681 17.261627 0.376728
-4.693282 6.255407 -1.805457
-8.703679 11.604856 0.760232
-5.688349 7.584433 -1.842833
-7.405199 9.877156 1.080034
-5.680529 7.579517 -1.500207
-5.708329 7.619380 1.168971
-5.683197 7.588601 -1.164096
-5.699054 7.612535 1.506151
-5.695599 7.607920 -0.831466
-5.716869 7.639112 1.854663
-5.698478 7.617314 -0.498552
-5.713973 7.640800 2.202721
-18.318777 24.505047 -0.534044
-5.733504 7.672505 2.566450
-3.950778 5.300375 -1.771358
-12.953897 17.385319 0.378438
-4.669087 6.268627 -1.804557
-8.707248 11.694443 0.764105
-5.654803 7.594796 -1.840544
-7.393281 9.933311 1.083346
-5.644602 7.586622 -1.497704
-5.667480 7.620147 1.166046
-5.704051 7.672114 -1.173846
-5.665373 7.622870 1.504274
-5.644046 7.594175 -0.827805
-5.670263 7.632232 1.848176
-5.657566 7.617917 -0.497296
-5.672163 7.640358 2.196872
-18.206913 24.533510 -0.533276
-5.680215 7.656786 2.554544
-3.925359 5.304816 -1.768252
-12.953784 17.512419 0.380218
-4.644862 6.281752 -1.803658
-8.709114 11.782584 0.767873
-5.617757 7.600278 -1.837109
-7.403556 10.019949 1.089970
-5.599310 7.580855 -1.492698
-5.629056 7.623913 1.163609
-5.690204 7.709546 -1.176527
-5.627001 7.626707 1.501145
-5.599758 7.589782 -0.825191
-5.620283 7.620377 1.840544
-5.619089 7.621542 -0.496250
-5.630427 7.639719 2.191023
-18.111681 24.584032 -0.532996
-5.630543 7.645455 2.544191
-3.902241 5.312259 -1.766181
-12.948197 17.633287 0.381859
-4.615985 6.288503 -1.800958
-8.710464 11.870885 0.771641
-5.584222 7.610346 -1.834819
-7.397993 10.085897 1.094327
-5.563466 7.587611 -1.490195
-5.585978 7.621102 1.160196
-5.649177 7.710147 -1.173602
-5.586339 7.627177 1.497391
-5.562637 7.594816 -0.823622
-5.583209 7.625694 1.837109
-5.566497 7.605654 -0.493947
-5.592220 7.643598 2.186524
-18.098940 24.747183 -0.535161
-5.593557 7.651028 2.539532
-3.882118 5.319809 -1.764628
-12.961093 17.767576 0.383883
-4.589319 6.293525 -1.798259
-8.707250 11.944995 0.774677
-5.542940 7.604053 -1.829095
-7.406166 10.163836 1.100254
-5.524484 7.584294 -1.486127
-5.545651 7.616146 1.156784
-5.599227 7.692546 -1.168240
-5.551892 7.630313 1.494575
-5.530546 7.600976 -0.822402
-5.548832 7.628905 1.833675
-5.535530 7.613410 -0.493319
-5.549850 7.635906 2.179326
-19.088352 26.272877 -0.566854
-5.551331 7.643553 2.531250
-3.858990 5.327072 -1.762558
-12.956460 17.892076 0.385593
-4.569609 6.312662 -1.799158
-8.704136 12.028715 0.778131
-5.496796 7.596318 -1.822608
-7.404503 10.236443 1.105309
-5.485246 7.585923 -1.482686
-5.512053 7.625806 1.155321
-5.510722 7.626768 -1.155321
-5.505562 7.622422 1.489256
-5.493482 7.605697 -0.820833
-5.517569 7.641862 1.832148
-5.491386 7.608396 -0.491749
-5.504920 7.629945 2.172127
-19.038643 26.397730 -0.568111
-5.516706 7.651917 2.527627
-3.833605 5.331098 -1.759452
-12.966294 18.037861 0.387758
-4.542995 6.322246 -1.797359
-8.709870 12.125530 0.782423
-5.454212 7.593134 -1.817265
-6.050934 8.426969 0.907640
-5.449515 7.592187 -1.480183
-5.471514 7.625644 1.152397
-5.504893 7.674992 -1.159709
-5.465107 7.622330 1.485502
-5.449484 7.600540 -0.818218
-5.470275 7.632352 1.825279
-5.453163 7.611281 -0.490702
-5.471442 7.639610 2.169428
-5.473452 7.645234 -0.164122
-5.471974 7.645989 2.519345
-3.811607 5.339729 -1.757899
-12.955524 18.156260 0.389328
-4.525424 6.344413 -1.799158
-5.613289 7.872442 0.506717
-5.419697 7.600936 -1.814594
-6.022639 8.449660 0.907814
-5.400054 7.578989 -1.473926
-5.428741 7.622059 1.148984
-5.448136 7.652115 -1.153372
-5.433884 7.634925 1.484250
-5.410209 7.601661 -0.816301
-5.437912 7.643401 1.823371
-5.414985 7.613996 -0.489655
-5.423286 7.628487 2.160880
-5.421246 7.628435 -0.163355
-5.436299 7.652446 2.515203
-3.791826 5.351427 -1.757381
-12.959101 18.296022 0.391353
-4.491991 6.344265 -1.794659
-5.585773 7.891989 0.506717
-5.379519 7.600579 -1.810014
-5.996558 8.475513 0.908337
-5.355316 7.571986 -1.468920
-5.389495 7.623134 1.146303
-5.405350 7.648392 -1.149959
-5.398082 7.640937 1.481747
-5.372147 7.604227 -0.814558
-5.390811 7.633471 1.816502
-5.372249 7.610006 -0.488190
-5.397751 7.648962 2.161330
-5.378448 7.624435 -0.162866
-5.392857 7.647693 2.507439
-3.776459 5.369370 -1.758934
-12.957267 18.429478 0.393238
-4.467578 6.356717 -1.793760
-5.535230 7.878754 0.504623
-5.348443 7.612885 -1.808488
-5.947472 8.468675 0.905374
-5.315234 7.571231 -1.465165
-5.345749 7.617526 1.142647
-5.358100 7.637960 -1.145572
-5.366843 7.653264 1.480496
-5.331845 7.603356 -0.812466
-5.347227 7.628129 1.810778
-5.329604 7.605814 -0.486724
-5.349777 7.637430 2.152782
-5.351799 7.643164 -0.162866
-5.357264 7.653811 2.503298
-3.757692 5.382520 -1.758934
-12.967238 18.581190 0.395506
-4.444245 6.370676 -1.793310
-5.491697 7.875093 0.503158
-5.306113 7.608964 -1.803145
-5.909896 8.477942 0.904154
-5.284254 7.583258 -1.463914
-5.310048 7.623111 1.140697
-5.338210 7.666392 -1.147034
-5.319780 7.642768 1.474864
-5.295026 7.607206 -0.810897
-5.312720 7.635467 1.808106
-5.296182 7.614533 -0.486096
-5.306396 7.632059 2.146033
-5.298840 7.624030 -0.162063
-5.315084 7.650251 2.496051
-3.732280 5.386076 -1.755828
-12.968346 18.721680 0.397531
-4.419763 6.382946 -1.792410
-5.456220 7.882718 0.502425
-5.266114 7.608068 -1.798566
-5.864398 8.475581 0.901713
-5.246511 7.585412 -1.460785
-5.275505 7.630168 1.138991
-5.330605 7.712740 -1.151178
-5.282962 7.646667 1.472049
-5.249185 7.597777 -0.807934
-5.275995 7.639425 1.804672
-5.253686 7.609962 -0.484631
-5.268652 7.634498 2.141534
-5.260841 7.626019 -0.161714
-5.274092 7.648082 2.489321
-3.715644 5.402256 -1.756864
-12.965231 18.857462 0.399451
-4.395246 6.395123 -1.791510
-5.418736 7.884310 0.501379
-5.231740 7.615078 -1.795894
-5.841546 8.505854 0.902759
-5.207705 7.585764 -1.457344
-5.236481 7.630534 1.136310
-5.223924 7.615077 -1.133873
-5.249759 7.652737 1.469859
-5.204605 7.589762 -0.805145
-5.237083 7.639984 1.800474
-5.215799 7.611781 -0.483584
-5.234263 7.641587 2.138385
-5.220831 7.621977 -0.161260
-5.233419 7.643215 2.482075
-3.690230 5.405619 -1.753758
-12.963503 18.989538 0.401336
-4.372918 6.408053 -1.791060
-5.381052 7.888326 0.500436
-5.200704 7.626804 -1.794368
-5.885882 8.634851 0.914264
-5.171397 7.586669 -1.454215
-5.191030 7.618328 1.131922
-5.271277 7.739001 -1.149715
-5.217453 7.662853 1.468294
-5.171355 7.598000 -0.804099
-5.200675 7.641078 1.796658
-5.174801 7.605916 -0.482119
-5.193552 7.636342 2.132086
-5.186325 7.628578 -0.161016
-5.198021 7.648653 2.477934
-3.674453 5.421024 -1.754793
-12.963322 19.132343 0.403395
-4.341778 6.410372 -1.787461
-5.337810 7.883906 0.498971
-5.161077 7.622873 -1.789407
-5.892951 8.707120 0.919842
-5.133811 7.588315 -1.451086
-5.152171 7.618315 1.129241
-5.224222 7.727752 -1.145328
-5.184034 7.671200 1.466417
-5.134973 7.598600 -0.802356
-5.150890 7.625022 1.788644
-5.139276 7.610692 -0.481281
-5.155960 7.638273 2.127587
-5.147359 7.628402 -0.160632
-5.159406 7.649135 2.472239
-3.652271 5.429009 -1.753240
-12.967871 19.283682 0.405629
-4.318290 6.423870 -1.787011
-5.292432 7.875968 0.497296
-5.118010 7.616401 -1.783683
-5.819193 8.663136 0.913044
-5.097383 7.591427 -1.448270
-5.121122 7.629659 1.128266
-5.179516 7.719567 -1.141428
-5.147324 7.674483 1.463601
-5.108419 7.616477 -0.802356
-5.124244 7.642955 1.788644
-5.097113 7.605356 -0.479816
-5.120591 7.643272 2.123988
-5.096221 7.609769 -0.159864
-5.120855 7.649438 2.466546
-3.627935 5.433692 -1.750652
-12.969310 19.431950 0.407793
-4.295841 6.438904 -1.787011
-5.259368 7.886085 0.496773
-5.076144 7.611351 -1.778340
-5.740287 8.610456 0.905374
-5.059900 7.592736 -1.445142
-5.079049 7.624361 1.124854
-5.148135 7.730992 -1.140453
-5.102991 7.666092 1.458595
-5.061931 7.604408 -0.799218
-5.076868 7.629742 1.781393
-5.056152 7.601485 -0.478455
-5.079854 7.640002 2.118139
-5.055236 7.605863 -0.159410
-5.077014 7.641522 2.458263
-3.607878 5.444712 -1.750134
-11.543121 17.426535 0.364860
-4.275489 6.457110 -1.787911
-5.218578 7.884411 0.495517
-5.043040 7.619203 -1.776050
-5.689309 8.598869 0.902062
-5.013749 7.580696 -1.439510
-5.041457 7.625483 1.122417
-5.103607 7.722417 -1.136554
-5.069666 7.673970 1.456718
-5.021077 7.600420 -0.796952
-5.029650 7.616288 1.774142
-5.025188 7.612420 -0.478037
-5.047786 7.649556 2.115890
-5.022050 7.613446 -0.159201
-5.042868 7.647908 2.454640
-3.588851 5.457273 -1.750134
-11.526162 17.533558 0.366256
-4.242223 6.455709 -1.783412
-5.193219 7.905917 0.495726
-5.007793 7.623632 -1.772997
-5.655981 8.613679 0.901539
-4.974247 7.578335 -1.435756
-5.002832 7.624776 1.119736
-5.054847 7.706985 -1.131679
-5.032015 7.675101 1.453589
-4.991237 7.612904 -0.796429
-4.990121 7.614093 1.769563
-4.982169 7.604853 -0.476467
-5.002902 7.639417 2.108241
-4.984493 7.614198 -0.158852
-5.005564 7.649298 2.449464
-3.567667 5.466532 -1.749099
-11.508599 17.640675 0.367652
-4.219661 6.470479 -1.783412
-5.151410 7.902247 0.494365
-4.972571 7.627910 -1.769944
-5.786864 8.880420 0.927337
-4.939140 7.582409 -1.433253
-4.963186 7.622232 1.116811
-4.990010 7.666355 -1.123148
-4.992267 7.672750 1.449835
-4.951594 7.610240 -0.794337
-4.959229 7.624884 1.768036
-4.944704 7.605455 -0.475420
-4.968772 7.645394 2.105092
-4.949167 7.618137 -0.158573
-4.972518 7.657005 2.446358
-3.552765 5.485437 -1.751170
-11.511066 17.779783 0.369712
-4.194933 6.481896 -1.782512
-8.711429 13.465814 0.840516
-4.934186 7.627088 -1.765747
-5.899728 9.123078 0.950520
-4.906209 7.589650 -1.431376
-4.927932 7.626172 1.114861
-4.969685 7.693731 -1.124610
-4.959026 7.680171 1.447958
-4.915275 7.612412 -0.792769
-4.924067 7.628951 1.764983
-4.910548 7.610920 -0.474687
-4.932550 7.647952 2.101043
-4.910627 7.616878 -0.158189
-4.934249 7.656452 2.440664
-3.525241 5.484804 -1.747029
-11.507298 17.910707 0.371597
-4.173333 6.498140 -1.782962
-8.717246 13.578494 0.845644
-4.901171 7.634351 -1.763457
-5.599902 8.726095 0.907117
-4.871152 7.593430 -1.428873
-4.888420 7.623275 1.111936
-4.895659 7.637498 -1.113886
-4.915133 7.670824 1.442952
-4.871472 7.602684 -0.789980
-4.887876 7.631216 1.761549
-4.875333 7.614560 -0.473850
-4.889014 7.638863 2.093844
-4.873231 7.617129 -0.157840
-4.889798 7.645963 2.431864
-3.503994 5.493819 -1.745993
-11.508138 18.050245 0.373656
-4.149578 6.511024 -1.782512
-8.726910 13.693228 0.850983
-4.867106 7.639824 -1.760786
-5.538373 8.696851 0.902062
-4.835071 7.595387 -1.426057
-4.852191 7.625219 1.109742
-4.894542 7.694739 -1.119736
-4.883309 7.677080 1.441074
-4.828870 7.594421 -0.787365
-4.847519 7.626690 1.756588
-4.834801 7.609615 -0.472489
-4.852919 7.641077 2.089795
-4.832937 7.609614 -0.157351
-4.853027 7.644195 2.426170
-3.484795 5.506018 -1.745993
-11.499543 18.169416 0.375331
-4.118588 6.509926 -1.778463
-8.722831 13.792814 0.855274
-4.830964 7.641832 -1.757351
-5.490954 8.689181 0.899273
-4.797195 7.591340 -1.422302
-4.810973 7.616095 1.106086
-4.837201 7.660574 -1.112423
-4.845939 7.677373 1.437946
-4.798076 7.604492 -0.786668
-4.809628 7.622800 1.752008
-4.797818 7.607025 -0.471338
-4.818201 7.642290 2.085746
-4.804210 7.623055 -0.157281
-4.819104 7.649647 2.422546
-3.468574 5.520814 -1.747029
-11.509437 18.326292 0.377740
-4.095838 6.524264 -1.778463
-8.708600 13.877316 0.858624
-4.799337 7.647833 -1.755061
-5.454696 8.695530 0.898053
-4.765419 7.599673 -1.420738
-4.780143 7.626112 1.105111
-4.853645 7.746380 -1.122417
-4.806526 7.674153 1.434191
-4.766489 7.610229 -0.785622
-4.770489 7.619572 1.747429
-4.757463 7.601716 -0.469977
-4.774957 7.632630 2.078548
-4.768031 7.624519 -0.156967
-4.779062 7.645126 2.415817
-3.446217 5.527969 -1.745476
-11.514144 18.476664 0.380009
-4.070976 6.535214 -1.777563
-7.507258 12.056217 0.744322
-4.753934 7.634540 -1.748192
-5.415889 8.700984 0.896658
-4.729467 7.601167 -1.417922
-4.746157 7.630951 1.103405
-4.795135 7.712699 -1.115105
-4.767195 7.670753 1.430437
-4.732531 7.614977 -0.784402
-4.734541 7.621169 1.743994
-4.720364 7.601307 -0.468930
-4.748283 7.649252 2.078548
-4.720302 7.607131 -0.156269
-4.747257 7.653552 2.413229
-3.419784 5.528466 -1.741852
-11.517933 18.627302 0.382278
-4.049165 6.551042 -1.778013
-7.475622 12.099341 0.745369
-4.722094 7.642737 -1.746284
-5.364542 8.685934 0.893172
-4.692530 7.600821 -1.414793
-4.709064 7.630580 1.100968
-4.773393 7.737840 -1.116323
-4.730023 7.670532 1.427308
-4.693374 7.611099 -0.782310
-4.700696 7.625951 1.741323
-4.683323 7.600736 -0.467883
-4.702137 7.634254 2.070000
-4.686378 7.611643 -0.156025
-4.706335 7.647045 2.405982
-3.395413 5.532136 -1.739264
-11.513498 18.766251 0.384302
-4.024237 6.561813 -1.777113
-7.453179 12.157713 0.747358
-4.687180 7.645783 -1.743231
-5.328987 8.696112 0.892300
-4.650494 7.591887 -1.410100
-4.678254 7.640198 1.099993
-4.727701 7.723977 -1.111936
-4.697035 7.676885 1.425431
-4.658460 7.613837 -0.780915
-4.657660 7.615515 1.735217
-4.653638 7.611924 -0.467569
-4.676477 7.652282 2.070450
-4.651439 7.614306 -0.155745
-4.667529 7.643642 2.399770
-3.376083 5.543954 -1.739264
-11.515501 18.917355 0.386571
-3.993202 6.562503 -1.773514
-7.433532 12.221194 0.749660
-4.654342 7.652032 -1.740941
-5.292387 8.704448 0.891255
-4.609600 7.584442 -1.405720
-4.638155 7.634428 1.096824
-4.692465 7.726860 -1.109986
-4.663032 7.681416 1.423241
-4.616344 7.604506 -0.778301
-4.619843 7.613266 1.731019
-4.617715 7.612754 -0.466627
-4.639632 7.651897 2.065950
-4.618614 7.620234 -0.155536
-4.635816 7.651627 2.397182
-3.356709 5.555706 -1.739264
-11.516599 19.068697 0.388840
-3.966243 6.569728 -1.771715
-7.419717 12.294950 0.752591
-4.622529 7.659829 -1.739033
-5.268147 8.733103 0.892300
-4.576977 7.590334 -1.403843
-4.600208 7.631870 1.094143
-4.647026 7.712587 -1.105599
-4.624981 7.679031 1.419799
-4.589773 7.620574 -0.778301
-4.590203 7.624299 1.729874
-4.580817 7.611713 -0.465581
-4.598827 7.644669 2.059652
-4.584775 7.624313 -0.155292
-4.605098 7.661137 2.395112
-3.339280 5.570704 -1.740299
-11.517807 19.221991 0.391143
-3.946288 6.588549 -1.773064
-7.420868 12.394461 0.757092
-4.581642 7.652337 -1.733691
-5.258096 8.785630 0.895787
-4.546396 7.599486 -1.402592
-4.564367 7.632548 1.091949
-4.577298 7.657197 -1.095362
-4.585987 7.674781 1.416045
-4.551900 7.617736 -0.776383
-4.557519 7.630164 1.727585
-4.548077 7.617367 -0.464953
-4.559133 7.638920 2.053803
-4.543787 7.616230 -0.154803
-4.565466 7.655595 2.388382
-3.309942 5.565722 -1.735123
-11.522162 19.382406 0.393587
-3.920281 6.597258 -1.771715
-7.429581 12.507864 0.762430
-4.544878 7.651403 -1.729874
-5.215187 8.783374 0.893695
-4.513793 7.605116 -1.400714
-4.530608 7.636483 1.090243
-4.570792 7.707279 -1.100237
-4.551112 7.677147 1.413542
-4.509027 7.606156 -0.773594
-4.523853 7.634202 1.724913
-4.512297 7.617732 -0.464011
-4.521520 7.636343 2.048854
-4.506990 7.614834 -0.154454
-4.525926 7.649871 2.381653
-3.285586 5.568921 -1.732535
-11.519443 19.532747 0.395821
-3.898219 6.612579 -1.772164
-7.424578 12.594370 0.766198
-4.510170 7.653689 -1.726821
-4.652595 7.898542 0.802007
-4.471185 7.593590 -1.395709
-4.494864 7.636853 1.088050
-4.546878 7.728320 -1.100968
-4.516611 7.676875 1.410726
-4.471341 7.602956 -0.771677
-4.482255 7.624559 1.719189
-4.478593 7.621383 -0.463278
-4.492861 7.648719 2.047954
-4.474622 7.617669 -0.154209
-4.489771 7.646513 2.375959
-3.267102 5.582024 -1.733052
-11.525319 19.691647 0.398264
-3.865443 6.606969 -1.767215
-7.436023 12.715036 0.771955
-4.475497 7.655828 -1.723769
-4.608914 7.887209 0.799218
-4.438004 7.594731 -1.393206
-4.453493 7.624293 1.084150
-4.490197 7.690212 -1.093412
-4.480826 7.677238 1.407910
-4.441760 7.613357 -0.771154
-4.449028 7.625816 1.716136
-4.440216 7.613762 -0.461917
-4.460604 7.651790 2.044805
-4.441965 7.622874 -0.154000
-4.457220 7.652123 2.372853
-3.251485 5.597838 -1.734605
-11.520776 19.842432 0.400498
-3.840402 6.617050 -1.766316
-7.423668 12.796197 0.775305
-4.444175 7.660437 -1.721479
-4.580736 7.899002 0.798869
-4.405523 7.599922 -1.391328
-4.418891 7.626050 1.082200
-4.488198 7.748785 -1.099505
-4.449053 7.684285 1.406346
-4.405509 7.609076 -0.769237
-4.415500 7.629403 1.713465
-4.402609 7.610201 -0.460766
-4.416308 7.636948 2.036707
-4.409323 7.627947 -0.153791
-4.424681 7.657600 2.369747
-3.229997 5.605806 -1.733570
-11.514314 19.991697 0.402697
-3.814362 6.625349 -1.764966
-4.531775 7.874637 0.476153
-4.405656 7.655486 -1.716899
-4.541211 7.894220 0.796778
-4.375028 7.608406 -1.390077
-4.384329 7.627662 1.080250
-4.459146 7.760961 -1.099018
-4.404492 7.668936 1.400714
-4.373958 7.615771 -0.768365
-4.376132 7.622637 1.708504
-4.368066 7.611662 -0.459928
-4.396410 7.664151 2.039856
-4.363771 7.610331 -0.153127
-4.396004 7.669645 2.368712
-3.203698 5.605307 -1.729947
-4.518465 7.908875 0.158991
-3.791213 6.638623 -1.764966
-4.507619 7.893089 0.476362
-4.364308 7.645242 -1.711175
-4.516592 7.915215 0.797301
-4.336699 7.603039 -1.386322
-4.353745 7.636020 1.079275
-4.420235 7.755781 -1.096093
-4.368279 7.664620 1.397273
-4.339456 7.617145 -0.766971
-4.342699 7.625923 1.705832
-4.334555 7.614712 -0.459196
-4.352281 7.648964 2.031758
-4.331586 7.612595 -0.152883
-4.346670 7.642199 2.355771
-3.185064 5.618137 -1.730464
-4.473473 7.890764 0.158328
-3.769179 6.651157 -1.764966
-7.433259 13.122210 0.790378
-4.333724 7.653597 -1.709649
-4.311303 7.617093 0.765750
-4.300760 7.598467 -1.382881
-4.321554 7.638322 1.077569
-4.396443 7.773854 -1.096580
-4.339551 7.676383 1.396647
-4.335386 7.672141 -0.770980
-4.303863 7.616355 1.700490
-4.307313 7.625568 -0.458986
-4.310605 7.634505 2.024110
-4.302040 7.622443 -0.152778
-4.310473 7.640501 2.350595
-3.166417 5.628668 -1.730464
-4.285161 7.620476 0.152604
-3.734479 6.643890 -1.759567
-4.303699 7.659698 0.460452
-4.299666 7.652522 -1.706214
-4.286018 7.631349 0.765750
-4.264539 7.596210 -1.379752
-4.284181 7.634318 1.074888
-4.357628 7.768376 -1.093655
-4.307900 7.682868 1.395083
-4.270946 7.616961 -0.764007
-4.264773 7.609066 1.695529
-4.263099 7.609192 -0.457102
-4.277266 7.637603 2.020960
-4.266616 7.621708 -0.152464
-4.277175 7.643699 2.346971
-3.142986 5.632937 -1.728394
-4.252692 7.624908 0.152394
-3.702723 6.641568 -1.755518
-4.248741 7.624078 0.457416
-4.266239 7.655477 -1.703543
-4.255477 7.639301 0.765053
-4.227424 7.592066 -1.376311
-4.249781 7.635351 1.072938
-4.315045 7.755784 -1.089756
-4.272414 7.682323 1.392267
-4.234645 7.614411 -0.762264
-4.236277 7.620475 1.694765
-4.228753 7.610060 -0.456265
-4.236383 7.626935 2.014212
-4.236101 7.629563 -0.152325
-4.245778 7.650137 2.344383
-3.121432 5.640494 -1.727358
-4.218305 7.625709 0.152115
-3.679518 6.654451 -1.755518
-4.221500 7.634631 0.457207
-4.227142 7.647986 -1.698582
-4.226856 7.650621 0.764704
-4.193259 7.592942 -1.373808
-4.219266 7.643187 1.071963
-4.282189 7.760373 -1.088293
-4.235464 7.675694 1.388512
-4.242684 7.691952 -0.768539
-4.203965 7.624901 1.692476
-4.196377 7.614280 -0.455637
-4.205975 7.634847 2.012412
-4.195341 7.615543 -0.151766
-4.215728 7.655714 2.341795
-3.098007 5.644581 -1.725288
-4.188184 7.630889 0.151941
-3.660241 6.671743 -1.756868
-4.192906 7.645817 0.456998
-4.194759 7.652365 -1.696292
-4.185761 7.639121 0.762090
-4.160461 7.592948 -1.371305
-4.180549 7.632761 1.068550
-4.254527 7.771047 -1.087806
-4.199159 7.673103 1.385384
-4.162263 7.608829 -0.758778
-4.171121 7.625020 1.689423
-4.161520 7.610631 -0.454590
-4.175023 7.638494 2.009713
-4.164898 7.623122 -0.151627
-4.174162 7.643256 2.333513
-3.075575 5.648038 -1.723217
-4.146228 7.617360 0.151382
-3.635069 6.681054 -1.755968
-4.154738 7.639353 0.455742
-4.165606 7.659335 -1.694765
-4.153746 7.640706 0.760870
-4.130160 7.600481 -1.370053
-4.147245 7.635098 1.066844
-4.223584 7.778872 -1.086831
-4.162929 7.670352 1.382255
-4.144227 7.639073 -0.760347
-4.136987 7.625729 1.686370
-4.131121 7.618087 -0.454171
-4.141836 7.641028 2.006563
-4.129688 7.621791 -0.151312
-4.141018 7.645888 2.329889
-3.054854 5.659272 -1.723217
-4.117711 7.628268 0.151312
-3.605250 6.681697 -1.752819
-4.119515 7.637988 0.454800
-4.131917 7.664183 -1.692476
-4.119099 7.643600 0.759649
-4.091972 7.596436 -1.366612
-4.104567 7.619816 1.062701
-4.190760 7.783081 -1.085368
-4.130513 7.674399 1.380378
-4.127918 7.672794 -0.762264
-4.104362 7.632194 1.684462
-4.088043 7.605030 -0.452497
-4.106421 7.642426 2.002964
-4.094537 7.620307 -0.150998
-4.107907 7.648382 2.326266
-3.033256 5.666495 -1.722182
-4.085005 7.634494 0.151138
-3.577058 6.687993 -1.751019
-4.080581 7.629426 0.453439
-4.098657 7.666440 -1.689804
-4.089573 7.652661 0.759126
-4.060775 7.601963 -1.365047
-4.070999 7.624304 1.061238
-4.152856 7.780878 -1.082931
-4.098116 7.678316 1.378501
-4.060785 7.611568 -0.754769
-4.067533 7.627421 1.680264
-4.055833 7.608679 -0.451869
-4.067808 7.634354 1.997115
-4.065093 7.629258 -0.150894
-4.073008 7.647329 2.321607
-3.015270 5.680461 -1.723217
-4.054980 7.639167 0.150963
-3.554861 6.699818 -1.751019
-4.050183 7.636565 0.453020
-4.058079 7.654681 -1.684080
-4.057240 7.656326 0.758081
-4.032771 7.610150 -1.364109
-4.041978 7.630744 1.060263
-4.120531 7.782324 -1.081225
-4.062051 7.675114 1.375372
-4.026739 7.611606 -0.753374
-4.037628 7.632189 1.678356
-4.024979 7.611493 -0.451241
-4.041560 7.646078 1.996666
-4.028162 7.623952 -0.150510
-4.051704 7.671749 2.324713
-2.990115 5.678464 -1.719594
-4.019908 7.637348 0.150649
-3.527822 6.705288 -1.749219
-4.016063 7.636516 0.452183
-4.023533 7.650722 -1.680264
-4.016070 7.639758 0.755117
-3.996991 7.606696 -1.360980
-4.012546 7.639535 1.059532
-4.088728 7.787871 -1.080006
-4.028807 7.677004 1.373182
-3.992215 7.607276 -0.751631
-4.020080 7.663623 1.682172
-3.989108 7.607808 -0.450194
-4.016653 7.663592 1.997565
-3.992243 7.620254 -0.150161
-4.013247 7.663599 2.317983
-2.967594 5.683729 -1.718041
-3.984895 7.635378 0.150335
-3.502593 6.714106 -1.748320
-3.983842 7.639862 0.451555
-3.995897 7.662978 -1.679883
-3.980166 7.636062 0.753374
-3.963114 7.606584 -1.358477
-3.991358 7.664058 1.060995
-4.045017 7.770403 -1.075619
-4.007457 7.701532 1.375059
-3.957361 7.605258 -0.750062
-3.969752 7.632323 1.672250
-3.962529 7.621685 -0.450194
-3.973704 7.646440 1.989467
-3.971152 7.644789 -0.150370
-3.973120 7.651843 2.310219
-2.948625 5.695768 -1.718559
-3.952702 7.638587 0.150126
-3.470183 6.708981 -1.743821
-3.953899 7.644159 0.451031
