# This PCD file was generated using the MATLAB® pcwrite function
# from Computer Vision Toolbox®.
# .PCD v.7 - Point Cloud Data file format
VERSION .7
FIELDS x y z
SIZE 4 4 4
TYPE F F F
COUNT 1 1 1
WIDTH 1730
HEIGHT 1
VIEWPOINT 0 0 0 1 0 0 0
POINTS 1730
DATA ascii
3.392577 6.112821 -1.358942
4.303799 7.751493 0.775686
4.064083 7.316735 -1.325626
4.307123 7.751103 1.088781
4.363453 7.849247 -1.102674
4.306977 7.744472 1.403530
4.312114 7.753709 -0.776209
4.328660 7.780264 1.730638
4.314682 7.751955 -0.464953
4.314522 7.748486 2.047504
4.314868 7.745927 -0.154768
4.324011 7.759154 2.380100
2.827417 5.059069 -1.552914
4.332885 7.749612 0.154977
2.955707 5.284280 -1.397846
4.333233 7.743889 0.465057
3.409100 6.092376 -1.357034
4.340561 7.753808 0.777429
4.091532 7.305952 -1.326252
4.343854 7.753341 1.091218
4.426735 7.898041 -1.111692
4.345579 7.750065 1.407285
4.376184 7.804647 -0.782833
4.363477 7.778803 1.733691
4.344646 7.742073 -0.465267
4.352993 7.753768 2.052903
4.349717 7.744765 -0.155047
4.357691 7.755803 2.383723
2.847905 5.054217 -1.554467
4.361876 7.737924 0.155047
2.967431 5.262051 -1.394697
4.373980 7.753068 0.466523
3.431312 6.082148 -1.357415
4.375437 7.752490 0.778824
4.110205 7.279586 -1.324062
4.384562 7.762327 1.094630
4.456233 7.885996 -1.112180
4.379405 7.746890 1.409475
4.373981 7.737295 -0.777604
4.395435 7.772070 1.735599
4.379514 7.740766 -0.466104
4.391546 7.758881 2.058302
4.382635 7.739976 -0.155257
4.395214 7.759033 2.389417
2.860760 5.035845 -1.551879
4.399726 7.741776 0.155431
2.976151 5.234719 -1.390198
4.411880 7.756848 0.467674
3.448640 6.063306 -1.355889
4.414293 7.757949 0.780915
4.128752 7.253177 -1.321871
4.415563 7.753874 1.095605
4.493557 7.887642 -1.114617
4.418159 7.752149 1.413229
4.415762 7.747942 -0.780218
4.431292 7.772028 1.739033
4.410464 7.732371 -0.466523
4.424399 7.753659 2.061002
4.417559 7.738523 -0.155536
4.430892 7.758743 2.394076
2.881198 5.030860 -1.553432
4.438655 7.747190 0.155850
2.993437 5.222607 -1.389748
4.442898 7.748334 0.468093
3.467827 6.047827 -1.355126
4.452255 7.761504 0.782833
4.154047 7.238719 -1.321871
4.451492 7.753911 1.097799
4.523042 7.875350 -1.115105
4.457004 7.757232 1.416984
4.449731 7.744574 -0.781438
4.468173 7.773537 1.742849
4.443404 7.727316 -0.467151
4.457270 7.748301 2.063701
4.453516 7.738657 -0.155850
4.468553 7.761644 2.399770
2.896811 5.017425 -1.552397
4.476666 7.750700 0.156234
3.013598 5.215501 -1.390647
4.479916 7.750069 0.469140
3.484988 6.028886 -1.353599
4.493285 7.770060 0.785273
4.173353 7.213917 -1.319994
4.490465 7.758940 1.100724
4.564432 7.883563 -1.118517
4.488013 7.748465 1.418235
4.491715 7.754856 -0.784053
4.516936 7.795262 1.751245
4.478365 7.725581 -0.467988
4.488198 7.739438 2.065500
4.486524 7.733441 -0.156059
4.508227 7.767719 2.406500
2.901674 4.985578 -1.545667
4.511746 7.748851 0.156513
3.029825 5.201581 -1.389748
4.516651 7.754153 0.470291
3.502057 6.009900 -1.352073
4.520375 7.754332 0.785273
4.197516 7.197598 -1.319681
4.529524 7.763796 1.103649
4.605926 7.891587 -1.121929
4.521648 7.747189 1.420738
4.524786 7.749452 -0.785099
4.553033 7.794703 1.754680
4.521423 7.737495 -0.469663
4.528958 7.747277 2.071799
4.518202 7.728878 -0.156269
4.538836 7.761065 2.409088
2.921015 4.978750 -1.546703
4.549562 7.754542 0.156932
3.050016 5.196548 -1.391097
4.555820 7.759010 0.471547
3.524009 5.999331 -1.352454
4.554483 7.750528 0.786493
4.215355 7.173421 -1.317804
4.567319 7.769267 1.106574
4.638111 7.886537 -1.123392
4.558682 7.748383 1.423867
4.557872 7.743913 -0.786145
4.585825 7.791407 1.757351
4.559219 7.743110 -0.470919
4.568469 7.755724 2.078098
4.563426 7.744071 -0.156897
4.581595 7.771803 2.417370
2.941441 4.975689 -1.548773
4.583731 7.750662 0.157176
3.060197 5.172453 -1.387498
4.598138 7.768840 0.473117
3.544883 5.989302 -1.352836
4.643099 7.841675 0.797301
4.236341 7.151865 -1.316553
4.722931 7.970164 1.137529
4.667638 7.873711 -1.123879
4.597791 7.752812 1.427621
4.594705 7.747608 -0.788062
4.622009 7.790550 1.760786
4.592338 7.737453 -0.471547
4.605462 7.756487 2.082597
4.600640 7.745288 -0.157246
4.613632 7.764065 2.419958
2.962746 4.972030 -1.550844
4.620996 7.751792 0.157525
3.080231 5.165086 -1.388398
4.760304 7.979150 0.486934
3.563759 5.973519 -1.352073
4.784803 8.017035 0.816824
4.262294 7.138729 -1.316865
6.170752 10.331025 1.477544
4.698148 7.862484 -1.124610
4.636990 7.757061 1.431376
4.635013 7.753753 -0.790328
4.658246 7.789531 1.764220
4.628546 7.736802 -0.472489
4.638515 7.750395 2.085296
4.652305 7.770358 -0.158084
4.650631 7.764488 2.425135
2.976106 4.955033 -1.548773
4.661413 7.757898 0.157979
3.104265 5.164325 -1.391097
4.809740 7.998430 0.489132
3.574470 5.944219 -1.348256
8.942526 14.865234 1.517730
4.287185 7.123808 -1.316865
6.178105 10.261805 1.470719
4.724538 7.844337 -1.124367
4.666080 7.744211 1.432001
4.675419 7.759711 -0.792594
4.691487 7.783313 1.766510
4.676150 7.754807 -0.474583
4.677622 7.754179 2.090695
4.676298 7.748935 -0.157979
4.686690 7.763093 2.429793
2.986382 4.933045 -1.545150
4.699858 7.760395 0.158363
3.127323 5.161789 -1.393347
4.854196 8.008919 0.490807
3.593163 5.928346 -1.347493
8.932377 14.731708 1.507271
4.307930 7.102044 -1.315614
6.225218 10.258842 1.473400
4.774552 7.865130 -1.129729
4.701285 7.741384 1.434504
4.710749 7.756967 -0.793989
4.732900 7.790378 1.771852
4.703189 7.738438 -0.474583
4.712758 7.751126 2.094294
4.711634 7.746231 -0.158258
4.717779 7.753285 2.431864
3.005595 4.925890 -1.546185
4.723795 7.738821 0.158258
3.155477 5.167474 -1.397846
4.895657 8.014084 0.492167
3.612811 5.914093 -1.347112
8.975438 14.686835 1.505877
4.329602 7.081907 -1.314675
6.271346 10.253986 1.475838
4.805087 7.853494 -1.130460
4.742715 7.748516 1.438884
4.744036 7.750673 -0.795035
4.766214 7.783856 1.774142
4.747910 7.750925 -0.476362
4.756079 7.761211 2.101493
4.751184 7.750196 -0.158677
4.758951 7.759826 2.439111
3.027833 4.923595 -1.548773
4.762308 7.741018 0.158642
3.174516 5.158088 -1.398296
4.938263 8.020755 0.493633
3.635493 5.904788 -1.347875
9.649399 15.666484 1.609767
4.347041 7.054979 -1.312485
7.562275 12.268298 1.769543
4.849144 7.863707 -1.134360
4.781140 7.750407 1.442326
4.785705 7.757807 -0.797475
4.803669 7.783879 1.777958
4.778086 7.739402 -0.476676
4.794401 7.762804 2.106442
4.787671 7.748874 -0.158991
4.797184 7.761241 2.444805
3.043980 4.911356 -1.548256
4.804050 7.748142 0.159131
3.203802 5.165192 -1.403245
4.967281 8.005166 0.493737
3.657116 5.893731 -1.348256
9.661991 15.564998 1.602794
4.371643 7.039761 -1.312485
7.573631 12.191238 1.762231
4.887041 7.863594 -1.136797
4.822769 7.757155 1.446706
4.823278 7.757974 -0.799218
4.841181 7.783732 1.781775
4.813512 7.736243 -0.477513
4.823530 7.749329 2.107341
4.819978 7.740601 -0.159166
4.834459 7.760848 2.449981
3.052919 4.887592 -1.544114
4.839547 7.744891 0.159410
3.228009 5.163892 -1.405944
5.006842 8.006408 0.494889
3.668297 5.865949 -1.344822
9.663434 15.446718 1.594079
4.389900 7.014412 -1.310608
7.582423 12.110891 1.754431
4.932375 7.875086 -1.140941
4.852966 7.745295 1.447645
4.861968 7.759661 -0.801136
4.889171 7.800059 1.789407
4.856405 7.744774 -0.479083
4.865051 7.755555 2.113640
4.851213 7.730507 -0.159306
4.872821 7.761922 2.455675
3.058641 4.858921 -1.538420
4.886793 7.760105 0.160073
3.257442 5.170729 -1.410893
5.056059 8.022674 0.496982
3.686659 5.849785 -1.344059
9.666280 15.332000 1.585711
4.418575 7.005728 -1.311860
7.581224 12.015515 1.744438
4.969365 7.872932 -1.143134
4.893682 7.750021 1.451712
4.890086 7.744328 -0.801310
4.924758 7.796223 1.792460
4.893007 7.742974 -0.480025
4.900423 7.751704 2.117239
4.887791 7.728735 -0.159620
4.901954 7.748129 2.456711
3.081792 4.858004 -1.541526
4.912782 7.741310 0.160039
3.283828 5.172488 -1.414492
5.096879 8.025208 0.498238
3.706002 5.835225 -1.343677
9.657773 15.200625 1.575601
4.428170 6.966921 -1.307480
7.578382 11.918623 1.734201
5.015996 7.885685 -1.147522
4.931311 7.749556 1.454841
4.922439 7.735614 -0.802181
4.964591 7.798859 1.797039
4.936100 7.751116 -0.481596
4.943159 7.759203 2.123988
4.931933 7.738609 -0.160178
4.944542 7.755408 2.464475
3.092489 4.837449 -1.538420
4.953782 7.746013 0.160492
3.301860 5.160995 -1.414492
5.136379 8.028453 0.499494
3.726350 5.822252 -1.343677
9.678549 15.116482 1.570372
4.454588 6.954751 -1.308105
7.574962 11.821898 1.723964
5.062777 7.898210 -1.151909
4.970839 7.754781 1.458908
4.959085 7.733482 -0.803750
4.989666 7.778176 1.796276
4.962049 7.732156 -0.481491
4.976525 7.751743 2.126687
4.973772 7.747454 -0.160702
4.984850 7.761724 2.471722
3.116678 4.837994 -1.542044
4.992435 7.749717 0.160911
3.327404 5.163122 -1.418091
5.167621 8.015509 0.499808
3.743460 5.804259 -1.342532
9.688046 15.015641 1.563400
4.477628 6.939939 -1.308105
7.579673 11.743342 1.716164
5.102941 7.903056 -1.155078
5.008595 7.753977 1.462037
5.000110 7.737878 -0.806016
5.034611 7.791270 1.803145
5.005013 7.742494 -0.483166
5.010671 7.748288 2.130286
5.015993 7.753549 -0.161190
5.023461 7.762115 2.477416
3.131652 4.826012 -1.541526
5.037965 7.760757 0.161505
3.351775 5.161281 -1.420791
5.204272 8.010821 0.500646
3.755196 5.780291 -1.339861
9.731270 14.973410 1.562354
4.495368 6.914329 -1.306228
7.583817 11.660235 1.707877
5.139152 7.898509 -1.157028
5.041021 7.744723 1.463601
5.035526 7.736281 -0.807585
5.072491 7.790098 1.806961
5.043999 7.743386 -0.484317
5.048328 7.747076 2.134786
5.050673 7.747718 -0.161435
5.067408 7.770424 2.485698
3.136850 4.797265 -1.535832
5.073784 7.756511 0.161784
3.377239 5.160964 -1.423940
5.249708 8.019341 0.502321
3.771051 5.760576 -1.338334
9.816227 14.989349 1.567583
4.515144 6.891986 -1.304976
7.589656 11.580561 1.700078
5.189550 7.915382 -1.162146
5.081023 7.746901 1.467355
5.070148 7.730320 -0.808805
5.114729 7.795326 1.812304
5.085244 7.747439 -0.485678
5.089243 7.750584 2.140634
5.087567 7.745085 -0.161749
5.098743 7.759148 2.487769
3.150389 4.781445 -1.534279
5.109630 7.752110 0.162063
3.403815 5.162160 -1.427539
5.288668 8.017638 0.503367
3.793299 5.750654 -1.339098
9.877266 14.968300 1.568978
4.532643 6.866293 -1.303099
7.595031 11.500987 1.692278
5.229183 7.915440 -1.164827
5.122194 7.750540 1.471423
5.114679 7.739169 -0.811594
5.146242 7.783975 1.813830
5.124374 7.747966 -0.486829
5.128098 7.750648 2.145583
5.126715 7.745620 -0.162133
5.136461 7.757411 2.492945
3.173470 4.780077 -1.537385
5.144406 7.745886 0.162307
3.420737 5.148623 -1.427089
5.330993 8.020754 0.504728
3.811175 5.734109 -1.338334
4.556585 6.850428 -1.303099
7.586742 11.401690 1.681553
5.268883 7.915314 -1.167508
5.164544 7.755634 1.475803
5.151599 7.736195 -0.813163
5.192972 7.795374 1.820700
5.159143 7.741664 -0.487562
5.174576 7.761887 2.153681
5.171471 7.754296 -0.162691
5.180664 7.765145 2.501227
3.185839 4.762548 -1.535315
5.181420 7.742840 0.162622
3.445191 5.146368 -1.429789
5.365338 8.014650 0.505461
3.831169 5.720769 -1.338334
4.572770 6.822996 -1.300909
7.591124 11.322373 1.673754
5.310858 7.918305 -1.170677
5.201240 7.754869 1.478932
5.190781 7.736365 -0.815080
5.231094 7.793500 1.824516
5.192818 7.733556 -0.488190
5.205984 7.750249 2.155481
5.204960 7.748725 -0.162936
5.223628 7.773577 2.509510
3.202443 4.751399 -1.535315
5.224948 7.752148 0.163180
3.477491 5.157535 -1.436087
5.407802 8.017397 0.506821
3.846719 5.700854 -1.336808
4.596478 6.809431 -1.301222
7.597521 11.251077 1.666929
5.348193 7.917103 -1.173114
5.237124 7.749761 1.481435
5.233379 7.741306 -0.817521
5.267904 7.792376 1.828332
5.234098 7.739458 -0.489655
5.242578 7.749082 2.159980
5.246550 7.752037 -0.163389
5.263726 7.774492 2.515721
3.214928 4.735957 -1.533762
5.268829 7.758675 0.163704
3.502045 5.155035 -1.438787
5.450075 8.022549 0.508287
3.861190 5.681571 -1.335281
4.614666 6.785176 -1.299658
7.598780 11.168687 1.658642
5.384734 7.911513 -1.175064
5.275020 7.750315 1.484876
5.265752 7.733788 -0.818567
5.319385 7.809638 1.836727
5.279074 7.747550 -0.491330
5.284964 7.753276 2.166279
5.284619 7.752770 -0.163773
5.294919 7.764976 2.518309
3.230351 4.723111 -1.533244
5.296790 7.744461 0.163773
3.532325 5.162694 -1.444186
5.490448 8.021608 0.509438
3.878782 5.664817 -1.334518
4.632675 6.763319 -1.298406
7.602110 11.094302 1.651330
5.428900 7.919809 -1.178964
5.315449 7.751403 1.488631
5.302854 7.730151 -0.820136
5.346364 7.793576 1.837109
5.317170 7.748114 -0.492481
5.328291 7.761415 2.173477
5.324096 7.752412 -0.164157
5.335121 7.765553 2.524521
3.248186 4.715555 -1.534279
5.340813 7.750622 0.164297
3.553641 5.155147 -1.445535
5.538828 8.031989 0.511322
3.895315 5.648692 -1.333755
9.663000 14.007307 1.488794
4.651766 6.740604 -1.297155
7.597937 11.005620 1.642068
5.459898 7.905709 -1.179695
5.362683 7.762056 1.494262
5.346798 7.736177 -0.822750
5.385816 7.792631 1.841307
5.355545 7.745933 -0.493528
5.371977 7.766810 2.180226
5.365919 7.755157 -0.164611
5.378689 7.770708 2.532286
3.261040 4.697271 -1.532209
5.383794 7.754932 0.164786
3.583844 5.160317 -1.450484
5.573667 8.022449 0.511950
3.912630 5.629541 -1.332610
9.668777 13.906364 1.481822
4.674186 6.720264 -1.296529
7.603438 10.931768 1.634999
5.488589 7.888235 -1.179939
5.401032 7.759501 1.497391
5.388573 7.738720 -0.825016
5.427804 7.792170 1.845886
5.389606 7.734446 -0.494051
5.407096 7.756660 2.182925
5.405537 7.754423 -0.164995
5.419036 7.770904 2.538497
3.276311 4.684275 -1.531691
5.421351 7.748256 0.165065
3.613907 5.163113 -1.454983
5.615382 8.022577 0.513206
3.924376 5.604591 -1.329939
9.673815 13.810527 1.475198
4.698748 6.705526 -1.296842
7.603571 10.846936 1.626468
5.534563 7.892445 -1.183595
5.437157 7.753541 1.499894
5.430427 7.741069 -0.827282
5.466251 7.789245 1.849702
5.440673 7.749912 -0.496250
5.446458 7.755281 2.187874
5.440616 7.746963 -0.165239
5.460568 7.772489 2.545227
3.284852 4.661757 -1.528068
5.465447 7.756389 0.165623
3.642235 5.167028 -1.459482
5.657166 8.022513 0.514463
3.937124 5.581234 -1.327649
9.673719 13.708301 1.467877
4.720957 6.689909 -1.296842
7.609736 10.779496 1.620131
5.573299 7.891885 -1.186276
5.473305 7.747422 1.502397
5.471216 7.741590 -0.829374
5.507916 7.793520 1.855045
5.482480 7.754663 -0.497715
5.487897 7.759454 2.194173
5.483796 7.750777 -0.165728
5.497709 7.767573 2.549885
3.298055 4.647687 -1.527032
5.499436 7.747046 0.165833
3.673790 5.173348 -1.464881
5.711491 8.042792 0.516975
3.955612 5.568146 -1.327649
9.675271 13.614429 1.461253
4.732836 6.657288 -1.293713
7.610499 10.701102 1.612332
5.630734 7.914435 -1.192613
5.517291 7.754982 1.507403
5.502632 7.731521 -0.830246
5.541917 7.783843 1.857335
5.518786 7.748491 -0.498552
5.528521 7.759294 2.199572
5.516429 7.742322 -0.165937
5.533531 7.763456 2.554544
3.316507 4.639290 -1.528068
5.536724 7.745035 0.166182
3.692060 5.162722 -1.465331
5.755797 8.045548 0.518440
3.971596 5.549515 -1.326504
9.676345 13.515770 1.454281
4.752589 6.638343 -1.293087
7.606643 10.620936 1.604044
5.673133 7.918313 -1.196026
5.560441 7.758152 1.511783
5.544677 7.733316 -0.832512
5.583714 7.787761 1.862677
5.553762 7.743134 -0.499390
5.571265 7.764667 2.206320
5.564408 7.752262 -0.166566
5.574116 7.762925 2.560756
3.334132 4.631401 -1.529103
5.580084 7.748380 0.166670
3.718032 5.160872 -1.468480
5.788520 8.031888 0.518859
3.992274 5.539499 -1.327267
9.681486 13.428664 1.448354
4.772264 6.616907 -1.292149
7.612314 10.550852 1.597463
5.699579 7.896851 -1.195782
5.605987 7.764322 1.516789
5.590306 7.739757 -0.835301
5.638454 7.806418 1.871836
5.590117 7.736650 -0.500227
5.606324 7.756227 2.209469
5.605498 7.752235 -0.166985
5.617033 7.765334 2.568003
3.347680 4.614460 -1.527550
5.623539 7.751514 0.167159
3.742891 5.157325 -1.471180
5.832947 8.034262 0.520324
3.997551 5.504180 -1.322306
9.704880 13.357628 1.444519
4.788353 6.588187 -1.289959
7.612915 10.474438 1.589908
5.735280 7.888147 -1.197488
5.635378 7.747902 1.517415
5.632526 7.741140 -0.837567
5.678581 7.801575 1.875653
5.641947 7.748401 -0.502321
5.648484 7.754528 2.214868
5.640768 7.743934 -0.167229
5.663444 7.772222 2.576802
3.351230 4.585588 -1.521856
5.673153 7.759909 0.167787
3.767521 5.151436 -1.473429
9.751725 13.328921 0.865532
4.015583 5.488606 -1.321925
9.760858 13.336534 1.445914
4.806654 6.565055 -1.288707
7.626625 10.412832 1.584789
5.781750 7.891094 -1.201144
5.687095 7.759058 1.523672
5.671293 7.737499 -0.839310
5.725516 7.808618 1.882140
5.685495 7.751208 -0.503786
5.698574 7.766188 2.223866
5.684494 7.744165 -0.167683
5.702181 7.765428 2.581461
3.367215 4.573863 -1.521856
5.707323 7.749718 0.167997
3.802817 5.161788 -1.480178
9.781601 13.272293 0.864067
4.028892 5.466655 -1.320017
9.831002 13.334452 1.449400
4.821332 6.537110 -1.286517
7.633460 10.346213 1.578696
5.809262 7.870862 -1.201144
5.728223 7.758231 1.527426
5.711284 7.735288 -0.841227
5.755069 7.791744 1.882903
5.724389 7.747376 -0.504833
5.737234 7.761919 2.228365
5.731700 7.751610 -0.168276
5.746488 7.768772 2.589226
3.390066 4.571390 -1.524962
5.751021 7.752231 0.168486
3.821972 5.150048 -1.480628
9.858884 13.284693 0.866997
4.057313 5.465168 -1.323070
9.910752 13.344836 1.454281
4.835874 6.509141 -1.284327
5.980979 8.047523 1.231124
5.853285 7.872838 -1.204557
5.768064 7.758214 1.531181
5.747761 7.728096 -0.842622
5.793954 7.787358 1.886719
5.763323 7.743367 -0.505879
5.779417 7.762168 2.234214
5.775287 7.756622 -0.168800
5.788376 7.771362 2.596473
3.405999 4.559531 -1.524962
5.793446 7.755550 0.168974
3.848363 5.149833 -1.484227
9.957818 13.320583 0.871603
4.075186 5.449402 -1.322688
4.858619 6.494651 -1.284640
6.020714 8.045129 1.233805
5.894828 7.874041 -1.207725
5.811686 7.760169 1.535561
5.804569 7.747847 -0.846979
5.835047 7.788528 1.891680
5.800951 7.740195 -0.506926
5.814480 7.755433 2.237813
5.809528 7.746011 -0.169009
5.830542 7.771196 2.603202
3.423424 4.551298 -1.525997
5.830103 7.748062 0.169253
3.876865 5.150380 -1.488276
6.061180 8.049307 0.528070
4.081426 5.420174 -1.318872
4.871750 6.465029 -1.282137
6.073853 8.057353 1.238924
5.935419 7.870854 -1.210406
5.847069 7.750874 1.537751
5.847031 7.750823 -0.849420
5.887032 7.801023 1.899694
5.848386 7.747000 -0.508706
5.855610 7.753748 2.243212
5.859436 7.755999 -0.169672
5.876264 7.775460 2.611484
3.425292 4.520842 -1.519786
5.881274 7.759536 0.169952
3.897171 5.139925 -1.489176
6.096484 8.037647 0.528698
4.093204 5.396508 -1.316582
4.887117 6.438546 -1.280260
6.115148 8.053492 1.241605
5.990477 7.886445 -1.216012
5.893205 7.755585 1.542757
5.886099 7.746233 -0.851163
5.929674 7.800744 1.904655
5.892319 7.748794 -0.510171
5.896793 7.751877 2.248611
5.893737 7.745048 -0.169882
5.901031 7.751825 2.610449
3.443397 4.511929 -1.520821
5.918030 7.751675 0.170231
3.911541 5.121642 -1.487826
6.209384 8.127411 0.536025
4.114402 5.385306 -1.317345
13.895157 18.180695 2.001967
4.903565 6.413600 -1.278696
6.160109 8.054170 1.245017
6.039680 7.893865 -1.220400
5.934651 7.753788 1.546511
5.927637 7.744624 -0.853255
5.977159 7.806496 1.911143
5.944834 7.761478 -0.512369
5.949894 7.765277 2.258509
5.938987 7.748233 -0.170405
5.953913 7.764907 2.621837
3.462655 4.504479 -1.522374
5.962121 7.753161 0.170719
3.922268 5.098688 -1.485127
6.257199 8.131016 0.537700
4.135566 5.374026 -1.318109
4.923514 6.393313 -1.278070
6.197872 8.045203 1.246967
6.069623 7.875878 -1.220887
5.982185 7.759619 1.551830
5.965584 7.738085 -0.854824
6.013958 7.798024 1.914196
5.975553 7.745422 -0.512683
5.998396 7.772227 2.266607
5.985544 7.752784 -0.170964
5.998697 7.767010 2.629602
3.477176 4.490836 -1.521856
6.007514 7.756017 0.171243
3.942428 5.088048 -1.486027
6.258627 8.074394 0.535397
4.151896 5.356453 -1.317345
9.714499 12.528376 1.386996
4.942167 6.371406 -1.277131
6.239305 8.040770 1.249648
6.086124 7.840528 -1.218693
6.026196 7.760535 1.556210
6.008443 7.737673 -0.857090
6.056800 7.797138 1.919157
6.018486 7.745016 -0.514044
6.030272 7.757397 2.268406
6.035896 7.761835 -0.171627
6.048312 7.774993 2.639437
3.485701 4.469532 -1.518750
6.055460 7.761805 0.171836
3.960166 5.074254 -1.486027
4.165734 5.335738 -1.315819
9.706662 12.428441 1.379675
4.958298 6.346332 -1.275567
6.282002 8.037711 1.252573
6.079215 7.775452 -1.211869
6.060552 7.748786 1.558087
6.053830 7.740191 -0.859704
6.100916 7.797597 1.924500
6.065178 7.749126 -0.515719
6.078942 7.763918 2.276505
6.069120 7.748588 -0.171801
6.092094 7.775124 2.646684
3.494123 4.448221 -1.515644
6.093639 7.754769 0.172151
3.992304 5.078785 -1.491425
4.174626 5.308817 -1.312766
9.685933 12.313051 1.370611
4.976755 6.324330 -1.274628
6.323529 8.032889 1.255254
6.145623 7.804089 -1.219669
6.107120 7.752412 1.563093
6.096838 7.739360 -0.861970
6.145113 7.797840 1.929842
6.114446 7.756141 -0.517603
6.124104 7.765604 2.283253
6.113470 7.749337 -0.172290
6.123982 7.759878 2.648754
3.513226 4.440541 -1.517197
6.133080 7.749133 0.172500
3.996701 5.048013 -1.486477
4.202885 5.306524 -1.315819
9.701632 12.244812 1.366776
4.992668 6.299177 -1.273064
6.379900 8.046542 1.260860
6.180226 7.791922 -1.221131
6.151336 7.752710 1.567474
6.146110 7.746123 -0.865108
6.199149 7.810171 1.938238
6.151417 7.747265 -0.518440
6.170568 7.768593 2.290452
6.161632 7.754562 -0.172884
6.176274 7.770213 2.659625
3.525954 4.427971 -1.516680
6.174835 7.751725 0.172988
4.007684 5.029335 -1.484677
4.221982 5.296365 -1.316582
9.712727 12.179999 1.362942
5.012431 6.283462 -1.273064
6.416289 8.040425 1.263054
6.192293 7.756952 -1.218693
6.205244 7.770394 1.574982
6.186575 7.747017 -0.867374
6.233456 7.802929 1.941291
6.193184 7.749743 -0.519905
6.218062 7.778091 2.299000
6.197202 7.749224 -0.173198
6.221173 7.776415 2.668424
3.540180 4.414131 -1.516162
6.216875 7.748839 0.173407
4.025217 5.015314 -1.484677
4.240443 5.281596 -1.316582
9.732724 12.118063 1.359804
5.033099 6.264386 -1.272751
6.462968 8.041189 1.266710
6.221818 7.738385 -1.219181
6.247188 7.767155 1.578737
6.237308 7.754871 -0.870686
6.274195 7.797946 1.945489
6.236476 7.748306 -0.521266
6.256177 7.769998 2.303049
6.243032 7.750903 -0.173721
6.270095 7.781730 2.677742
3.551926 4.397236 -1.514609
6.270281 7.759753 0.174140
4.036570 4.993657 -1.482427
4.251448 5.257601 -1.314292
5.046233 6.236034 -1.270561
6.513482 8.046351 1.271097
6.246295 7.713533 -1.218693
6.280368 7.755609 1.580614
6.278129 7.750085 -0.872603
6.323624 7.803455 1.952358
6.287384 7.755966 -0.523255
6.300440 7.769308 2.309348
6.286329 7.751906 -0.174210
6.315341 7.784898 2.686024
3.564816 4.381813 -1.513574
6.316172 7.763734 0.174699
4.054339 4.981755 -1.482877
26.860025 32.992401 2.229617
4.269776 5.242728 -1.314292
5.069381 6.222327 -1.271187
6.557684 8.046252 1.274510
6.264316 7.683544 -1.217231
6.328625 7.759665 1.585933
6.315222 7.740472 -0.873998
6.374287 7.812868 1.959990
6.332015 7.758283 -0.524825
6.349588 7.777051 2.317896
6.332326 7.753145 -0.174733
6.354702 7.777764 2.691200
3.575654 4.365485 -1.512021
6.360971 7.763298 0.175187
4.074176 4.970585 -1.483777
26.959837 32.879898 2.228361
4.288047 5.227795 -1.314292
14.890991 18.154430 2.054261
5.083553 6.195429 -1.269309
6.605885 8.047861 1.278410
6.260859 7.624815 -1.211381
6.375735 7.761947 1.590939
6.353589 7.732233 -0.875567
6.417838 7.807653 1.964570
6.371822 7.748908 -0.525767
6.394027 7.775911 2.324194
6.384760 7.761880 -0.175432
6.402675 7.780898 2.700000
3.587941 4.347881 -1.510468
6.400839 7.753812 0.175501
4.087402 4.949610 -1.481978
27.014017 32.700802 2.222918
4.312185 5.218093 -1.315819
14.982828 18.130436 2.057747
5.101191 6.170666 -1.268058
6.645456 8.035834 1.280359
6.296362 7.610989 -1.212844
6.425550 7.764400 1.596257
6.413648 7.747264 -0.879924
6.450173 7.788610 1.965714
6.424388 7.754726 -0.527756
6.449832 7.785439 2.334092
6.429752 7.758443 -0.175885
6.445952 7.775221 2.706212
3.606322 4.337673 -1.511503
6.453516 7.759507 0.176165
4.104268 4.933098 -1.481528
27.235895 32.724388 2.231292
4.322834 5.193958 -1.313529
14.959938 17.968222 2.045545
5.121243 6.148894 -1.267432
6.700276 8.041927 1.285234
6.324214 7.587862 -1.212844
6.476737 7.768105 1.601889
6.454688 7.741659 -0.881842
6.510011 7.805250 1.975636
6.464215 7.747587 -0.528803
6.495808 7.782691 2.340391
6.473523 7.753246 -0.176304
6.496696 7.778233 2.715529
3.616481 4.319132 -1.509433
6.497250 7.756866 0.176618
4.123967 4.921728 -1.482427
4.335895 5.172818 -1.312003
14.984159 17.870096 2.040316
5.145216 6.134005 -1.268058
6.748724 8.042818 1.289134
6.312372 7.520128 -1.205532
6.512703 7.756041 1.604079
6.506013 7.748073 -0.885154
6.561211 7.811039 1.982887
6.509207 7.746385 -0.530268
6.542997 7.783837 2.347589
6.512133 7.744376 -0.176618
6.539976 7.774725 2.722259
3.626553 4.300575 -1.507362
6.546208 7.760122 0.177212
4.141124 4.907301 -1.482427
4.356457 5.160652 -1.312766
13.565578 16.064077 1.839509
5.155125 6.102426 -1.265242
6.799820 8.046506 1.293521
6.327023 7.487026 -1.203582
6.558790 7.758539 1.609085
6.549747 7.745091 -0.887420
6.609991 7.813571 1.989375
6.556849 7.748011 -0.531943
6.593949 7.791850 2.356587
6.559745 7.748682 -0.177212
6.579450 7.769216 2.727953
3.638295 4.285579 -1.506327
6.584852 7.753611 0.177561
4.156112 4.892058 -1.481978
4.381176 5.155152 -1.315056
13.616199 16.015965 1.839160
5.174053 6.083793 -1.264929
6.848336 8.049614 1.297665
6.354391 7.469026 -1.204069
6.611371 7.768335 1.615655
6.589600 7.740018 -0.889337
6.644778 7.802069 1.992046
6.607119 7.755109 -0.533931
6.638710 7.792190 2.363336
6.611344 7.757327 -0.177910
6.630246 7.776755 2.738306
3.654996 4.276429 -1.507362
6.631318 7.756052 0.178119
4.160910 4.864921 -1.477928
4.403351 5.146563 -1.316582
5.189061 6.060598 -1.263678
6.890485 8.044953 1.300590
6.367507 7.431726 -1.201632
6.659018 7.769207 1.620661
6.637326 7.741170 -0.892126
6.689780 7.802349 1.997770
6.651002 7.754382 -0.535397
6.684906 7.791151 2.370084
6.661824 7.761516 -0.178538
6.687554 7.788742 2.750729
3.675687 4.268860 -1.509433
6.680532 7.758620 0.178713
4.180412 4.853319 -1.478828
6.937150 8.050958 0.556959
4.428593 5.137826 -1.318490
6.941253 8.050037 0.929952
5.206078 6.035557 -1.262426
6.940570 8.046404 1.304733
6.372658 7.385408 -1.197732
6.706747 7.769842 1.625667
6.694259 7.752637 -0.896135
6.741436 7.804520 2.004639
6.695050 7.748085 -0.536653
6.728708 7.784291 2.375483
6.712418 7.765445 -0.179166
6.728603 7.781424 2.756423
3.690566 4.256003 -1.509433
6.731200 7.759759 0.179306
4.199448 4.839437 -1.479278
6.954737 8.014627 0.556122
4.458084 5.135678 -1.321925
14.467686 16.660786 1.930500
5.224522 6.014366 -1.261801
6.992148 8.046386 1.308877
6.402291 7.364997 -1.198220
6.745490 7.759802 1.628483
6.736967 7.747266 -0.898227
6.795694 7.812046 2.012653
6.748276 7.754803 -0.538746
6.781428 7.790154 2.384481
6.756550 7.761575 -0.179620
6.776021 7.781200 2.764705
3.695236 4.231452 -1.505292
6.775312 7.758481 0.179795
4.210344 4.819615 -1.477479
4.490199 5.136343 -1.326123
14.326391 16.382217 1.904004
5.244436 5.997008 -1.261801
7.038400 8.045564 1.312533
6.418837 7.334760 -1.196757
6.794653 7.761477 1.633802
6.786285 7.749181 -0.901190
6.842260 7.813098 2.018759
6.797647 7.759422 -0.540631
6.821351 7.783746 2.389430
6.791513 7.746964 -0.179830
6.814608 7.770571 2.769364
3.701593 4.210471 -1.502186
6.815558 7.749801 0.180144
4.233579 4.812203 -1.479728
4.521473 5.137637 -1.330320
14.285851 16.226946 1.891454
5.249673 5.960876 -1.258046
7.100558 8.059674 1.318870
6.452275 7.321247 -1.198220
6.846528 7.765863 1.639746
6.834381 7.749352 -0.903979
6.875985 7.796526 2.020667
6.849794 7.764104 -0.542619
6.872981 7.787647 2.397978
6.847632 7.756188 -0.180597
6.883890 7.794521 2.786446
3.723406 4.204105 -1.504774
6.873064 7.760391 0.180947
4.241304 4.787187 -1.476579
9.716883 10.963651 0.767769
4.558509 5.141596 -1.335663
9.718165 10.957380 1.281364
5.266240 5.935685 -1.256795
8.920361 10.054317 1.650355
6.469887 7.289770 -1.196757
6.898514 7.769982 1.645691
6.883876 7.750777 -0.906943
6.927985 7.797692 2.027536
6.888822 7.750888 -0.543457
6.928668 7.792988 2.407426
6.898576 7.759142 -0.181226
6.922612 7.783433 2.791105
3.741913 4.195410 -1.506327
6.922760 7.759024 0.181505
4.251037 4.762885 -1.473879
9.744456 10.917742 0.766931
4.586885 5.137371 -1.338716
14.592723 16.338284 1.916555
5.286929 5.917264 -1.256795
8.909525 9.968274 1.641580
6.485976 7.254171 -1.194807
6.946659 7.769417 1.650697
6.929487 7.747490 -0.909383
6.965637 7.785164 2.030589
6.939810 7.753583 -0.545341
6.963630 7.777465 2.410126
6.958968 7.772258 -0.182098
6.970364 7.782245 2.799387
3.756536 4.182322 -1.506327
6.972504 7.762805 0.182133
4.265506 4.747311 -1.473429
4.615293 5.133007 -1.341769
14.830873 16.488701 1.940261
5.303881 5.896761 -1.256169
8.918635 9.912110 1.637193
6.499370 7.220820 -1.192857
6.992244 7.765672 1.655077
6.975155 7.743982 -0.911823
7.019002 7.792662 2.038604
7.000242 7.769107 -0.548062
7.007651 7.774592 2.416424
7.000784 7.764256 -0.182482
7.027241 7.790865 2.811293
3.754838 4.152646 -1.500115
7.018340 7.759180 0.182622
4.278126 4.728061 -1.472080
4.644147 5.130772 -1.345204
14.920238 16.477833 1.944793
5.321776 5.875286 -1.255543
8.929191 9.854436 1.632806
6.519204 7.192204 -1.191882
7.039182 7.765861 1.660083
7.020871 7.742950 -0.914438
7.060672 7.784107 2.042801
7.043427 7.762372 -0.549318
7.066175 7.784720 2.427222
7.042618 7.758768 -0.182901
7.062130 7.777528 2.814916
3.774514 4.145226 -1.502186
7.060190 7.753604 0.183041
4.291158 4.710966 -1.471180
4.673934 5.127587 -1.348638
5.333246 5.848847 -1.253666
8.928373 9.788109 1.626712
6.545697 7.173477 -1.192370
7.095544 7.773340 1.666966
7.073383 7.746348 -0.917750
7.102330 7.778049 2.047381
7.089336 7.761090 -0.550888
7.112987 7.784260 2.434420
7.092598 7.759227 -0.183495
7.114007 7.779915 2.824751
3.783015 4.126993 -1.500115
7.106128 7.749551 0.183530
4.307578 4.695957 -1.471180
4.713473 5.136653 -1.355126
5.342943 5.818553 -1.251163
8.920858 9.711561 1.619156
6.562634 7.141819 -1.190907
7.141353 7.768884 1.671346
7.131399 7.755339 -0.921759
7.154688 7.780665 2.054631
7.131253 7.752470 -0.552040
7.162550 7.783761 2.442069
7.137248 7.753546 -0.183948
7.168601 7.784880 2.835622
3.804669 4.120195 -1.502703
7.165696 7.759955 0.184367
4.316009 4.672304 -1.468480
4.750927 5.139525 -1.360468
5.366914 5.801833 -1.251789
6.582132 7.113038 -1.189932
7.197948 7.775802 1.678229
7.176024 7.749405 -0.924025
7.211174 7.784637 2.062645
7.175915 7.743855 -0.553296
7.206926 7.774607 2.447467
7.194174 7.760851 -0.184716
7.220687 7.786725 2.845457
3.816396 4.104061 -1.501668
7.221328 7.762925 0.185065
4.341071 4.665012 -1.471180
4.782214 5.137282 -1.364284
5.381750 5.777281 -1.250537
8.416311 9.031714 1.515811
6.591918 7.071439 -1.187008
7.245262 7.769591 1.682609
7.232917 7.753647 -0.927686
7.259729 7.782389 2.068751
7.235604 7.753807 -0.555808
7.261949 7.779316 2.456916
7.241676 7.754893 -0.185205
7.279512 7.792676 2.857363
3.824811 4.082995 -1.499080
7.278461 7.769775 0.185833
4.351997 4.644144 -1.469380
4.811756 5.131175 -1.367337
15.767251 16.808048 2.016261
5.397480 5.751756 -1.249286
8.442355 8.996489 1.514836
6.611125 7.042598 -1.186033
7.296678 7.770175 1.688241
7.280403 7.750133 -0.930300
7.309717 7.778617 2.074857
7.291332 7.756341 -0.557901
7.317111 7.781043 2.465914
7.294733 7.757245 -0.185868
7.323875 7.785513 2.864092
3.832318 4.065337 -1.497009
7.317906 7.760142 0.186182
4.367373 4.629687 -1.469380
26.561441 28.146912 2.028228
4.844023 5.133166 -1.371917
15.912984 16.856945 2.028114
5.407384 5.726155 -1.247409
8.507587 9.005960 1.521173
6.637171 7.023520 -1.186520
7.346829 7.771776 1.693873
7.322494 7.743318 -0.932392
7.351656 7.774157 2.079818
7.340371 7.759510 -0.559785
7.368307 7.786326 2.474911
7.347913 7.762054 -0.186566
7.366924 7.779416 2.870821
3.857835 4.062469 -1.501150
7.366981 7.757753 0.186741
4.380824 4.611587 -1.468480
4.884446 5.138144 -1.378023
15.906008 16.726324 2.019399
5.425614 5.703434 -1.246783
8.541707 8.979087 1.521661
6.658909 6.997434 -1.186033
7.398430 7.771835 1.699504
7.381078 7.750896 -0.936401
7.404474 7.772749 2.086687
7.388051 7.752799 -0.561251
7.425035 7.788887 2.484360
7.403936 7.766755 -0.187299
7.427361 7.788605 2.883762
3.863982 4.040600 -1.498045
7.417480 7.753821 0.187299
4.390959 4.588461 -1.466231
4.911856 5.130990 -1.380694
15.994611 16.702360 2.023233
5.434556 5.673049 -1.244280
8.607525 8.982115 1.527510
6.668025 6.955786 -1.183108
7.455587 7.777336 1.706387
7.432909 7.750970 -0.939539
7.461463 7.778021 2.095083
7.448259 7.761545 -0.563763
7.467022 7.778387 2.489308
7.454544 7.765388 -0.187893
7.489296 7.798858 2.897220
3.878060 4.027090 -1.498045
7.481989 7.769514 0.188277
4.407505 4.575277 -1.466681
4.944722 5.129364 -1.384892
5.461568 5.663527 -1.246157
8.656557 8.973525 1.530923
6.691053 6.933637 -1.183108
7.501900 7.771159 1.710768
7.487603 7.753640 -0.943025
7.506306 7.773008 2.100425
7.497541 7.761229 -0.565542
7.522569 7.784410 2.499206
7.501064 7.759446 -0.188381
7.537956 7.794894 2.905503
3.880637 4.003110 -1.493904
7.531340 7.766316 0.188835
4.418022 4.554268 -1.464881
4.974010 5.125617 -1.388326
15.630533 16.101326 1.963270
5.478553 5.641592 -1.245531
8.048791 8.285433 1.418316
6.717985 6.913085 -1.183595
7.552390 7.769001 1.716086
7.531330 7.747337 -0.945291
7.562134 7.776317 2.108439
7.551050 7.762209 -0.567531
7.587752 7.797206 2.511803
7.564369 7.770472 -0.189289
7.579947 7.783755 2.911197
3.890540 3.985392 -1.492351
7.586349 7.768592 0.189533
4.439336 4.544397 -1.466681
5.012455 5.129284 -1.394051
5.484398 5.608315 -1.242403
8.122087 8.302693 1.426115
6.736523 6.883915 -1.182620
7.612621 7.776474 1.723595
7.591771 7.755176 -0.949475
7.609839 7.770912 2.114164
7.611646 7.770044 -0.570043
7.635377 7.791555 2.518552
7.615246 7.768293 -0.189882
7.628716 7.779316 2.919479
3.911196 3.978678 -1.494939
7.624634 7.753471 0.189812
4.442873 4.516369 -1.462632
5.049604 5.131350 -1.399393
5.508101 5.593358 -1.243341
8.841998 8.975716 1.547010
6.757723 6.857532 -1.182133
7.667458 7.777988 1.729853
7.642576 7.752748 -0.952438
7.664491 7.772257 2.121796
7.649942 7.754803 -0.570881
7.692644 7.795370 2.528450
7.677440 7.777239 -0.190755
7.691115 7.788381 2.932938
3.920985 3.960881 -1.493386
7.692461 7.768013 0.190825
4.446267 4.488374 -1.458583
9.760829 9.849827 0.726737
5.085452 5.131820 -1.404354
5.522027 5.568487 -1.242090
8.255342 8.321894 1.439277
6.762045 6.814173 -1.178720
7.722393 7.779215 1.736110
7.706085 7.762787 -0.956970
7.731686 7.785859 2.132863
7.700895 7.752138 -0.572660
7.729425 7.778143 2.531599
7.724272 7.770252 -0.191243
7.756398 7.799839 2.947431
3.937515 3.949905 -1.494421
7.747768 7.769435 0.191523
4.466038 4.476964 -1.459932
9.737020 9.760841 0.722550
5.114429 5.125153 -1.407407
15.884789 15.912539 1.967105
5.535849 5.543585 -1.240838
8.957752 8.967140 1.556272
6.771757 6.776488 -1.176283
7.766302 7.771727 1.740177
7.764126 7.766839 -0.960805
7.790749 7.790751 2.141640
7.766044 7.763336 -0.575486
7.795124 7.789686 2.544196
7.774046 7.768622 -0.191837
7.802720 7.794556 2.955196
3.937592 3.922504 -1.489245
7.800405 7.770515 0.192186
4.491905 4.473131 -1.463532
9.734232 9.690155 0.719829
5.142029 5.116964 -1.410079
15.948709 15.865428 1.968151
5.557001 5.527984 -1.241464
8.976181 8.926186 1.554322
6.805452 6.765192 -1.178233
7.828410 7.779382 1.747999
7.815222 7.763558 -0.963768
7.837436 7.785625 2.147365
7.821505 7.767097 -0.577684
7.848571 7.791254 2.553195
7.829506 7.769608 -0.192535
7.847708 7.784960 2.961925
3.951952 3.910782 -1.489762
7.844543 7.760113 0.192605
4.492251 4.442350 -1.458583
9.738167 9.626633 0.717631
5.165951 5.106784 -1.411987
9.714683 9.600066 1.194905
5.569239 5.501610 -1.239900
9.029881 8.917117 1.558221
6.820550 6.733025 -1.176770
7.880828 7.776981 1.753631
7.873539 7.769788 -0.967777
7.872949 7.766494 2.149654
7.878437 7.769195 -0.579882
7.904865 7.792538 2.562642
7.889337 7.774514 -0.193338
7.898233 7.780565 2.970725
3.965578 3.896964 -1.489762
7.898686 7.759311 0.193268
4.511900 4.430739 -1.459932
9.738928 9.560403 0.715223
5.178141 5.083220 -1.410460
9.725379 9.543771 1.192116
5.579947 5.473837 -1.238023
9.089298 8.913342 1.563096
6.832673 6.698057 -1.174821
7.941786 7.782609 1.761139
7.946148 7.786883 -0.973355
7.940681 7.778809 2.160721
7.925488 7.761208 -0.581348
7.964046 7.796252 2.572990
7.943580 7.773504 -0.194001
7.970919 7.797526 2.987807
3.981922 3.885798 -1.490798
7.957216 7.762411 0.194036
4.521760 4.409520 -1.458133
9.737915 9.492892 0.712711
5.205692 5.074708 -1.413131
9.721537 9.473609 1.187584
5.596192 5.451568 -1.237397
9.137421 8.898181 1.566021
6.841787 6.660322 -1.172383
7.997220 7.782390 1.767397
8.001841 7.786887 -0.976842
7.998743 7.781162 2.169117
7.976871 7.757168 -0.583127
8.009378 7.786062 2.578839
7.993615 7.768024 -0.194559
8.021644 7.792540 2.996607
3.994075 3.870529 -1.490280
8.027349 7.776329 0.195083
4.539923 4.396421 -1.459033
9.730814 9.419943 0.709780
5.214913 5.048312 -1.410842
9.737363 9.422992 1.185492
5.616606 5.433375 -1.237710
9.082808 8.783432 1.551397
6.859284 6.630881 -1.171408
8.042802 7.772274 1.771464
8.071954 7.800445 -0.982071
8.061157 7.787293 2.178657
8.041257 7.765347 -0.585849
8.068753 7.789187 2.589187
8.049459 7.767847 -0.195258
8.083556 7.798021 3.009548
4.008955 3.857902 -1.490798
8.081825 7.774604 0.195746
4.553839 4.379195 -1.458583
9.733401 9.356849 0.707582
5.240996 5.038239 -1.413131
9.724225 9.344771 1.179914
5.635539 5.413735 -1.237710
9.170687 8.806670 1.561146
6.879523 6.604148 -1.170921
8.102667 7.775609 1.778660
8.133636 7.805328 -0.986254
8.118046 7.787645 2.186671
8.095697 7.763502 -0.587838
8.135285 7.798733 2.601784
8.105402 7.767372 -0.195956
8.134438 7.792481 3.018348
4.005636 3.827869 -1.484586
8.127714 7.764300 0.196200
4.570506 4.364620 -1.459033
9.742887 9.300753 0.705907
5.264230 5.025338 -1.414658
9.722194 9.277755 1.175731
5.648686 5.388575 -1.236458
9.320607 8.888313 1.581377
6.893914 6.571875 -1.169458
8.164082 7.779981 1.786169
8.191124 7.805751 -0.989915
8.173608 7.786346 2.194304
8.166142 7.776514 -0.590978
8.197746 7.803876 2.613031
8.165782 7.770739 -0.196758
8.183986 7.785341 3.026630
4.024580 3.819182 -1.486657
8.180879 7.760656 0.196828
4.565915 4.329866 -1.452734
9.737443 9.234036 0.703291
5.273192 4.998827 -1.412368
9.725594 9.216355 1.172245
5.661721 5.363394 -1.235207
9.367434 8.870735 1.584058
6.915671 6.548975 -1.169458
8.221395 7.782743 1.793052
8.242916 7.800397 -0.992878
8.215002 7.771256 2.198120
8.216456 7.769916 -0.592652
8.256144 7.807446 2.623379
8.222021 7.772468 -0.197491
8.244863 7.791328 3.039571
4.040033 3.808466 -1.487692
8.238585 7.763658 0.197596
4.585924 4.320045 -1.454533
9.728761 9.164716 0.700464
5.298315 4.989389 -1.414658
9.729988 9.159472 1.169107
5.679478 5.344588 -1.235207
9.704770 9.129338 1.635974
6.934457 6.523287 -1.168971
8.280251 7.786567 1.800248
8.303581 7.805769 -0.997062
8.292230 7.792373 2.211858
8.266919 7.765879 -0.594432
8.303289 7.800044 2.630128
8.288568 7.783485 -0.198469
8.301640 7.793034 3.050959
4.038540 3.781842 -1.482516
8.309543 7.778656 0.198678
4.605916 4.310142 -1.456333
9.735899 9.107503 0.698685
5.300495 4.958379 -1.410842
9.737027 9.105380 1.166318
5.704384 5.332471 -1.236771
9.742246 9.103880 1.637193
6.948481 6.490913 -1.167508
8.327596 7.776489 1.804628
8.370193 7.816267 -1.001942
8.351035 7.795642 2.220635
8.333514 7.776573 -0.597363
8.354692 7.793608 2.637776
8.347864 7.784507 -0.199237
8.369770 7.802211 3.065971
4.051713 3.767725 -1.482516
8.367403 7.778192 0.199411
4.615223 4.288730 -1.454533
9.744212 9.051721 0.697010
5.323521 4.945195 -1.412368
9.768754 9.071334 1.166318
5.708487 5.299086 -1.233642
9.747766 9.045519 1.632806
6.965276 6.461216 -1.166533
8.393800 7.783636 1.813076
8.420802 7.808676 -1.004731
8.405547 7.791809 2.227886
8.400166 7.784088 -0.600189
8.426167 7.805449 2.651723
8.395522 7.774347 -0.199725
8.412551 7.787382 3.071665
4.071939 3.760110 -1.485104
8.415073 7.767929 0.199900
4.633029 4.275238 -1.455433
9.749327 8.993274 0.695126
5.329207 4.915931 -1.409315
5.725495 5.277790 -1.233329
9.258131 8.531202 1.545791
6.993630 6.442242 -1.167508
8.452887 7.783730 1.819959
8.480250 7.808927 -1.008566
8.471697 7.798318 2.238190
8.459621 7.784469 -0.602492
8.470570 7.791822 2.657122
8.460881 7.780184 -0.200633
8.473819 7.789344 3.084088
4.072224 3.734124 -1.480445
8.474566 7.768236 0.200668
4.642178 4.253772 -1.453634
9.318208 8.535580 0.662259
5.352125 4.902605 -1.410842
9.282281 8.499692 1.101126
5.739514 5.253769 -1.232391
9.261492 8.474713 1.541404
7.001423 6.404397 -1.165071
8.523741 7.794164 1.829345
8.532455 7.802133 -1.011530
8.526402 7.793864 2.245440
8.513281 7.779145 -0.604376
8.552395 7.812148 2.674218
8.514570 7.774871 -0.201261
8.546613 7.801396 3.100652
4.093804 3.727689 -1.483551
8.538602 7.772256 0.201540
4.641143 4.223116 -1.448685
9.302148 8.461338 0.659014
5.363397 4.878606 -1.409315
9.288310 8.445789 1.098337
5.754893 5.231046 -1.231765
9.268982 8.422306 1.537748
7.006104 6.363899 -1.162146
8.580143 7.790924 1.835602
8.603887 7.812483 -1.016759
8.581173 7.789127 2.252691
8.578838 7.784277 -0.607097
8.595488 7.796650 2.679167
8.589060 7.788088 -0.202378
8.603849 7.798762 3.111523
4.106792 3.713376 -1.483551
8.608701 7.781293 0.202553
4.663085 4.213423 -1.450934
9.309396 8.408731 0.657444
5.386223 4.865118 -1.410842
9.294073 8.391954 1.095548
5.789249 5.225483 -1.235207
9.271799 8.365961 1.533360
7.028274 6.339406 -1.162146
8.633696 7.784734 1.841234
8.668100 7.815756 -1.021117
8.643311 7.790670 2.261850
8.644535 7.789046 -0.609819
8.670437 7.809636 2.694014
8.635515 7.775452 -0.202832
8.672658 7.806163 3.126534
4.113979 3.693856 -1.481480
8.667063 7.779243 0.203286
4.674864 4.194516 -1.450034
9.310439 8.350848 0.655456
5.391479 4.835800 -1.407789
9.284743 8.324878 1.091016
5.803041 5.201289 -1.234268
9.265459 8.301755 1.527510
7.038533 6.304237 -1.160196
8.694663 7.784858 1.848430
8.720562 7.808046 -1.024080
8.705560 7.791877 2.271009
8.704419 7.788120 -0.612121
8.725240 7.804008 2.702562
8.696888 7.775918 -0.203635
8.721461 7.795151 3.134299
4.113870 3.667903 -1.476822
8.721034 7.772893 0.203914
4.689476 4.178173 -1.450034
9.315672 8.297042 0.653781
5.411261 4.819561 -1.408552
9.263154 8.247368 1.085089
5.818209 5.178376 -1.233642
9.276587 8.253526 1.524586
7.066431 6.284905 -1.161171
8.758690 7.787276 1.856251
8.782008 7.808008 -1.028089
8.759122 7.784915 2.277878
8.752457 7.776259 -0.613587
8.790310 7.807152 2.714259
8.762859 7.780029 -0.204542
8.780408 7.792870 3.145687
4.130987 3.657363 -1.478374
8.779562 7.770233 0.204647
4.701114 4.159195 -1.449135
9.181581 8.123177 0.642476
5.425106 4.798046 -1.407789
9.141125 8.081697 1.067483
5.827370 5.150185 -1.231765
9.269631 8.189556 1.518736
7.082373 6.254945 -1.160196
8.818521 7.788261 1.863448
8.845058 7.808951 -1.032273
8.830400 7.793268 2.289326
8.809501 7.772087 -0.615680
8.852588 7.807353 2.725057
8.818605 7.777384 -0.205240
8.845325 7.798206 3.159663
4.149532 3.648022 -1.480445
8.850333 7.780687 0.205694
4.711954 4.141008 -1.448235
9.232385 8.110852 0.644046
5.444773 4.781669 -1.408552
9.295053 8.160152 1.082126
5.835511 5.123011 -1.229888
9.269884 8.135201 1.514349
7.085168 6.215717 -1.157271
8.894667 7.800410 1.873772
8.912712 7.813492 -1.036979
8.896053 7.798888 2.299630
8.874278 7.777059 -0.618402
8.913610 7.808771 2.735855
8.893838 7.788713 -0.206357
8.910284 7.800369 3.173121
4.147057 3.621533 -1.475269
8.915103 7.782620 0.206567
4.720504 4.119413 -1.446435
9.322351 8.132404 0.648338
5.436930 4.742936 -1.402446
9.296533 8.107024 1.079162
5.856332 5.105210 -1.230514
9.277275 8.084532 1.510936
7.109817 6.193553 -1.157759
8.933752 7.779698 1.876275
8.980643 7.820532 -1.041860
8.963206 7.802589 2.309934
8.943559 7.782743 -0.621333
8.981977 7.813427 2.748452
8.951152 7.783862 -0.207055
8.976825 7.803436 3.187098
4.150917 3.599441 -1.472163
8.983010 7.786820 0.207509
4.737802 4.105462 -1.447335
9.322000 8.074965 0.646349
5.456422 4.726498 -1.403209
9.297662 8.051050 1.076025
5.868144 5.079564 -1.229262
9.281423 8.031313 1.507036
7.122384 6.160907 -1.156296
9.014649 7.794978 1.887539
9.036524 7.813893 -1.045172
9.015639 7.793077 2.316421
8.997871 7.774984 -0.623217
9.037218 7.806228 2.757000
9.014595 7.783933 -0.207893
9.031795 7.796040 3.196933
4.163454 3.584932 -1.472163
9.046514 7.786724 0.208347
4.756535 4.092713 -1.448685
9.322868 8.018939 0.644465
5.469907 4.704866 -1.402446
9.295496 7.992565 1.072539
5.879848 5.053897 -1.228011
9.286811 7.979468 1.503380
7.152883 6.143766 -1.157759
9.080772 7.796918 1.895673
9.078863 7.795280 -1.046915
9.078535 7.792254 2.325580
9.061337 7.774739 -0.625729
9.101394 7.806350 2.768248
9.078140 7.783664 -0.208731
9.110292 7.808465 3.215050
4.178880 3.572887 -1.473198
9.114677 7.790183 0.209289
4.750050 4.058361 -1.442386
9.324987 7.964294 0.642686
5.477341 4.678092 -1.400156
9.302119 7.941963 1.070098
5.918489 5.051296 -1.232391
9.284407 7.921231 1.498506
7.162201 6.108457 -1.155809
9.159041 7.808750 1.906311
9.134823 7.788102 -1.050227
9.153497 7.801265 2.337792
9.120350 7.770259 -0.627927
9.174578 7.813704 2.782195
9.147890 7.788222 -0.209708
9.169861 7.804160 3.226438
4.206052 3.570782 -1.478374
9.181458 7.791959 0.210197
4.764189 4.041754 -1.442386
9.313126 7.898110 0.639964
5.496631 4.661485 -1.400920
9.310030 7.892693 1.067832
5.957184 5.048484 -1.236771
9.286250 7.866963 1.494362
7.165300 6.068026 -1.152884
9.237506 7.820124 1.916948
9.154352 7.749730 -1.049355
9.210645 7.794632 2.345424
9.188583 7.773211 -0.630753
9.237510 7.811829 2.792992
9.226941 7.800138 -0.210895
9.233930 7.803283 3.239379
4.214060 3.552341 -1.476822
9.251419 7.795940 0.211174
4.772305 4.020079 -1.440587
9.314668 7.843679 0.638185
5.512870 4.642268 -1.400920
9.307042 7.834482 1.064346
5.983838 5.035292 -1.238648
9.292388 7.816607 1.490950
7.183401 6.040420 -1.152397
9.310108 7.825965 1.926334
9.175246 7.712601 -1.048658
9.285896 7.802848 2.357636
9.258483 7.777056 -0.633684
9.293076 7.803349 2.801540
9.272495 7.783308 -0.211314
9.311431 7.813221 3.256979
4.219028 3.531409 -1.474233
9.318448 7.796964 0.212082
4.792287 4.008398 -1.442386
9.331268 7.802147 0.637452
5.513981 4.610402 -1.397104
9.326687 7.795559 1.063474
6.033211 5.040973 -1.245219
9.343996 7.804482 1.494850
7.207488 6.017855 -1.152884
9.370732 7.821269 1.933217
9.188345 7.669039 -1.047089
9.349257 7.800570 2.366795
9.316248 7.770279 -0.635777
9.357675 7.802062 2.812788
9.347229 7.790580 -0.212396
9.384656 7.819006 3.273026
4.216472 3.504313 -1.469057
9.382525 7.795057 0.212919
4.819741 4.002851 -1.446435
9.378421 7.786115 0.638813
5.536082 4.596144 -1.398630
9.381441 7.785858 1.066612
6.067495 5.033755 -1.248660
9.404797 7.799698 1.500212
7.222340 5.987590 -1.151909
9.455774 7.836407 1.945106
9.199718 7.624203 -1.045346
9.409688 7.795444 2.375190
9.392541 7.778474 -0.639127
9.435891 7.811599 2.828085
9.395932 7.775755 -0.212884
9.444641 7.813288 3.284414
4.234638 3.494493 -1.471128
9.449783 7.795345 0.213827
4.809630 3.966165 -1.439237
9.440987 7.782552 0.641220
5.546031 4.571797 -1.397104
9.466989 7.801212 1.073236
6.091126 5.017570 -1.249912
9.461080 7.790799 1.504843
7.230934 5.952252 -1.149959
9.528829 7.841009 1.954492
9.220121 7.586982 -1.044649
9.482327 7.799968 2.386639
9.453576 7.773545 -0.641430
9.502241 7.810791 2.839782
9.478640 7.788610 -0.214141
9.510673 7.812152 3.297872
4.243821 3.477242 -1.470092
9.524896 7.801589 0.214909
4.818923 3.945647 -1.437887
9.508278 7.782442 0.643942
5.574109 4.562359 -1.400156
9.525004 7.793350 1.076722
6.143774 5.025040 -1.257107
9.529709 7.791654 1.511424
7.245520 5.921947 -1.148984
9.605095 7.847692 1.964504
9.241921 7.550967 -1.044126
9.558151 7.806564 2.398851
9.511594 7.765763 -0.643523
9.564175 7.805912 2.850130
9.546049 7.788351 -0.215049
9.578304 7.811875 3.311849
4.252937 3.459968 -1.469057
9.583097 7.793530 0.215607
4.835690 3.931261 -1.438787
9.572587 7.779432 0.646454
5.559530 4.518109 -1.392524
9.595448 7.795232 1.081603
6.182744 5.020999 -1.261488
9.613874 7.804631 1.520442
7.256901 5.889112 -1.147522
9.663110 7.839007 1.970762
9.258938 7.511131 -1.043080
9.632617 7.811484 2.410681
9.597603 7.780306 -0.647501
9.633755 7.806835 2.862727
9.613579 7.787705 -0.215956
9.652058 7.816078 3.327895
4.258978 3.440245 -1.466986
9.670918 7.809027 0.216968
4.849384 3.914356 -1.438787
9.646317 7.783595 0.649594
5.569158 4.493742 -1.390998
