# This PCD file was generated using the MATLAB® pcwrite function
# from Computer Vision Toolbox®.
# .PCD v.7 - Point Cloud Data file format
VERSION .7
FIELDS x y z
SIZE 4 4 4
TYPE F F F
COUNT 1 1 1
WIDTH 1667
HEIGHT 1
VIEWPOINT 0 0 0 1 0 0 0
POINTS 1667
DATA ascii
-4.838962 5.136775 -1.890932
-14.230146 15.111230 0.362312
-5.497902 5.840356 -1.851797
-8.438295 8.967032 0.645302
-6.756792 7.180166 -1.916486
-7.168410 7.620245 0.915310
-7.116707 7.567929 -1.645378
-7.204771 7.664251 1.291571
-7.196633 7.658277 -1.290353
-7.157377 7.619166 1.655703
-7.120800 7.580230 -0.909906
-7.168579 7.633757 2.035550
-7.121882 7.586686 -0.545341
-7.176944 7.648015 2.421373
-4.791968 5.122599 -1.879544
-14.229213 15.216313 0.363638
-5.469498 5.850969 -1.849098
-10.160603 10.873063 0.779911
-6.731685 7.203710 -1.916486
-7.110485 7.611733 0.911300
-7.071373 7.572510 -1.640998
-7.159007 7.669041 1.288159
-7.153605 7.665935 -1.287428
-7.106484 7.618102 1.650071
-7.071195 7.580271 -0.906943
-7.124480 7.640069 2.030589
-7.073566 7.588125 -0.543666
-7.118320 7.638803 2.410576
-9.616129 10.322865 -0.246253
-10.258426 11.016222 4.033436
-4.762223 5.126557 -1.874885
-14.216838 15.309848 0.364686
-5.450366 5.871453 -1.849548
-10.149757 10.937744 0.782004
-6.706498 7.227164 -1.916486
-7.059483 7.610213 0.908163
-7.018034 7.568180 -1.634740
-7.103853 7.663412 1.283041
-7.130852 7.695227 -1.288159
-7.061053 7.622575 1.645691
-7.032504 7.591755 -0.905374
-7.061752 7.625998 2.020286
-7.028042 7.592249 -0.542201
-7.070433 7.640721 2.403377
-7.083899 7.660632 2.795763
-4.729891 5.127528 -1.869191
-14.225665 15.427003 0.366291
-5.413987 5.873250 -1.844149
-10.152121 11.017168 0.785144
-6.670588 7.238979 -1.913433
-7.020727 7.621621 0.906594
-6.970161 7.569383 -1.629734
-7.043451 7.651648 1.276947
-7.066310 7.679170 -1.281334
-7.011667 7.622461 1.640372
-6.988425 7.597194 -0.903108
-7.015158 7.628923 2.014561
-6.974464 7.587327 -0.540107
-7.026578 7.646701 2.397528
-7.032288 7.658279 2.785928
-4.708049 5.139734 -1.867638
-14.224398 15.534085 0.367652
-5.388191 5.886362 -1.842349
-10.145962 11.087903 0.787656
-6.641303 7.257874 -1.912288
-6.968529 7.618149 0.903282
-6.921038 7.568883 -1.624416
-7.004643 7.663000 1.274753
-6.989914 7.649570 -1.272316
-6.967700 7.627928 1.636305
-6.932303 7.589178 -0.899273
-6.960685 7.622920 2.006547
-6.921006 7.582126 -0.538014
-6.968318 7.636634 2.386731
-6.972971 7.647092 2.772987
-4.678380 5.143275 -1.862980
-14.233315 15.653180 0.369293
-5.368921 5.906577 -1.842799
-10.148833 11.169074 0.790901
-6.604045 7.267936 -1.908853
-6.929837 7.629154 0.901713
-6.877312 7.573984 -1.620348
-6.959173 7.666826 1.271341
-6.947164 7.656280 -1.269391
-6.907852 7.615625 1.628483
-6.881689 7.589444 -0.896310
-6.922164 7.634081 2.003113
-6.878400 7.588480 -0.536758
-6.936386 7.655133 2.384931
-6.929378 7.652770 2.766258
-4.647845 5.147483 -1.858321
-14.233533 15.763619 0.370724
-5.346965 5.923835 -1.842349
-10.145909 11.244470 0.793727
-6.568158 7.281888 -1.906182
-6.871141 7.620469 0.897704
-6.830990 7.578598 -1.615968
-6.911104 7.667479 1.267441
-6.899135 7.656888 -1.265491
-6.868005 7.625013 1.625354
-6.824491 7.579366 -0.892300
-6.874436 7.637513 1.997389
-6.831841 7.592853 -0.535292
-6.873093 7.641387 2.372784
-6.871624 7.642432 2.753835
-4.610505 5.142101 -1.850556
-14.223712 15.869287 0.371981
-5.322616 5.940490 -1.841449
-10.154577 11.333367 0.797495
-6.540079 7.301846 -1.905419
-6.820579 7.617688 0.894567
-6.775510 7.570014 -1.609085
-6.861775 7.669088 1.263541
-6.916018 7.732432 -1.273779
-6.815007 7.619496 1.619097
-6.788698 7.592744 -0.891080
-6.820260 7.630723 1.989375
-6.789323 7.598783 -0.534036
-6.826908 7.643529 2.366035
-6.832039 7.651962 2.748658
-4.578397 5.142291 -1.844862
-6.987769 7.848411 0.183425
-5.288636 5.942096 -1.836500
-10.153455 11.412018 0.800531
-6.510638 7.320228 -1.904274
-6.771439 7.616138 0.891603
-6.729369 7.568821 -1.604079
-6.815207 7.668061 1.259642
-6.832329 7.690025 -1.263054
-6.771317 7.624036 1.615030
-6.738342 7.589576 -0.887943
-6.771454 7.626872 1.982506
-6.740227 7.594365 -0.532152
-6.779537 7.641345 2.358387
-6.783498 7.651192 2.739859
-4.552360 5.147315 -1.841239
-6.941787 7.851780 0.182936
-5.267862 5.960520 -1.836500
-10.147299 11.481543 0.803043
-6.477228 7.331479 -1.901603
-6.726364 7.616150 0.888989
-6.687219 7.574495 -1.600325
-6.756876 7.656082 1.253792
-6.743718 7.643866 -1.251598
-6.727702 7.625711 1.610649
-6.690733 7.586476 -0.884979
-6.725316 7.628373 1.976781
-6.692546 7.593874 -0.530477
-6.729634 7.638645 2.350289
-6.949222 7.887893 -0.183495
-6.736384 7.648997 2.731059
-4.522892 5.150111 -1.836580
-6.905155 7.862738 0.182657
-5.245495 5.975028 -1.835601
-6.901905 7.864572 0.548376
-6.441239 7.342237 -1.898550
-6.694481 7.633593 0.888291
-6.643830 7.575837 -1.595945
-6.717055 7.662027 1.251111
-6.689551 7.633341 -1.246236
-6.672405 7.616461 1.603766
-6.649772 7.593298 -0.883062
-6.675406 7.622570 1.969531
-6.651542 7.597991 -0.529221
-6.679883 7.633056 2.341741
-6.870297 7.853405 -0.182133
-6.686752 7.646289 2.721741
-4.479120 5.134510 -1.825710
-6.860580 7.867201 0.182203
-5.218205 5.985956 -1.833351
-10.152187 11.649976 0.809847
-6.400088 7.344316 -1.893589
-6.642956 7.625705 0.884805
-6.595291 7.573657 -1.590626
-6.675931 7.668958 1.248430
-6.656347 7.649159 -1.245017
-6.626330 7.617349 1.599073
-6.601017 7.588251 -0.879924
-6.629436 7.623602 1.963806
-6.609253 7.603076 -0.527965
-6.646806 7.648972 2.339491
-6.639754 7.646245 2.713459
-4.447256 5.134052 -1.820016
-6.809515 7.863891 0.181575
-5.203655 6.011501 -1.835601
-10.157200 11.738203 0.813510
-6.379551 7.372550 -1.895115
-6.595442 7.624737 0.882016
-6.546851 7.571229 -1.585307
-6.636139 7.677197 1.245992
-6.612733 7.652822 -1.241849
-6.579041 7.616513 1.594067
-6.551046 7.584104 -0.876787
-6.586102 7.627382 1.958845
-6.567012 7.607957 -0.526709
-6.594604 7.642619 2.330493
-6.591577 7.644504 2.704659
-4.417970 5.136363 -1.815357
-6.755949 7.857286 0.180877
-5.163585 6.007462 -1.828852
-10.159118 11.823578 0.816964
-6.337144 7.375416 -1.890154
-6.560999 7.638643 0.880970
-6.499792 7.570056 -1.580301
-6.578270 7.664163 1.240143
-6.580811 7.669830 -1.240874
-6.538268 7.622939 1.590626
-6.503779 7.582729 -0.873998
-6.536437 7.623496 1.951976
-6.514422 7.600504 -0.524616
-6.547600 7.641912 2.323294
-6.552290 7.652791 2.699483
-4.393739 5.144409 -1.812769
-6.711602 7.861050 0.180423
-5.141320 6.023966 -1.828402
-10.148892 11.895436 0.819476
-6.308810 7.394506 -1.889391
-6.521367 7.646338 0.879227
-6.455388 7.571653 -1.575921
-6.523148 7.653842 1.234780
-6.512803 7.644400 -1.233074
-6.493686 7.624663 1.586246
-6.469518 7.596286 -0.872952
-6.493239 7.626834 1.947015
-6.464553 7.595819 -0.522732
-6.499416 7.639490 2.315646
-6.506769 7.653536 2.691718
-4.370758 5.153821 -1.810698
-6.662137 7.858501 0.179830
-5.116480 6.037417 -1.827052
-8.774989 10.358101 0.711455
-6.271541 7.403001 -1.885956
-6.501073 7.676659 0.880099
-6.413600 7.576050 -1.572167
-6.486133 7.664441 1.232830
-6.450179 7.624654 -1.226249
-6.442797 7.618623 1.580301
-6.422380 7.594480 -0.870163
-6.437428 7.614969 1.938238
-6.419950 7.596982 -0.521266
-6.447560 7.632356 2.306648
-6.466304 7.659967 2.686024
-4.336565 5.149835 -1.803969
-6.617925 7.861819 0.179376
-5.100394 6.061203 -1.828852
-8.749067 10.400893 0.712292
-6.238080 7.415831 -1.883667
-6.472953 7.697783 0.879924
-6.369323 7.577220 -1.567786
-6.449125 7.674876 1.230880
-6.397987 7.616725 -1.221375
-6.404734 7.627451 1.577485
-6.375333 7.592438 -0.867374
-6.400710 7.625361 1.935185
-6.377984 7.600988 -0.520010
-6.405848 7.636901 2.301249
-6.402294 7.638077 2.670495
-4.299973 5.142712 -1.796204
-6.573768 7.864928 0.178922
-5.075456 6.074485 -1.827502
-8.725508 10.446702 0.713339
-6.215929 7.442083 -1.884811
-6.448598 7.723387 0.880273
-6.317516 7.569078 -1.561529
-6.404490 7.676003 1.227468
-6.391707 7.663402 -1.225275
-6.355298 7.622452 1.571854
-6.327100 7.588633 -0.864411
-6.346399 7.614481 1.926789
-6.336072 7.604790 -0.518754
-6.365435 7.642743 2.296300
-6.357057 7.638104 2.662730
-4.277061 5.151743 -1.794134
-6.527120 7.864743 0.178398
-5.046757 6.083165 -1.824803
-8.718316 10.512453 0.715747
-6.182395 7.454667 -1.882522
-6.434317 7.761188 0.882016
-6.277194 7.574352 -1.558087
-6.352330 7.667739 1.222593
-6.368717 7.690251 -1.226006
-6.312277 7.624808 1.567786
-6.285327 7.592254 -0.862319
-6.309765 7.624489 1.923736
-6.292939 7.606853 -0.517393
-6.317606 7.639384 2.288652
-6.318052 7.645356 2.657554
-4.246762 5.151736 -1.788957
-6.476734 7.859703 0.177770
-5.020536 6.094726 -1.823003
-8.706957 10.573659 0.717840
-6.151343 7.470142 -1.880995
-6.416048 7.794370 0.883236
-6.231890 7.573337 -1.553394
-6.306608 7.666871 1.218937
-6.334267 7.703237 -1.224543
-6.273077 7.631537 1.564658
-6.238542 7.589522 -0.859530
-6.270649 7.631297 1.919920
-6.243527 7.600995 -0.515509
-6.268640 7.634283 2.280554
-9.204623 11.213870 -0.253234
-6.282746 7.656910 2.653931
-4.225084 5.162043 -1.787404
-6.444196 7.876071 0.177631
-4.997996 6.110707 -1.822553
-8.702867 10.644188 0.720562
-6.112803 7.476368 -1.877179
-6.396368 7.825973 0.884282
-6.192916 7.579749 -1.550266
-6.255949 7.659625 1.214306
-6.225738 7.625350 -1.208700
-6.218923 7.619718 1.557775
-6.196896 7.592729 -0.857438
-6.230323 7.636406 1.915722
-6.206860 7.610359 -0.514672
-6.222253 7.631951 2.273355
-6.227914 7.644349 2.642025
-4.194857 5.161767 -1.782228
-12.945549 15.935164 0.358368
-4.975405 6.126605 -1.822104
-8.695872 10.711716 0.723074
-6.080484 7.490038 -1.875271
-6.363987 7.842066 0.883585
-6.146506 7.576776 -1.545260
-6.197918 7.642869 1.208213
-6.245332 7.704093 -1.217719
-6.176118 7.621430 1.553707
-6.154046 7.594193 -0.855172
-6.188798 7.639803 1.911143
-6.161401 7.608698 -0.513102
-6.183311 7.638479 2.268856
-6.184184 7.645012 2.634778
-4.169534 5.167359 -1.779122
-12.945083 16.048744 0.359904
-4.951544 6.140900 -1.821204
-8.702294 10.796432 0.726737
-6.051836 7.508162 -1.874508
-6.346576 7.876642 0.884979
-6.097718 7.570492 -1.539628
-6.157505 7.647450 1.205532
-6.187287 7.687185 -1.211625
-6.137095 7.627551 1.550579
-6.108767 7.592343 -0.852557
-6.133793 7.626172 1.902366
-6.119789 7.611480 -0.511846
-6.144403 7.644826 2.264357
-19.685118 24.500849 -0.548599
-6.142944 7.648477 2.628566
-4.153887 5.184896 -1.780157
-12.936487 16.153143 0.361230
-4.917901 6.142932 -1.816705
-8.706982 10.879764 0.730296
-6.024362 7.527709 -1.874126
-6.328998 7.911196 0.886374
-6.056452 7.573217 -1.535874
-6.101022 7.631687 1.199682
-6.120757 7.659114 -1.203825
-6.091940 7.625775 1.545886
-6.069793 7.598051 -0.850814
-6.093657 7.630663 1.898168
-6.071997 7.606261 -0.510066
-6.101881 7.646425 2.258509
-19.557070 24.516270 -0.547412
-6.099345 7.648729 2.621319
-4.133357 5.196342 -1.779122
-12.948471 16.284292 0.363150
-4.889150 6.150910 -1.814005
-8.697532 10.946054 0.732703
-5.991943 7.541006 -1.872218
-6.301346 7.933239 0.886374
-6.012781 7.572656 -1.531494
-6.052132 7.624948 1.195295
-6.085349 7.669546 -1.202119
-6.049324 7.626875 1.541818
-6.029612 7.602024 -0.848897
-6.047470 7.627271 1.892062
-6.033005 7.611756 -0.509020
-6.054577 7.641713 2.250860
-19.409300 24.506004 -0.545667
-6.055822 7.648767 2.614072
-4.115194 5.210738 -1.779122
-12.939877 16.390600 0.364511
-4.870063 6.171000 -1.814905
-8.702014 11.026577 0.736158
-5.958290 7.552626 -1.869928
-6.282254 7.966136 0.887594
-5.971633 7.574984 -1.527739
-6.007051 7.622640 1.191639
-6.041454 7.666296 -1.198463
-6.000775 7.617410 1.535874
-5.984547 7.599546 -0.846282
-6.014739 7.640620 1.890154
-5.989108 7.610794 -0.507554
-6.007512 7.634181 2.242762
-19.266106 24.491653 -0.543922
-6.013709 7.647546 2.606826
-4.091929 5.216756 -1.776534
-12.949610 16.515251 0.366326
-4.850779 6.188646 -1.815355
-8.707299 11.108813 0.739716
-5.918678 7.553800 -1.865349
-6.253344 7.983791 0.887245
-5.939176 7.585412 -1.525862
-5.965833 7.622198 1.188470
-5.984185 7.645645 -1.192126
-5.960873 7.618600 1.532119
-5.939676 7.594239 -0.843493
-5.966391 7.631139 1.882903
-5.946616 7.608583 -0.506089
-5.964160 7.631031 2.236013
-19.140465 24.498674 -0.542665
-5.964531 7.636998 2.596473
-4.078170 5.234868 -1.778087
-12.943923 16.621210 0.367722
-4.825439 6.198548 -1.813555
-8.706491 11.188004 0.742961
-5.892393 7.571835 -1.864967
-6.221942 7.998192 0.886548
-5.892163 7.576995 -1.520230
-5.922250 7.618428 1.184814
-5.955026 7.663352 -1.191639
-5.923337 7.625319 1.529303
-5.896128 7.590291 -0.840879
-5.921788 7.626071 1.876797
-5.909107 7.612483 -0.505042
-5.926737 7.637947 2.231964
-19.008263 24.505293 -0.541339
-5.926000 7.642502 2.591296
-4.056324 5.244488 -1.776534
-12.946985 16.745388 0.369467
-4.801391 6.212269 -1.812656
-8.710120 11.273647 0.746625
-5.855122 7.578377 -1.861533
-6.204944 8.034056 0.888117
-5.852397 7.580318 -1.516789
-5.873788 7.610770 1.180427
-5.947639 7.709241 -1.195538
-5.885825 7.631872 1.526488
-5.853777 7.590318 -0.838613
-5.880745 7.628039 1.872218
-5.862989 7.607752 -0.503367
-5.883387 7.636976 2.225666
-18.876236 24.511293 -0.540012
-5.889857 7.650897 2.587155
-4.041524 5.263211 -1.778087
-12.948113 16.868210 0.371178
-4.767812 6.213532 -1.808156
-8.707185 11.351523 0.749765
-5.810583 7.577973 -1.856190
-7.402538 9.654148 1.064346
-5.807878 7.577183 -1.512096
-5.836321 7.617044 1.178233
-5.876032 7.671644 -1.186520
-5.843539 7.631980 1.522420
-5.811388 7.592735 -0.836521
-5.840820 7.633948 1.868402
-5.816867 7.605392 -0.501797
-5.842488 7.638891 2.220267
-18.737127 24.507135 -0.538477
-5.853732 7.659130 2.583014
-4.022207 5.277988 -1.778087
-12.955269 17.006227 0.373167
-4.749730 6.237166 -1.809956
-8.701810 11.431038 0.752905
-5.767312 7.578910 -1.851229
-7.409329 9.736710 1.070447
-5.770501 7.585840 -1.509593
-5.799951 7.627325 1.176527
-5.802224 7.633078 -1.177258
-5.790431 7.620317 1.515850
-5.777493 7.606052 -0.835649
-5.802114 7.641234 1.864967
-5.775671 7.609160 -0.500646
-5.797957 7.638520 2.213968
-18.596405 24.508741 -0.537011
-5.816278 7.668221 2.578873
-3.991182 5.277287 -1.772911
-12.949534 17.128565 0.374808
-4.724487 6.251425 -1.809057
-8.705210 11.518704 0.756673
-5.727805 7.581763 -1.847031
-7.401212 9.800368 1.074456
-5.724804 7.583292 -1.504900
-5.758805 7.631100 1.173846
-5.768371 7.643776 -1.175796
-5.750707 7.623137 1.512408
-5.725717 7.592765 -0.831989
-5.755317 7.634789 1.858480
-5.737055 7.613326 -0.499599
-5.754838 7.636925 2.207669
-18.465023 24.512808 -0.535684
-5.770884 7.663784 2.570591
-3.975981 5.293582 -1.773946
-12.951498 17.249767 0.376518
-4.699049 6.260824 -1.807257
-8.706526 11.600224 0.760128
-5.697921 7.594433 -1.845505
-7.399755 9.866297 1.078988
-5.679479 7.575367 -1.499581
-5.712040 7.621561 1.169458
-5.690611 7.592968 -1.165071
-5.713554 7.626355 1.509280
-5.688561 7.595765 -0.830246
-5.718203 7.638114 1.854663
-5.704597 7.622713 -0.498971
-5.716640 7.638804 2.202721
-18.330921 24.503454 -0.534148
-5.733871 7.667407 2.565414
-3.949163 5.294351 -1.769805
-12.952792 17.371176 0.378229
-4.664288 6.257622 -1.801858
-8.711329 11.691402 0.764105
-5.663318 7.600693 -1.842452
-7.401508 9.937122 1.084043
-5.640172 7.575145 -1.495826
-5.667768 7.614983 1.165558
-5.709098 7.673307 -1.174333
-5.673929 7.628818 1.505838
-5.656210 7.604994 -0.829200
-5.672927 7.630252 1.848176
-5.655458 7.609530 -0.496878
-5.678316 7.643071 2.198222
-18.204746 24.512707 -0.532962
-5.685190 7.657905 2.555579
-3.926061 5.301893 -1.767734
-12.953947 17.499859 0.380044
-4.640099 6.270731 -1.800958
-8.704912 11.768305 0.767141
-5.626247 7.606209 -1.839017
-7.408238 10.018967 1.090144
-5.601956 7.578900 -1.492698
-5.626999 7.615562 1.162634
-5.688177 7.701171 -1.175552
-5.639053 7.637453 1.503648
-5.608328 7.595840 -0.826062
-5.632270 7.631052 1.843597
-5.612259 7.606726 -0.495412
-5.628470 7.631477 2.189224
-18.119076 24.576099 -0.532962
-5.635500 7.646602 2.545227
-3.908672 5.317122 -1.768252
-12.961464 17.638428 0.382068
-4.619334 6.288462 -1.801408
-8.703969 11.853355 0.770699
-5.582230 7.602067 -1.833293
-7.415660 10.102588 1.096419
-5.566114 7.585669 -1.490195
-5.590986 7.622353 1.160684
-5.656562 7.714579 -1.174577
-5.587833 7.623633 1.497078
-5.568821 7.597694 -0.824145
-5.595152 7.636413 1.840162
-5.576233 7.613379 -0.494575
-5.586830 7.630640 2.183375
-18.099308 24.729568 -0.534916
-5.601931 7.656871 2.542121
-3.874146 5.308886 -1.761005
-12.961093 17.767576 0.383883
-4.596208 6.302972 -1.800958
-8.708426 11.946609 0.774782
-5.534844 7.592947 -1.826424
-7.396779 10.150954 1.098860
-5.526810 7.587487 -1.486753
-5.552662 7.625774 1.158246
-5.610910 7.708596 -1.170677
-5.548405 7.625520 1.493636
-5.521168 7.588087 -0.821007
-5.548832 7.628905 1.833675
-5.536705 7.615026 -0.493423
-5.552141 7.639059 2.180226
-19.077774 26.258316 -0.566540
-5.555872 7.649805 2.533321
-3.851057 5.316120 -1.758934
-12.956460 17.892076 0.385593
-4.574180 6.318977 -1.800958
-8.714673 12.043278 0.779073
-5.496796 7.596318 -1.822608
-7.404503 10.236443 1.105309
-5.481773 7.581120 -1.481747
-5.512053 7.625806 1.155321
-5.510722 7.626768 -1.155321
-5.510189 7.628827 1.490508
-5.486482 7.596006 -0.819787
-5.512973 7.635497 1.830622
-5.500737 7.621352 -0.492586
-5.511761 7.639427 2.174827
-19.037476 26.396111 -0.568076
-5.509928 7.642514 2.524521
-3.835861 5.334235 -1.760487
-12.956957 18.024872 0.387478
-4.545270 6.325411 -1.798259
-8.711036 12.127151 0.782527
-5.459939 7.601108 -1.819173
-6.053257 8.430205 0.907988
-5.442604 7.582558 -1.478306
-5.463414 7.614355 1.150690
-5.491009 7.655635 -1.156784
-5.472013 7.631963 1.487379
-5.449484 7.600540 -0.818218
-5.466845 7.627565 1.824134
-5.453163 7.611281 -0.490702
-5.471442 7.639610 2.169428
-5.472288 7.643609 -0.164088
-5.476472 7.652274 2.521415
-3.813852 5.342874 -1.758934
-12.962494 18.166027 0.389538
-4.516371 6.331721 -1.795559
-5.617928 7.878947 0.507135
-5.425396 7.608929 -1.816502
-6.027265 8.456151 0.908511
-5.405785 7.587032 -1.475490
-5.426439 7.618826 1.148497
-5.436622 7.635943 -1.150934
-5.436174 7.638143 1.484876
-5.414831 7.608155 -0.816998
-5.435636 7.640201 1.822608
-5.414985 7.613996 -0.489655
-5.425545 7.631664 2.161780
-5.440938 7.656145 -0.163948
-5.436299 7.652446 2.515203
-3.795177 5.356155 -1.758934
-12.966036 18.305813 0.391562
-4.495369 6.349037 -1.796009
-5.577696 7.880578 0.505984
-5.376117 7.595773 -1.808869
-5.989654 8.465755 0.907291
-5.361019 7.580050 -1.470484
-5.383765 7.615030 1.145085
-5.398476 7.638665 -1.148497
-5.393523 7.634485 1.480496
-5.369847 7.600972 -0.814209
-5.387414 7.628661 1.815357
-5.372249 7.610006 -0.488190
-5.392132 7.641001 2.159080
-5.377296 7.622801 -0.162831
-5.398423 7.655587 2.510027
-3.769790 5.359889 -1.755828
-12.961867 18.436022 0.393377
-4.472060 6.363094 -1.795559
-5.538902 7.881056 0.504833
-5.342800 7.604853 -1.806580
-5.942892 8.462152 0.904677
-5.319774 7.577699 -1.466417
-5.354872 7.630525 1.144597
-5.342140 7.615209 -1.142160
-5.356833 7.636155 1.477367
-5.327269 7.596830 -0.811769
-5.360750 7.647421 1.815357
-5.331897 7.609087 -0.486934
-5.353131 7.642218 2.154131
-5.326750 7.604556 -0.162063
-5.353059 7.644963 2.500710
-3.752162 5.374600 -1.756346
-12.961325 18.565809 0.395227
-4.450933 6.377891 -1.795559
-5.495357 7.877409 0.503367
-5.308359 7.612185 -1.803908
-5.903060 8.468136 0.903108
-5.278799 7.572613 -1.462037
-5.309108 7.618927 1.140210
-5.337279 7.662203 -1.146547
-5.321114 7.641840 1.474864
-5.288197 7.597394 -0.809851
-5.315173 7.636150 1.808488
-5.297511 7.613609 -0.486096
-5.315517 7.642332 2.149183
-5.299028 7.621463 -0.162028
-5.316420 7.649323 2.496051
-3.733219 5.385425 -1.755828
-12.967057 18.712843 0.397391
-4.420877 6.382174 -1.792410
-5.459869 7.885049 0.502635
-5.276382 7.620061 -1.801619
-5.870412 8.481111 0.902411
-5.245591 7.581245 -1.460160
-5.266669 7.614557 1.136797
-5.331952 7.711809 -1.151178
-5.291039 7.655492 1.473926
-5.253716 7.604335 -0.808631
-5.275093 7.635276 1.803908
-5.250473 7.602471 -0.484212
-5.274416 7.639991 2.143334
-5.263305 7.626750 -0.161749
-5.277621 7.650342 2.490357
-3.709075 5.392705 -1.753758
-12.963980 18.848614 0.399311
-4.390844 6.386325 -1.789261
-5.418736 7.884310 0.501379
-5.237299 7.623168 -1.797803
-5.841546 8.505854 0.902759
-5.209941 7.589022 -1.457969
-5.233318 7.623074 1.135335
-5.231987 7.623987 -1.135335
-5.254228 7.659252 1.471110
-5.209112 7.596334 -0.805842
-5.243744 7.649700 1.802764
-5.213540 7.608485 -0.483375
-5.232061 7.638371 2.137485
-5.221961 7.623627 -0.161295
-5.239968 7.652779 2.485181
-3.693497 5.410406 -1.755311
-12.962445 18.995106 0.401405
-4.368505 6.403986 -1.789711
-5.376551 7.881726 0.500018
-5.191855 7.613828 -1.791315
-5.879148 8.624971 0.913218
-5.173409 7.592468 -1.455153
-5.194170 7.625796 1.132897
-5.263224 7.730077 -1.148253
-5.215229 7.659586 1.467668
-5.174718 7.602941 -0.804622
-5.203759 7.648478 1.798184
-5.173473 7.606819 -0.482119
-5.190028 7.634025 2.131186
-5.180704 7.620308 -0.160841
-5.203451 7.656642 2.480522
-3.668088 5.413669 -1.752205
-12.967810 19.138968 0.403535
-4.346149 6.416826 -1.789261
-5.342289 7.890522 0.499390
-5.157546 7.620522 -1.788644
-5.889195 8.704850 0.919493
-5.139346 7.596495 -1.452651
-5.158843 7.628181 1.130704
-5.221998 7.724463 -1.144841
-5.177398 7.661379 1.464540
-5.134762 7.601147 -0.802530
-5.166276 7.647799 1.793986
-5.137041 7.607382 -0.481072
-5.158141 7.641504 2.128487
-5.136174 7.611825 -0.160283
-5.161567 7.652339 2.473275
-3.650115 5.425804 -1.752205
-12.972336 19.290321 0.405768
-4.319377 6.425487 -1.787461
-5.301343 7.889230 0.498134
-5.121294 7.621289 -1.784827
-5.826970 8.674715 0.914264
-5.091877 7.583227 -1.446706
-5.121122 7.629659 1.128266
-5.183940 7.726161 -1.142403
-5.140722 7.664639 1.461724
-5.100651 7.604895 -0.801136
-5.116591 7.631541 1.785972
-5.103784 7.615311 -0.480444
-5.123845 7.648129 2.125338
-5.095109 7.608107 -0.159829
-5.117630 7.644622 2.464993
-3.632226 5.440118 -1.752723
-12.971530 19.435276 0.407863
-4.293678 6.435662 -1.786111
-5.260477 7.887746 0.496878
-5.082680 7.621152 -1.780630
-5.744709 8.617088 0.906071
-5.052231 7.581229 -1.442952
-5.073546 7.616100 1.123635
-5.150335 7.734297 -1.140941
-5.107370 7.672670 1.459847
-5.057515 7.597774 -0.798521
-5.068167 7.616666 1.778340
-5.055046 7.599822 -0.478351
-5.088486 7.652984 2.121738
-5.056343 7.607528 -0.159445
-5.081291 7.647959 2.460334
-3.608945 5.446323 -1.750652
-11.551956 17.439873 0.365139
-4.269034 6.447361 -1.785212
-5.218578 7.884411 0.495517
-5.041957 7.617566 -1.775669
-5.702502 8.618808 0.904154
-5.018107 7.587286 -1.440762
-5.038173 7.620515 1.121686
-5.094851 7.709168 -1.134604
-5.071843 7.677266 1.457344
-5.027666 7.610394 -0.797998
-5.032896 7.621204 1.775287
-5.016385 7.599084 -0.477199
-5.043493 7.643050 2.114090
-5.020950 7.611777 -0.159166
-5.044995 7.651134 2.455675
-3.590974 5.460501 -1.751170
-11.523966 17.530216 0.366186
-4.246504 6.462223 -1.785212
-5.183351 7.890893 0.494784
-5.001326 7.613787 -1.770708
-5.661448 8.622005 0.902411
-4.978584 7.584941 -1.437007
-5.005010 7.628096 1.120223
-5.040694 7.685406 -1.128510
-5.032015 7.675101 1.453589
-4.992329 7.614570 -0.796603
-4.995502 7.622303 1.771471
-4.982169 7.604853 -0.476467
-4.999699 7.634525 2.106892
-4.980113 7.607506 -0.158712
-5.010853 7.657381 2.452052
-3.567667 5.466532 -1.749099
-11.517340 17.654074 0.367932
-4.221790 6.473743 -1.784312
-5.144865 7.892208 0.493737
-4.970427 7.624620 -1.769181
-5.795566 8.893774 0.928732
-4.943452 7.589030 -1.434504
-4.967518 7.628886 1.117786
-4.994342 7.673009 -1.124123
-4.992267 7.672750 1.449835
-4.951594 7.610240 -0.794337
-4.958159 7.623238 1.767655
-4.946881 7.608804 -0.475629
-4.968772 7.645394 2.105092
-4.946989 7.614784 -0.158503
-4.965153 7.645663 2.442734
-3.546464 5.475708 -1.748064
-11.505631 17.771387 0.369537
-4.199168 6.488440 -1.784312
-8.722277 13.482582 0.841562
-4.938451 7.633681 -1.767273
-5.889991 9.108022 0.948952
-4.901920 7.583014 -1.430124
-4.934396 7.636176 1.116323
-4.965375 7.687060 -1.123635
-4.959026 7.680171 1.447958
-4.908791 7.602370 -0.791723
-4.923003 7.627301 1.764602
-4.913796 7.615954 -0.475001
-4.934663 7.651228 2.101943
-4.910627 7.616878 -0.158189
-4.929017 7.648332 2.438075
-3.525241 5.484804 -1.747029
-11.502974 17.903976 0.371457
-4.167014 6.488302 -1.780263
-8.716166 13.576812 0.845540
-4.903292 7.637655 -1.764220
-5.593445 8.716034 0.906071
-4.865819 7.585116 -1.427308
-4.884134 7.616591 1.110961
-4.897802 7.640841 -1.114373
-4.921527 7.680803 1.444829
-4.872547 7.604362 -0.790154
-4.882581 7.622949 1.759641
-4.872102 7.609513 -0.473536
-4.894267 7.647070 2.096094
-4.878619 7.625552 -0.158014
-4.892920 7.650845 2.433417
-3.507111 5.498705 -1.747546
-11.514587 18.060362 0.373865
-4.146436 6.506094 -1.781162
-8.719154 13.686327 0.850459
-4.869215 7.643135 -1.761549
-5.534093 8.690129 0.901365
-4.834010 7.593721 -1.425744
-4.846862 7.616845 1.108524
-4.896673 7.698089 -1.120223
-4.884089 7.681265 1.441700
-4.833147 7.601147 -0.788062
-4.842253 7.618405 1.754680
-4.835872 7.611300 -0.472594
-4.845605 7.629560 2.086646
-4.841255 7.625651 -0.157665
-4.854798 7.649934 2.427723
-3.487894 5.510915 -1.747546
-11.515627 18.201836 0.375960
-4.122660 6.518880 -1.780712
-8.719349 13.792651 0.855170
-4.827817 7.636854 -1.756206
-5.496275 8.697602 0.900144
-4.795866 7.592179 -1.422302
-4.811764 7.620291 1.106574
-4.846463 7.678203 -1.114861
-4.839325 7.669868 1.436381
-4.801266 7.609547 -0.787191
-4.812487 7.630281 1.753535
-4.797559 7.609549 -0.471442
-4.812708 7.636539 2.083947
-4.799683 7.618818 -0.157176
-4.819831 7.653756 2.423582
-3.461445 5.511604 -1.743923
-11.516871 18.345236 0.378089
-4.098843 6.531581 -1.780263
-8.712546 13.888988 0.859252
-4.795916 7.645343 -1.754298
-5.441535 8.677914 0.896135
-4.760944 7.595483 -1.419799
-4.778812 7.626947 1.105111
-4.858616 7.757320 -1.123879
-4.803091 7.671644 1.433566
-4.763046 7.607684 -0.785273
-4.776451 7.632056 1.750100
-4.758254 7.605931 -0.470186
-4.777758 7.640072 2.080347
-4.762460 7.618568 -0.156827
-4.775681 7.642684 2.414782
-3.442187 5.523652 -1.743923
-11.509854 18.476984 0.379974
-4.074989 6.544194 -1.779813
-7.519927 12.076562 0.745578
-4.758826 7.645370 -1.750482
-5.403840 8.685014 0.894915
-4.720841 7.590248 -1.415732
-4.747969 7.636837 1.104136
-4.805311 7.732085 -1.117786
-4.767195 7.670753 1.430437
-4.729103 7.612416 -0.784053
-4.730103 7.616992 1.742849
-4.723247 7.608921 -0.469349
-4.745924 7.648423 2.078098
-4.725574 7.615628 -0.156443
-4.740129 7.642061 2.409606
-3.422883 5.535635 -1.743923
-11.509520 18.613693 0.381998
-4.047116 6.547727 -1.777113
-7.475622 12.099341 0.745369
-4.720759 7.643561 -1.746284
-5.357793 8.678393 0.892300
-4.683190 7.585692 -1.411978
-4.706979 7.627202 1.100480
-4.776519 7.742908 -1.117054
-4.732097 7.673894 1.427934
-4.692046 7.611918 -0.782310
-4.696575 7.619266 1.739796
-4.681227 7.597335 -0.467674
-4.706225 7.640890 2.071799
-4.686378 7.611643 -0.156025
-4.703297 7.642109 2.404429
-3.402487 5.543661 -1.742887
-11.517681 18.773069 0.384442
-4.020162 6.555168 -1.775314
-7.450047 12.152605 0.747044
-4.689232 7.649130 -1.743994
-5.328987 8.696112 0.892300
-4.648430 7.588517 -1.409475
-4.669961 7.626655 1.098043
-4.717338 7.707046 -1.109499
-4.701159 7.683626 1.426683
-4.664699 7.624035 -0.781961
-4.659708 7.618865 1.735980
-4.649471 7.605108 -0.467151
-4.671396 7.643968 2.068200
-4.654566 7.619425 -0.155850
-4.672563 7.651886 2.402359
-3.382112 5.553854 -1.742370
-11.522779 18.929312 0.386815
-3.995228 6.565833 -1.774414
-7.427304 12.210956 0.749032
-4.646181 7.638614 -1.737888
-5.290316 8.701042 0.890906
-4.613703 7.591194 -1.406972
-4.637125 7.632731 1.096580
-4.688344 7.720074 -1.109011
-4.654831 7.667906 1.420738
-4.618412 7.607913 -0.778649
-4.624935 7.621657 1.732927
-4.616679 7.611047 -0.466523
-4.629528 7.635233 2.061451
-4.615505 7.615103 -0.155431
-4.639820 7.658236 2.399253
-3.352713 5.549092 -1.737193
-11.518666 19.072121 0.388909
-3.971278 6.578069 -1.773964
-7.424877 12.303500 0.753114
-4.612386 7.643021 -1.735217
-5.257855 8.716043 0.890557
-4.581058 7.597102 -1.405095
-4.603282 7.636970 1.094874
-4.644977 7.709187 -1.105111
-4.622942 7.675646 1.419174
-4.581550 7.606920 -0.776906
-4.593241 7.629344 1.731019
-4.582876 7.615136 -0.465790
-4.598827 7.644669 2.059652
-4.578592 7.614030 -0.155082
-4.598132 7.649548 2.391488
-3.327362 5.550820 -1.734088
-11.521919 19.228853 0.391283
-3.949292 6.593565 -1.774414
-7.427024 12.404743 0.757720
-4.581642 7.652337 -1.733691
-5.245818 8.765115 0.893695
-4.538283 7.585925 -1.400089
-4.565387 7.634254 1.092193
-4.580354 7.662309 -1.096093
-4.590039 7.681563 1.417296
-4.546791 7.609185 -0.775512
-4.552486 7.621737 1.725677
-4.548077 7.617367 -0.464953
-4.559133 7.638920 2.053803
-4.546861 7.621381 -0.154908
-4.560519 7.647299 2.385794
-3.309942 5.565722 -1.735123
-11.524206 19.385843 0.393656
-3.917294 6.592232 -1.770365
-7.429581 12.507864 0.762430
-4.545881 7.653091 -1.730256
-4.507744 7.594924 -1.398837
-4.522505 7.622826 1.088293
-4.574841 7.714108 -1.101211
-4.552119 7.678846 1.413855
-4.515124 7.616439 -0.774640
-4.519850 7.627446 1.723387
-4.510261 7.614295 -0.463801
-4.525492 7.643049 2.050654
-4.508009 7.616554 -0.154489
-4.527893 7.653196 2.382688
-3.291476 5.578905 -1.735641
-11.525537 19.543083 0.396030
-3.894260 6.605865 -1.770365
-7.421367 12.593946 0.766094
-4.512164 7.657073 -1.727585
-4.650573 7.895109 0.801659
-4.477198 7.603803 -1.397586
-4.484795 7.619746 1.085612
-4.544865 7.724898 -1.100480
-4.518279 7.682769 1.411665
-4.475381 7.609827 -0.772374
-4.488224 7.634713 1.721479
-4.472522 7.611051 -0.462650
-4.486938 7.638637 2.045255
-4.478355 7.627071 -0.154384
-4.491370 7.652297 2.377512
-3.269053 5.585359 -1.734088
-11.519861 19.690205 0.398194
-3.868225 6.614372 -1.769015
-7.427756 12.705990 0.771327
-4.473516 7.652439 -1.723005
-4.612935 7.894091 0.799915
-4.442656 7.605740 -1.395083
-4.452162 7.625070 1.084150
-4.488855 7.690995 -1.093412
-4.477495 7.674608 1.407285
-4.444772 7.618519 -0.771677
-4.451654 7.633376 1.717663
-4.442911 7.621440 -0.462336
-4.447495 7.632363 2.039406
-4.437615 7.618466 -0.153895
-4.460745 7.661249 2.375441
-3.241778 5.583370 -1.729947
-11.525342 19.858276 0.400777
-3.841203 6.621091 -1.767215
-7.424441 12.802675 0.775619
-4.436930 7.651023 -1.719189
-4.573362 7.889459 0.797824
-4.408158 7.607527 -1.392580
-4.418552 7.628541 1.082444
-4.490828 7.756437 -1.100480
-4.440786 7.673093 1.404156
-4.404181 7.609845 -0.769237
-4.416131 7.633574 1.714228
-4.405284 7.617883 -0.461184
-4.417898 7.642781 2.038057
-4.400988 7.616596 -0.153546
-4.421416 7.655025 2.368712
-3.224195 5.598001 -1.730982
-11.510825 19.993706 0.402697
-3.814178 6.627704 -1.765416
-4.538748 7.886754 0.476885
-4.404320 7.656254 -1.716899
-4.537848 7.891559 0.796429
-4.367793 7.598893 -1.388200
-4.386953 7.635312 1.081225
-4.447905 7.744524 -1.096580
-4.410395 7.679214 1.402592
-4.360725 7.595800 -0.766273
-4.370894 7.616590 1.706977
-4.368725 7.615890 -0.460138
-4.392163 7.659845 2.038507
-4.368745 7.619004 -0.153302
-4.390240 7.659589 2.365606
-3.208469 5.615930 -1.733052
-4.510530 7.894985 0.158712
-3.787348 6.631854 -1.763166
-4.518124 7.914690 0.477618
-4.369785 7.657939 -1.713846
-4.334742 7.599608 -1.385697
-4.349813 7.629123 1.078300
-4.419252 7.754057 -1.095849
-4.374760 7.679115 1.399776
-4.336158 7.614437 -0.766622
-4.335898 7.613981 1.703161
-4.327639 7.602562 -0.458463
-4.354208 7.652351 2.032658
-4.335205 7.622040 -0.153058
-4.348201 7.647996 2.357324
-3.185064 5.618137 -1.730464
-4.476044 7.898502 0.158468
-3.760331 6.638253 -1.761367
-7.420145 13.104388 0.789226
-4.335659 7.657014 -1.710412
-4.318172 7.629230 0.766971
-4.297486 7.595781 -1.382255
-4.316313 7.632166 1.076594
-4.392156 7.769437 -1.095849
-4.336268 7.673702 1.396021
-4.320683 7.646122 -0.768365
-4.304464 7.620523 1.701253
-4.300091 7.615884 -0.458358
-4.317893 7.650533 2.028159
-4.301692 7.624936 -0.152813
-4.312935 7.647984 2.352665
-3.161647 5.622484 -1.728394
-4.288731 7.629940 0.152778
-3.734275 6.646241 -1.760017
-4.279867 7.620397 0.458044
-4.296408 7.649848 -1.705451
-4.287612 7.637309 0.766273
-4.268047 7.605567 -1.381317
-4.279935 7.629871 1.074156
-4.345593 7.750091 -1.090974
-4.301731 7.675004 1.393518
-4.271564 7.621182 -0.764356
-4.265364 7.613235 1.696292
-4.260795 7.608193 -0.456998
-4.270221 7.628147 2.018261
-4.260405 7.613729 -0.152290
-4.277727 7.647817 2.348006
-3.137297 5.625050 -1.725805
-4.255252 7.632638 0.152534
-3.709156 6.655829 -1.759117
-4.263933 7.654481 0.459196
-4.265858 7.657938 -1.703924
-4.251232 7.634823 0.764530
-4.229942 7.599708 -1.377562
-4.252312 7.643029 1.073913
-4.313688 7.756539 -1.089756
-4.267233 7.676162 1.391015
-4.247837 7.641271 -0.764879
-4.235905 7.622930 1.695147
-4.231300 7.617784 -0.456684
-4.238836 7.634489 2.016011
-4.227977 7.618063 -0.152080
-4.241631 7.645811 2.342830
-3.112031 5.625825 -1.722700
-4.213103 7.619444 0.151976
-3.684013 6.665327 -1.758217
-4.214972 7.629112 0.456788
-4.230555 7.657317 -1.700490
-4.221668 7.644383 0.764007
-4.191934 7.593674 -1.373808
-4.216014 7.640447 1.071475
-4.278918 7.757643 -1.087806
-4.231830 7.675441 1.388200
-4.193243 7.605453 -0.759824
-4.200739 7.622195 1.691713
-4.196975 7.618510 -0.455846
-4.204642 7.635581 2.012412
-4.194611 7.620512 -0.151836
-4.207468 7.647028 2.338689
-3.094231 5.640042 -1.723735
-4.180713 7.623583 0.151766
-3.651359 6.661057 -1.753718
-4.190233 7.647283 0.456998
-4.200024 7.665151 -1.698963
-4.184432 7.639849 0.762090
-4.155916 7.590931 -1.370679
-4.175022 7.628997 1.067819
-4.255624 7.779497 -1.088781
-4.200272 7.681502 1.386635
-4.182917 7.649763 -0.762787
-4.166572 7.623032 1.688660
-4.156950 7.608575 -0.454381
-4.174225 7.643373 2.010612
-4.161276 7.622822 -0.151592
-4.173348 7.648102 2.334548
-3.076373 5.654202 -1.724770
-4.148342 7.627591 0.151557
-3.628083 6.673763 -1.753718
-4.152071 7.640802 0.455742
-4.163870 7.662515 -1.695147
-4.153932 7.647407 0.761393
-4.121851 7.591506 -1.368176
-4.139846 7.627821 1.065626
-4.218975 7.776858 -1.086343
-4.165901 7.682224 1.384132
-4.180885 7.709855 -0.767319
-4.138068 7.634077 1.687896
-4.120850 7.605480 -0.453334
-4.135457 7.635619 2.004764
-4.131787 7.632024 -0.151487
-4.141108 7.652430 2.331442
-3.052949 5.658105 -1.722700
-4.115048 7.629705 0.151312
-3.606616 6.689816 -1.754618
-4.114954 7.635910 0.454590
-4.127785 7.659719 -1.691331
-4.123435 7.654843 0.760695
-4.091583 7.598890 -1.366925
-4.106611 7.629989 1.063919
-4.180515 7.770560 -1.083418
-4.125963 7.672361 1.379752
-4.094498 7.613852 -0.756338
-4.103030 7.632910 1.684462
-4.090494 7.612782 -0.452915
-4.098637 7.631123 1.999815
-4.089043 7.616448 -0.150894
-4.105233 7.649817 2.326266
-3.034090 5.670432 -1.723217
-4.082729 7.633443 0.151103
-3.577728 6.692055 -1.751919
-4.080742 7.636135 0.453753
-4.089917 7.653304 -1.686752
-4.076973 7.632287 0.757035
-4.063170 7.609642 -1.366299
-4.072473 7.630269 1.061970
-4.153367 7.785104 -1.083418
-4.093577 7.676260 1.377875
-4.051956 7.598212 -0.753374
-4.071742 7.638525 1.682554
-4.052626 7.605861 -0.451659
-4.068307 7.638504 1.998015
-4.053032 7.613026 -0.150544
-4.066709 7.641929 2.319536
-3.007035 5.667335 -1.719076
-4.047628 7.631748 0.150789
-3.552523 6.701058 -1.751019
-4.050722 7.640801 0.453229
-4.061340 7.664063 -1.685988
-4.046578 7.639428 0.756338
-4.025492 7.602828 -1.362544
-4.039314 7.632154 1.060263
-4.122886 7.790061 -1.082200
-4.060711 7.675823 1.375372
-4.017959 7.598218 -0.751980
-4.027624 7.619712 1.675303
-4.024188 7.616428 -0.451450
-4.043867 7.653675 1.998465
-4.024030 7.619349 -0.150405
-4.043150 7.658789 2.320572
-2.987327 5.675565 -1.718559
-4.016709 7.634511 0.150579
-3.523023 6.699005 -1.747420
-4.015133 7.634748 0.452078
-4.024942 7.656635 -1.681409
-4.015660 7.642224 0.755292
-3.990152 7.596900 -1.359103
-4.005680 7.629688 1.058070
-4.090573 7.791387 -1.080494
-4.028807 7.677004 1.373182
-3.989037 7.604445 -0.751283
-4.014184 7.655632 1.680264
-3.987780 7.608504 -0.450194
-4.018462 7.667044 1.998465
-3.991315 7.618482 -0.150126
-4.015039 7.667021 2.319019
-2.966699 5.682016 -1.717523
-3.987671 7.640697 0.150440
-3.498086 6.705467 -1.746070
-3.981072 7.634550 0.451241
-3.994559 7.663675 -1.679883
-3.984771 7.644896 0.754246
-3.963114 7.606584 -1.358477
-3.980355 7.642931 1.058070
-4.039517 7.759838 -1.074156
-4.007457 7.701532 1.375059
-3.960630 7.614786 -0.750934
-3.968420 7.633016 1.672250
-3.957515 7.615289 -0.449775
-3.968313 7.636065 1.986768
-3.972074 7.646564 -0.150405
-3.973120 7.651843 2.310219
-2.948516 5.697999 -1.719076
-3.953210 7.642827 0.150195
-3.470803 6.713048 -1.744720
-3.943891 7.631346 0.450194
-3.953830 7.653844 -1.674540
-3.949410 7.645288 0.752851
-3.930678 7.612282 -1.356913
-3.940477 7.634537 1.054901
-4.016511 7.785176 -1.075619
-3.957472 7.674035 1.367550
-3.938169 7.639878 -0.751980
-3.935922 7.638783 1.670342
-3.943293 7.656377 -0.451345
-3.935835 7.641896 1.984518
-3.932120 7.637959 -0.149951
-3.938862 7.654328 2.306596
-2.918797 5.691577 -1.713900
-3.918784 7.644810 0.149951
-3.443507 6.720522 -1.743371
-3.915409 7.641511 0.449985
-3.920822 7.655367 -1.671868
-3.915005 7.647298 0.751631
-3.910848 7.642466 -1.359729
-3.907951 7.640092 1.053682
-3.967614 7.756735 -1.069769
-3.926166 7.679007 1.365986
-3.892439 7.616321 -0.748319
-3.899407 7.633244 1.666144
-3.892929 7.623846 -0.448624
-3.904706 7.646910 1.982269
-3.886346 7.614234 -0.149218
-3.898070 7.640498 2.298313
-2.898157 5.697781 -1.712865
-3.880725 7.632806 0.149462
-3.422969 6.735378 -1.744270
-3.886430 7.647330 0.449566
-3.898973 7.675328 -1.673395
-3.881504 7.644251 0.750062
-3.856875 7.599024 -1.349717
-3.876308 7.640616 1.051976
-3.938279 7.762766 -1.068794
-3.895317 7.681415 1.364109
-3.858154 7.611415 -0.746576
-3.865202 7.628620 1.662328
-3.862210 7.626024 -0.447996
-3.873161 7.647648 1.979119
-3.859270 7.623511 -0.149148
-3.870097 7.648211 2.296760
-2.880985 5.710810 -1.713900
-3.845487 7.625995 0.149078
-3.394473 6.734512 -1.741121
-3.853419 7.648365 0.448833
-3.857597 7.656657 -1.666526
-3.850758 7.646404 0.749016
-3.828989 7.606481 -1.348778
-3.834887 7.621511 1.047589
-3.908480 7.771148 -1.068063
-3.863158 7.684374 1.362231
-3.831101 7.620608 -0.746227
-3.838118 7.637887 1.661565
-3.822558 7.610233 -0.446321
-3.838574 7.645446 1.975070
-3.822767 7.617277 -0.148764
-3.838177 7.651313 2.293654
-2.859307 5.717376 -1.712865
-3.816162 7.634004 0.148974
-3.366591 6.737603 -1.738872
-3.818668 7.645688 0.447891
-3.828217 7.664806 -1.665381
-3.818706 7.649103 0.747971
-3.798887 7.612729 -1.347527
-3.806489 7.631296 1.047101
-3.862731 7.747434 -1.062944
-3.831025 7.687203 1.360354
-3.798257 7.621451 -0.745007
-3.801805 7.631907 1.657367
-3.789736 7.611015 -0.445588
-3.802313 7.639607 1.970121
-3.791702 7.621621 -0.148590
-3.806282 7.654287 2.290549
-2.838475 5.725591 -1.712347
-3.785050 7.638321 0.148799
-3.343050 6.749314 -1.738872
-3.785755 7.646441 0.447158
-3.790116 7.655249 -1.660420
-3.790212 7.658815 0.747622
-3.763530 7.608238 -1.344398
-3.776310 7.637419 1.046127
-3.833023 7.755534 -1.062213
-3.794543 7.681049 1.356913
-3.768098 7.627519 -0.744310
-3.772532 7.639851 1.656222
-3.760495 7.618824 -0.445274
-3.767861 7.637106 1.966072
-3.753575 7.611498 -0.148136
-3.774417 7.657129 2.287443
-2.815062 5.728529 -1.710276
-3.750431 7.635331 0.148485
-3.318613 6.759193 -1.738422
-3.751999 7.645267 0.446321
-3.753854 7.649046 -1.656222
-3.753804 7.652321 0.745705
-3.730863 7.608913 -1.342208
-3.746131 7.643425 1.045152
-3.797196 7.751039 -1.059776
-3.759022 7.676507 1.353784
-3.728308 7.613784 -0.741695
-3.738075 7.637103 1.652788
-3.728613 7.621139 -0.444646
-3.734332 7.636206 1.962473
-3.725228 7.620958 -0.148066
-3.739187 7.652900 2.282267
-2.791663 5.731374 -1.708206
-3.719381 7.639386 0.148311
-3.295000 6.770735 -1.738422
-3.726628 7.657666 0.446321
-3.723694 7.655042 -1.654696
-3.720973 7.652834 0.744484
-3.699961 7.613007 -1.340644
-3.715956 7.649314 1.044177
-3.764049 7.751745 -1.058070
-3.724918 7.671159 1.350655
-3.696487 7.615999 -0.740649
-3.702822 7.632442 1.648971
-3.696760 7.623324 -0.444018
-3.702553 7.638675 1.959774
-3.695572 7.624274 -0.147892
-3.703678 7.644396 2.276055
-2.770801 5.739344 -1.707688
-3.688809 7.640874 0.148101
-3.265752 6.767585 -1.734823
-3.692063 7.654438 0.445379
-3.696099 7.666224 -1.654314
-3.689910 7.656803 0.743613
-3.662691 7.600321 -1.336263
-3.678510 7.636555 1.040764
-3.728848 7.744512 -1.055389
-3.697260 7.682336 1.350342
-3.665563 7.619878 -0.739778
-3.672387 7.634062 1.646682
-3.661937 7.615744 -0.442867
-3.674670 7.645640 1.958424
-3.667206 7.633521 -0.147822
-3.682827 7.669467 2.279678
-2.753423 5.751985 -1.708723
-3.655211 7.639272 0.147822
-3.238747 6.771910 -1.733023
-3.655848 7.647456 0.444228
-3.663393 7.666678 -1.651643
-3.660206 7.660008 0.742741
-3.634433 7.609495 -1.335638
-3.650978 7.647557 1.040521
-3.700938 7.755688 -1.055145
-3.656812 7.666668 1.345337
-3.634653 7.623636 -0.738906
-3.640161 7.638610 1.644774
-3.627126 7.614689 -0.442030
-3.646281 7.654903 1.957524
-3.633659 7.631834 -0.147543
-3.649394 7.668320 2.275537
-2.728182 5.753311 -1.706135
-3.623760 7.645392 0.147682
-3.214737 6.785497 -1.733473
-3.620953 7.646364 0.443390
-3.630227 7.669408 -1.649353
-3.635513 7.680576 0.743438
-3.603141 7.615622 -1.334386
-3.624619 7.664477 1.041008
-3.670789 7.765612 -1.054657
-3.618563 7.658587 1.341582
-3.600733 7.624294 -0.737686
-3.607109 7.641249 1.642484
-3.597490 7.624318 -0.441820
-3.604065 7.638254 1.949876
-3.594575 7.621587 -0.147089
-3.608905 7.655433 2.267772
-2.704614 5.758026 -1.704582
-3.600815 7.669481 0.147892
-3.187361 6.791943 -1.732123
-3.607814 7.687888 0.445065
-3.595098 7.664258 -1.645537
-3.624256 7.729928 0.746925
-3.571849 7.621624 -1.333135
-3.592294 7.668721 1.039789
-3.641977 7.774782 -1.054170
-3.583433 7.653281 1.338454
-3.568183 7.624185 -0.736466
-3.577920 7.648458 1.641339
-3.572547 7.640447 -0.442030
-3.579034 7.654319 1.950776
-3.567100 7.632277 -0.147054
-3.573986 7.650481 2.262596
-2.682241 5.759958 -1.702512
-3.596456 7.726704 0.148764
-3.162359 6.797172 -1.730773
-3.612636 7.764998 0.448833
-3.563866 7.663678 -1.642866
-3.622955 7.794300 0.751980
-3.534904 7.608345 -1.328755
-3.569350 7.685994 1.040521
-3.617845 7.790418 -1.054657
-3.553041 7.654372 1.336576
-3.540366 7.630553 -0.735943
-3.534363 7.621098 1.632944
-3.535430 7.626885 -0.440564
-3.546253 7.650233 1.946726
-3.533366 7.625920 -0.146705
-3.542911 7.650021 2.258973
-2.663937 5.770575 -1.703029
-3.599301 7.800321 0.149951
-3.135718 6.798775 -1.728524
-3.612264 7.835604 0.452183
-3.538434 7.675454 -1.642866
-3.625440 7.867795 0.757906
-3.506351 7.612847 -1.327503
-3.548826 7.708606 1.041983
-3.569885 7.757916 -1.048564
-3.523001 7.659548 1.335325
-3.502556 7.615099 -0.733328
-3.505793 7.625641 1.631417
-3.503448 7.624048 -0.439727
-3.515458 7.653711 1.944477
-3.501720 7.627303 -0.146495
-3.513770 7.657072 2.257420
-2.644579 5.781596 -1.703547
-3.602817 7.880126 0.151243
-3.109538 6.804361 -1.727174
-3.609784 7.902668 0.455323
-3.506724 7.677044 -1.640576
-3.628573 7.947461 0.764356
-3.476473 7.617853 -1.326252
-3.523541 7.724561 1.042470
-3.523840 7.728788 -1.042958
-3.487229 7.652027 1.331883
-3.477604 7.630906 -0.733677
-3.473454 7.625326 1.628746
-3.468536 7.618054 -0.438680
-3.482264 7.651746 1.940878
-3.473416 7.635839 -0.146426
-3.481421 7.656982 2.253796
-2.623586 5.789032 -1.703029
-3.603341 7.954587 0.152429
-3.081747 6.806299 -1.724925
-3.614294 7.986183 0.459405
-3.466427 7.663014 -1.634852
-3.627084 8.018168 0.769934
-3.443352 7.615542 -1.323749
-3.501463 7.747666 1.043933
-3.496025 7.739232 -1.042714
-3.447493 7.635347 1.326877
-3.446335 7.636336 -0.732980
-3.445484 7.638005 1.628746
-3.438130 7.625252 -0.438366
-3.447525 7.646090 1.936379
-3.431132 7.613277 -0.145763
-3.453087 7.665565 2.252761
-2.594439 5.780985 -1.697853
-3.606079 8.038898 0.153791
-3.051201 6.805100 -1.721775
-3.612769 8.061346 0.462964
-3.434302 7.666709 -1.632944
-3.623734 8.089596 0.775512
-3.413803 7.624505 -1.323123
-3.469797 7.753201 1.042958
-3.453043 7.719377 -1.038327
-3.420292 7.649734 1.327190
-3.408566 7.627089 -0.730888
-3.414262 7.643414 1.627219
-3.407718 7.632331 -0.438052
-3.421862 7.664011 1.937728
-3.397498 7.613021 -0.145518
-3.413162 7.651706 2.244997
-2.570096 5.783393 -1.695783
-3.601757 8.108714 0.154873
-3.030190 6.825144 -1.724025
-3.614595 8.141447 0.466837
-3.405132 7.673266 -1.631799
-3.626375 8.175673 0.782484
-3.375425 7.613491 -1.319056
-3.446184 7.776754 1.044420
-3.409189 7.693269 -1.033208
-3.383167 7.638147 1.323123
-3.379504 7.633474 -0.730365
-3.371673 7.619378 1.619587
-3.376206 7.633222 -0.437424
-3.385628 7.654523 1.932330
-3.370096 7.623004 -0.145483
-3.380186 7.649436 2.240855
-2.550905 5.791883 -1.695783
-3.604660 8.188330 0.156164
-2.994981 6.806616 -1.716826
-3.617338 8.221030 0.470710
-3.373346 7.670138 -1.628746
-3.625704 8.247842 0.788237
-3.346184 7.615600 -1.317491
-3.422773 7.793591 1.045152
-3.412396 7.769964 -1.041983
-3.357027 7.647515 1.322810
-3.350968 7.637343 -0.729668
-3.342447 7.621526 1.617679
-3.341251 7.622426 -0.436168
-3.359442 7.663925 1.931880
-3.340784 7.624980 -0.145309
-3.351703 7.653525 2.238785
-2.533228 5.803852 -1.696818
-3.564690 8.170914 0.155606
-2.972394 6.816510 -1.716826
-3.465729 7.951647 0.454590
-3.347106 7.679484 -1.628364
-3.446345 7.910944 0.754943
-3.313815 7.610353 -1.314675
-3.396907 7.804900 1.045152
-3.355160 7.712656 -1.032721
-3.325584 7.648319 1.320933
-3.318731 7.636202 -0.728448
-3.320282 7.639771 1.619205
-3.312774 7.626135 -0.435749
-3.324910 7.657730 1.927381
-3.310966 7.629258 -0.145169
-3.321889 7.658089 2.236714
-2.510408 5.809551 -1.695783
-3.413994 7.900617 0.150230
-2.951674 6.833999 -1.718626
-3.412621 7.905017 0.451241
-3.307272 7.664660 -1.622640
-4.678213 10.847046 1.033493
-3.284338 7.618820 -1.314050
-3.375931 7.831291 1.047101
-3.325077 7.717028 -1.031746
-3.287929 7.634480 1.316553
-3.291269 7.645908 -0.728273
-3.284497 7.633856 1.615389
-3.285591 7.640059 -0.435854
-3.290665 7.655540 1.923781
-3.278788 7.627908 -0.144925
-3.289797 7.657214 2.233091
-2.484791 5.805847 -1.692159
-3.382652 7.907562 0.150126
-2.919710 6.828646 -1.714577
-5.980881 13.988144 0.797286
-3.279723 7.674354 -1.622258
-4.669277 10.931104 1.039942
-3.253067 7.619339 -1.312172
-3.347982 7.845440 1.047345
-3.283528 7.698123 -1.027602
-3.256607 7.635009 1.314675
-3.254400 7.633524 -0.726007
-3.256293 7.641662 1.614626
-3.251856 7.634945 -0.434912
-3.262394 7.663395 1.922882
-3.245090 7.622748 -0.144611
-3.253217 7.645541 2.226362
-2.461495 5.807370 -1.690088
-3.348609 7.900324 0.149777
-2.894770 6.832907 -1.713227
-5.983420 14.130321 0.804194
-3.251386 7.682138 -1.621495
-4.669906 11.039083 1.048658
-3.217009 7.604613 -1.307792
-3.326587 7.867468 1.048808
-3.259529 7.712627 -1.028090
-3.226863 7.639051 1.313424
-3.221536 7.630153 -0.724613
-3.225590 7.639756 1.611954
-3.221086 7.632805 -0.434179
-3.234693 7.668784 1.921532
-3.218463 7.634028 -0.144611
-3.229512 7.663971 2.228432
-2.442222 5.815501 -1.690088
-3.307852 7.880620 0.149183
-2.866379 6.832188 -1.710528
-5.991392 14.280846 0.811626
-3.219817 7.678396 -1.618442
-4.675629 11.155572 1.058245
-3.188156 7.610329 -1.306854
-3.299102 7.879033 1.048808
-3.234118 7.727620 -1.028577
-3.196936 7.638777 1.311547
-3.190066 7.626090 -0.723218
-3.192085 7.634668 1.608520
-3.185950 7.623732 -0.433028
-3.204146 7.671039 1.919282
-3.188504 7.633589 -0.144401
-3.195890 7.655029 2.222738
-2.418200 5.815072 -1.687500
-3.283238 7.895237 0.149253
-2.839217 6.830859 -1.707828
-5.986711 14.410495 0.817802
-3.189232 7.680521 -1.616534
-4.677141 11.269355 1.067483
-3.163657 7.622685 -1.307166
-3.274479 7.893597 1.049295
-3.202394 7.723633 -1.026627
-3.165716 7.638940 1.309669
-3.157325 7.622454 -0.721824
-3.162244 7.634329 1.606230
-3.158360 7.628718 -0.432714
-3.170496 7.661814 1.914333
-3.161840 7.644671 -0.144401
-3.162509 7.650070 2.218079
-2.398901 5.823059 -1.687500
-3.255660 7.906649 0.149253
-2.816841 6.844332 -1.708728
-5.987276 14.555061 0.824815
-3.157768 7.676531 -1.613481
-4.682174 11.387994 1.077245
-3.132527 7.622720 -1.305289
-3.252937 7.919670 1.051245
