# This PCD file was generated using the MATLAB® pcwrite function
# from Computer Vision Toolbox®.
# .PCD v.7 - Point Cloud Data file format
VERSION .7
FIELDS x y z
SIZE 4 4 4
TYPE F F F
COUNT 1 1 1
WIDTH 1667
HEIGHT 1
VIEWPOINT 0 0 0 1 0 0 0
POINTS 1667
DATA ascii
5.041009 -6.981823 1.988117
5.785979 -8.016559 -0.172569
5.734139 -7.947656 2.625978
2.813126 -3.909117 -1.290472
5.692805 -7.913629 0.170161
3.161731 -4.396774 -1.250278
5.756553 -8.008141 0.516870
3.610788 -5.023093 -1.202478
5.535336 -7.703235 0.829897
4.232890 -5.892859 -1.149168
5.767104 -8.031689 1.214063
4.252799 -5.924939 -0.895496
5.353937 -7.464529 1.785591
5.784006 -8.067110 -0.520219
5.050665 -7.046896 2.001615
5.763785 -8.044834 -0.172744
5.683865 -7.936211 2.615625
2.798341 -3.917342 -1.289954
5.752303 -8.055506 0.172779
3.155422 -4.420473 -1.253877
5.699562 -7.987541 0.514253
3.603495 -5.050049 -1.205913
5.621798 -7.881469 0.846979
4.184770 -5.868997 -1.141659
4.925590 -6.910524 1.041983
4.211356 -5.910647 -0.891109
5.635951 -7.912990 1.538690
5.207122 -7.310905 -0.785273
5.697917 -8.002949 1.909616
5.768551 -8.105150 -0.521371
7.024475 -9.873445 2.797491
5.754211 -8.090978 -0.173302
7.019507 -9.873756 3.246109
2.791354 -3.936541 -1.293060
5.738026 -8.095113 0.173198
3.135466 -4.425101 -1.252078
5.727057 -8.085620 0.519277
3.589250 -5.067403 -1.207058
5.694417 -8.042512 0.862145
4.152845 -5.867445 -1.138530
4.918636 -6.951983 1.045639
4.167774 -5.892898 -0.886234
5.677856 -8.031006 1.557775
5.157416 -7.294873 -0.781613
5.662014 -8.011565 1.906945
7.000976 -9.909819 -0.635882
6.961864 -9.858109 2.786244
5.755918 -8.153490 -0.174210
6.956038 -9.857161 3.232650
2.782044 -3.952579 -1.295130
3.121121 -4.437613 -1.252527
5.923947 -8.425797 0.539793
3.574927 -5.084719 -1.208203
5.415414 -7.705354 0.823970
4.127797 -5.875440 -1.137279
4.943397 -7.038963 1.056120
4.156303 -5.920408 -0.888184
4.891793 -6.970657 1.348778
5.128487 -7.307939 -0.781090
6.942259 -9.899857 -0.633684
5.545955 -7.911624 2.230615
6.943824 -9.909445 -0.211209
5.576063 -7.960485 2.604237
2.770443 -3.965434 -1.296166
3.106727 -4.450078 -1.252977
5.172118 -7.411300 0.473640
3.548168 -5.084288 -1.205150
5.675748 -8.135994 0.867897
4.084664 -5.857407 -1.131021
5.777002 -8.287302 1.240386
4.196897 -6.022828 -0.901346
4.851624 -6.964997 1.344398
5.114335 -7.342145 -0.782833
5.987380 -8.598688 2.036695
6.893968 -9.904359 -0.632428
6.856143 -9.853683 2.771397
6.904625 -9.927057 -0.211069
5.417007 -7.791150 2.542638
2.751080 -3.967143 -1.293578
6.957377 -10.036497 0.213164
3.100055 -4.473710 -1.256577
6.301699 -9.097414 0.579987
3.535988 -5.104711 -1.207058
5.851475 -8.450603 0.899273
4.050703 -5.852139 -1.127267
5.675751 -8.202942 1.224787
4.146488 -5.994993 -0.895009
6.132681 -8.869941 1.707952
5.112469 -7.394367 -0.786493
6.870405 -9.940648 2.348859
6.835512 -9.893855 -0.630230
6.794020 -9.837468 2.760149
5.680446 -8.228127 -0.174524
2.741596 -3.983087 -1.295648
5.607438 -8.149728 0.172674
3.087732 -4.489321 -1.257926
3.522597 -5.123494 -1.208584
6.056669 -8.812509 0.935530
4.021301 -5.853218 -1.124764
6.946192 -10.114335 1.506549
4.132277 -6.019249 -0.896471
6.126273 -8.927126 1.714835
5.041533 -7.346457 -0.779521
6.806788 -9.922479 2.338937
6.782862 -9.891299 -0.628555
5.066149 -7.390618 2.068650
5.622301 -8.205017 -0.173617
5.305713 -7.745899 2.515721
2.732035 -3.999014 -1.297719
5.592489 -8.189068 0.173093
3.066549 -4.492023 -1.255677
5.026677 -7.366070 0.467360
3.506904 -5.139002 -1.209347
3.971910 -5.824785 -1.116629
4.124654 -6.053323 -0.899396
4.814007 -7.067664 1.354410
5.043899 -7.405179 -0.783879
5.961093 -8.755038 2.058829
6.721323 -9.875289 -0.626043
6.724946 -9.888031 -0.208731
5.253663 -7.727627 2.503816
2.715891 -4.005328 -1.296683
3.050851 -4.502701 -1.255677
4.971813 -7.340577 0.464639
3.491147 -5.154464 -1.210111
5.353836 -7.907581 0.835475
3.938267 -5.818983 -1.112875
5.338151 -7.890346 1.169702
4.134636 -6.113726 -0.906220
5.728821 -8.474171 -0.894915
6.029430 -8.922192 2.093175
6.665568 -9.867245 -0.624054
5.757106 -8.525627 2.375033
6.674726 -9.888241 -0.208242
5.723712 -8.482558 2.741929
2.708365 -4.024400 -1.299789
3.038377 -4.518174 -1.257027
3.473133 -5.166619 -1.210111
3.898104 -5.803179 -1.107243
5.489845 -8.175914 1.209188
4.051318 -6.035820 -0.892571
5.374288 -8.009858 1.527739
4.330464 -6.454139 -0.679989
5.499579 -8.199685 1.919157
6.618850 -9.872205 -0.622903
5.673065 -8.464731 2.352538
6.613457 -9.871608 -0.207404
5.637094 -8.417413 2.714494
2.692154 -4.030616 -1.298754
3.025833 -4.533615 -1.258376
3.455077 -5.178711 -1.210111
5.243227 -7.861886 0.826759
3.875633 -5.813463 -1.106618
6.242869 -9.367869 1.382242
4.019218 -6.033404 -0.890134
5.451403 -8.186410 1.557775
4.312325 -6.475849 -0.680686
5.510087 -8.277666 1.932895
6.567753 -9.870306 -0.621333
6.528481 -9.815000 2.721458
6.554600 -9.857998 -0.206636
5.613024 -8.445083 2.717082
2.673799 -4.033548 -1.296683
3.012141 -4.547399 -1.259276
50.246746 -75.885773 4.769795
3.440231 -5.195651 -1.211256
5.736997 -8.667657 0.909383
3.833517 -5.794008 -1.100360
5.765533 -8.717381 1.283284
3.997039 -6.045742 -0.889890
5.355268 -8.103213 1.538377
5.751815 -8.703240 -0.912695
6.558994 -9.928372 2.312987
6.512348 -9.861506 -0.619344
5.697572 -8.630984 2.387630
6.509135 -9.864127 -0.206287
6.453642 -9.783746 3.140511
2.665012 -4.050927 -1.299272
8.373600 -12.733053 0.266010
2.993038 -4.553001 -1.257926
5.110141 -7.776488 0.487667
3.424229 -5.210908 -1.212019
3.795920 -5.780934 -1.095354
3.935617 -5.998247 -0.880872
5.346451 -8.151589 1.544008
5.772758 -8.801568 -0.920888
6.524298 -9.951207 2.312987
6.457084 -9.852439 -0.617355
5.682360 -8.673641 2.393929
6.450562 -9.849986 -0.205520
6.415219 -9.799747 3.138440
2.651911 -4.061822 -1.299789
5.521405 -8.460132 0.176339
2.978191 -4.565053 -1.258376
5.058963 -7.757473 0.485364
3.414599 -5.235986 -1.215072
3.775717 -5.794149 -1.095354
5.466168 -8.391486 1.229662
3.920072 -6.020266 -0.882090
5.330895 -8.190069 1.547763
5.846340 -8.981968 -0.937621
5.470214 -8.407319 1.949686
6.399785 -9.839760 -0.615157
5.855996 -9.007113 2.480310
6.394346 -9.838908 -0.204821
4.718110 -7.262475 2.320572
2.640868 -4.075918 -1.301342
2.971770 -4.590143 -1.262425
3.385634 -5.231391 -1.211256
3.744742 -5.790706 -1.092226
5.395892 -8.347166 1.220400
3.899034 -6.033913 -0.882090
5.126496 -7.936500 1.496452
5.900354 -9.134536 -0.951392
6.429108 -9.956929 2.303828
6.348069 -9.835189 -0.613482
5.883683 -9.119199 2.505505
6.339370 -9.829239 -0.204158
6.298496 -9.769607 3.114629
2.623490 -4.080237 -1.299789
2.959943 -4.607047 -1.264225
5.017634 -7.812768 0.486620
3.371596 -5.249784 -1.212782
3.698901 -5.763843 -1.084717
5.323848 -8.299115 1.210650
3.905808 -6.090933 -0.888428
5.169119 -8.064108 1.517102
5.870583 -9.158430 -0.951741
6.392194 -9.976005 2.303065
6.299694 -9.835424 -0.612121
6.251113 -9.763325 2.676468
6.287774 -9.824358 -0.203600
6.241450 -9.755733 3.103240
2.612349 -4.094255 -1.301342
2.941748 -4.614064 -1.263325
4.943102 -7.756127 0.482014
3.355361 -5.264832 -1.213545
5.512056 -8.652196 0.897530
3.672392 -5.766722 -1.082839
5.407843 -8.495155 1.236487
3.932479 -6.179894 -0.899396
5.587285 -8.783807 1.648820
4.257030 -6.692503 -0.693934
5.687363 -8.944587 2.060356
6.255682 -9.842183 -0.611179
5.602506 -8.817927 2.411925
6.243793 -9.831056 -0.203286
6.186651 -9.744841 3.092888
2.598041 -4.103349 -1.301342
2.919373 -4.614424 -1.260626
5.163666 -8.164956 0.506298
3.345357 -5.289788 -1.216598
5.428590 -8.587179 0.888814
3.624804 -5.736088 -1.074705
5.488412 -8.688522 1.261835
3.891806 -6.163372 -0.895009
5.421630 -8.589438 1.608772
4.097520 -6.491664 -0.671622
5.461249 -8.655555 1.989375
6.199979 -9.830173 -0.609086
6.166171 -9.780353 2.669269
6.194511 -9.829106 -0.202797
5.319551 -8.444034 2.674119
2.591923 -4.125480 -1.305483
30.009405 -47.783493 0.984909
2.905320 -4.627887 -1.261526
5.043832 -8.037441 0.497296
3.328959 -5.304759 -1.217361
4.928495 -7.856694 0.811420
3.604759 -5.748707 -1.074705
5.470702 -8.727811 1.264760
3.742734 -5.973376 -0.865516
5.653749 -9.026841 1.686989
4.166843 -6.652831 -0.686787
5.383079 -8.598020 1.971820
6.140197 -9.811123 -0.606574
6.098922 -9.748950 2.654872
6.140018 -9.818455 -0.202134
5.222458 -8.354435 2.639954
2.583640 -4.144338 -1.308589
2.895330 -4.647925 -1.264225
3.307308 -5.311347 -1.216217
3.567973 -5.734419 -1.069699
5.440202 -8.746855 1.264760
3.692514 -5.939201 -0.858692
5.672255 -9.127054 1.702007
4.194076 -6.748561 -0.695154
5.435914 -8.750171 2.002350
6.097485 -9.818922 -0.605736
6.050465 -9.747000 2.648574
6.084620 -9.805845 -0.201436
5.230939 -8.433355 2.659107
2.558995 -4.136902 -1.303413
4.798788 -7.760809 0.159271
2.883186 -4.664633 -1.266025
3.299068 -5.339561 -1.220033
3.541709 -5.736753 -1.067822
5.395041 -8.742141 1.261348
3.663422 -5.938539 -0.856742
5.717086 -9.271222 1.725160
5.738088 -9.305281 -0.956447
5.411518 -8.779119 2.004639
6.039076 -9.801039 -0.603329
6.012316 -9.761424 2.646774
6.037775 -9.806590 -0.201017
5.547764 -9.014234 2.836139
2.549591 -4.154042 -1.306001
2.870961 -4.681314 -1.267824
5.299689 -8.644918 0.531419
3.281435 -5.352718 -1.220414
3.498961 -5.712023 -1.060939
4.054209 -6.621055 0.953262
3.614690 -5.905576 -0.850161
5.253750 -8.586788 1.594380
4.153100 -6.787873 -0.696200
5.992325 -9.801611 -0.602073
5.943656 -9.725817 2.631478
5.990997 -9.807129 -0.200598
5.939120 -9.726023 3.053547
2.536080 -4.164567 -1.306519
2.848525 -4.681319 -1.265125
4.989244 -8.202639 0.503158
3.261711 -5.362463 -1.220033
3.474898 -5.717450 -1.059687
4.672170 -7.690413 1.104867
3.598175 -5.924944 -0.851136
5.719877 -9.422356 1.745809
5.739155 -9.454113 -0.967603
5.203434 -8.574994 1.949686
5.945644 -9.801976 -0.600817
5.905629 -9.739839 2.629678
5.940144 -9.800620 -0.200039
5.889117 -9.720259 3.045265
2.529520 -4.186621 -1.310660
2.841232 -4.706247 -1.269174
5.005986 -8.295245 0.507764
3.247030 -5.380539 -1.221559
4.665071 -7.733378 0.790154
3.442678 -5.709245 -1.055933
4.542819 -7.536663 1.080494
3.579520 -5.940868 -0.851623
5.688990 -9.445648 1.746435
5.712287 -9.484330 -0.968649
5.890797 -9.788445 -0.598723
5.841458 -9.710297 2.616181
5.895591 -9.804158 -0.199690
5.837236 -9.710953 3.035948
2.513897 -4.193769 -1.310142
2.825788 -4.717808 -1.269624
5.124740 -8.559427 0.522836
3.225202 -5.386787 -1.220414
4.208315 -7.031583 0.716943
3.418672 -5.714447 -1.054681
4.601046 -7.693881 1.100724
3.582187 -5.992516 -0.857229
6.845543 -11.456212 2.113743
5.634178 -9.428959 -0.960979
5.841234 -9.783225 -0.597153
5.795543 -9.710548 2.610782
5.835719 -9.781745 -0.198818
5.658840 -9.489024 2.960372
2.494305 -4.194216 -1.307554
2.814280 -4.736020 -1.271873
5.113191 -8.608171 0.524720
3.209388 -5.403076 -1.221559
4.220365 -7.107903 0.723218
3.380556 -5.695768 -1.049050
4.670384 -7.872083 1.123879
3.579474 -6.035717 -0.861616
5.663201 -9.553104 1.758949
5.582942 -9.417719 -0.957842
5.289504 -8.926275 2.016851
5.791780 -9.777779 -0.595583
5.678210 -9.589865 2.572990
5.793391 -9.788288 -0.198539
5.425011 -9.169538 2.854774
2.482595 -4.207889 -1.309107
2.799710 -4.749173 -1.272773
4.605875 -7.812985 0.475315
3.193498 -5.419321 -1.222704
4.790122 -8.132012 0.825713
3.346621 -5.683703 -1.044670
4.729472 -8.035463 1.144841
3.565430 -6.060152 -0.863322
4.008752 -6.816386 -0.691842
5.745471 -9.777274 -0.594327
5.697999 -9.700363 2.597285
5.744695 -9.779860 -0.197980
5.689979 -9.690582 3.011101
2.474722 -4.228200 -1.312730
2.783946 -4.758431 -1.272773
4.542275 -7.766948 0.471547
3.178524 -5.437214 -1.224231
5.059250 -8.657868 0.877310
3.321775 -5.684537 -1.042792
4.310316 -7.379178 1.049295
3.542312 -6.066800 -0.862591
5.470875 -9.377302 -0.949823
5.692894 -9.761766 -0.592234
5.654023 -9.699001 2.591886
5.696426 -9.775664 -0.197491
5.646394 -9.693691 3.005924
2.461658 -4.238054 -1.313248
2.768297 -4.769805 -1.273223
3.161462 -5.449422 -1.224612
4.690680 -8.088593 0.818044
3.293987 -5.682425 -1.040289
4.304436 -7.428530 1.054170
3.462411 -5.977780 -0.848211
5.514621 -9.524711 -0.962897
6.125643 -10.584312 2.377099
5.642782 -9.753918 -0.590559
5.608426 -9.698435 2.586487
5.646256 -9.767788 -0.196933
5.600924 -9.693271 2.999713
2.452636 -4.256664 -1.316354
2.752603 -4.781127 -1.273673
3.144379 -5.463828 -1.225375
4.662416 -8.104918 0.818044
3.266254 -5.680189 -1.037786
4.341792 -7.553657 1.069769
3.459324 -6.020812 -0.852598
5.508131 -9.590550 -0.967603
5.601741 -9.761429 -0.589826
5.547388 -9.670623 2.573890
5.596211 -9.759682 -0.196374
5.559369 -9.699352 2.995572
2.429135 -4.250104 -1.311695
2.737829 -4.794092 -1.274573
33.233898 -58.217995 3.513209
3.123341 -5.471361 -1.224612
5.038951 -8.830639 0.889511
3.238577 -5.677829 -1.035283
4.346861 -7.623949 1.077569
3.475638 -6.098388 -0.861860
5.418716 -9.515450 -0.958016
5.554789 -9.758359 -0.588466
5.505888 -9.676377 2.570291
5.546290 -9.751345 -0.195816
5.502563 -9.678394 2.983149
2.414493 -4.260660 -1.312213
2.728762 -4.817184 -1.278172
4.280854 -7.560225 0.455323
3.105201 -5.486189 -1.225375
4.892744 -8.647895 0.869291
3.198296 -5.655272 -1.029026
4.318268 -7.635621 1.077081
3.508059 -6.205526 -0.875266
5.454061 -9.655742 -0.970218
5.505243 -9.754301 -0.587000
5.449318 -9.659154 2.560393
5.499444 -9.748004 -0.195362
5.455460 -9.673985 2.975901
2.406232 -4.280850 -1.315836
4.756593 -8.465758 0.169498
2.705362 -4.816958 -1.275472
3.088915 -5.502131 -1.226520
4.185850 -7.459095 0.748319
3.174670 -5.659510 -1.027775
4.238797 -7.559629 1.064163
3.511497 -6.265097 -0.881847
6.423551 -11.465381 2.081517
4.807261 -8.583982 -0.860750
5.454575 -9.743832 -0.585221
5.406052 -9.661111 2.555894
5.453919 -9.750644 -0.195013
5.399227 -9.656818 2.964514
2.387705 -4.284578 -1.314283
6.211505 -11.146132 0.222728
2.690428 -4.829777 -1.276372
3.071593 -5.518561 -1.227665
3.151986 -5.667655 -1.027149
4.253870 -7.648978 1.074644
3.510825 -6.315487 -0.887209
6.389247 -11.498094 2.083395
3.872702 -6.972183 -0.697769
5.400410 -9.730577 -0.583232
5.359262 -9.660410 2.550495
5.412088 -9.755632 -0.194734
5.346747 -9.641817 2.954161
2.377973 -4.298820 -1.316354
6.162897 -11.145670 0.222309
2.673455 -4.836967 -1.275922
3.050442 -5.521310 -1.226139
5.001853 -9.057103 0.905200
3.111253 -5.636024 -1.019640
3.386317 -6.139367 -0.860885
3.657226 -6.636000 -0.662907
5.360177 -9.730002 -0.582185
5.315727 -9.653300 2.544196
5.381636 -9.777030 -0.194804
5.307294 -9.645954 2.950020
2.360343 -4.304119 -1.315318
6.175876 -11.261795 0.224194
2.664984 -4.861649 -1.279971
3.033014 -5.537619 -1.227283
4.130473 -7.544462 0.752503
3.084885 -5.636992 -1.017763
3.364866 -6.151150 -0.860885
5.670180 -10.369679 1.871895
3.580528 -6.550822 -0.653145
5.315864 -9.733807 -0.581243
5.278442 -9.669299 2.543297
5.341725 -9.785224 -0.194594
5.255084 -9.630506 2.939667
2.348074 -4.317423 -1.316871
5.347563 -9.836697 0.195432
2.647148 -4.871384 -1.279971
5.356682 -9.861677 0.588152
3.018351 -5.556798 -1.229192
3.887356 -7.159619 0.712760
3.051997 -5.623420 -1.013383
5.351103 -9.863714 1.377855
3.399076 -6.268144 -0.875509
5.355376 -9.879816 1.779912
3.759876 -6.936372 -0.690273
5.267586 -9.725960 -0.579673
5.227030 -9.655104 2.534749
5.313440 -9.818806 -0.194874
5.214236 -9.639505 2.936561
2.332989 -4.325593 -1.316871
6.376021 -11.826716 0.234525
2.631052 -4.882311 -1.280421
5.322227 -9.880316 0.588152
2.999868 -5.569029 -1.229573
4.279840 -7.948524 0.789805
3.030477 -5.630561 -1.012757
4.242590 -7.885938 1.099505
3.304780 -6.145350 -0.856742
5.290926 -9.842772 1.769900
3.754507 -6.984553 -0.693760
5.279052 -9.824794 2.167972
5.217538 -9.714376 -0.577894
5.187766 -9.662990 2.532049
5.273460 -9.826722 -0.194664
5.169598 -9.637219 2.930349
2.320609 -4.338821 -1.318424
6.004718 -11.231679 0.222309
2.613994 -4.891465 -1.280421
6.236430 -11.669987 0.693452
2.985960 -5.589857 -1.231863
4.908976 -9.193693 0.911823
2.997782 -5.616707 -1.008377
4.185137 -7.844653 1.091706
3.259957 -6.113059 -0.850648
5.652371 -10.599304 1.902556
3.767591 -7.067944 -0.700732
5.171391 -9.709613 -0.576533
5.133857 -9.643196 2.522151
5.237085 -9.837094 -0.194525
5.132166 -9.644077 2.927243
2.312691 -4.360549 -1.322565
2.597759 -4.900106 -1.280421
6.176951 -11.656388 0.691358
2.966429 -5.600245 -1.231863
3.752501 -7.087241 0.701604
2.973595 -5.616143 -1.006500
6.226114 -11.764046 1.634268
3.274942 -6.190513 -0.859910
5.589483 -10.570074 1.893796
3.700999 -7.001787 -0.692888
5.679956 -10.745705 2.362597
5.127036 -9.703752 -0.575172
5.089109 -9.636044 2.515853
5.193379 -9.837631 -0.194175
5.084045 -9.634597 2.918961
2.291921 -4.356226 -1.318942
6.170131 -11.732456 0.231384
2.584265 -4.916044 -1.282221
6.509694 -12.388631 0.733436
2.939623 -5.594410 -1.228428
4.125501 -7.854590 0.776209
2.948463 -5.615994 -1.004622
4.775511 -9.099867 1.261835
3.241325 -6.179054 -0.856742
5.545214 -10.575525 1.891293
3.551005 -6.772280 -0.669007
5.523932 -10.539411 2.312987
5.078302 -9.693282 -0.573497
5.039170 -9.622673 2.507754
5.146025 -9.830897 -0.193687
5.032472 -9.618050 2.908609
2.277595 -4.365912 -1.319459
6.563699 -12.587283 0.247789
2.570692 -4.931947 -1.284021
6.283685 -12.060568 0.712711
2.920984 -5.606380 -1.228810
4.655756 -8.939811 0.881842
2.916072 -5.601722 -1.000242
4.774872 -9.176354 1.270122
3.220653 -6.192092 -0.856985
3.667040 -7.053333 -0.695503
6.401476 -12.318109 2.698421
5.032466 -9.687908 -0.572137
4.998365 -9.626369 2.504155
5.093254 -9.813302 -0.192989
4.986413 -9.611551 2.901362
2.267667 -4.384131 -1.322565
6.512373 -12.595907 0.247510
2.551672 -4.937428 -1.283121
5.922550 -11.464909 0.676285
2.892386 -5.599098 -1.224994
4.024860 -7.794685 0.767493
2.891065 -5.601335 -0.998365
3.150797 -6.109788 -0.844067
5.534604 -10.736889 1.913194
3.706299 -7.190057 -0.707705
6.374624 -12.371793 2.705290
4.987644 -9.684111 -0.570881
4.946893 -9.609106 2.495157
5.055307 -9.823908 -0.192849
4.936926 -9.597975 2.892044
2.254112 -4.395459 -1.323601
2.537087 -4.951508 -1.284470
6.039093 -11.791272 0.694289
2.861189 -5.586444 -1.220033
4.008522 -7.829968 0.769585
2.860696 -5.590290 -0.994610
3.078844 -6.021770 -0.830418
3.674831 -7.190531 -0.706484
6.274239 -12.282075 2.680866
4.945636 -9.685451 -0.569939
4.900918 -9.602015 2.488858
5.010079 -9.820121 -0.192430
4.891105 -9.591056 2.884797
2.242257 -4.410188 -1.325671
2.518022 -4.956859 -1.283571
5.572899 -10.975287 0.645093
2.834560 -5.582393 -1.216980
3.979362 -7.840359 0.769237
2.846527 -5.610812 -0.996488
4.735978 -9.339161 1.285722
3.003057 -5.924474 -0.815550
3.644307 -7.192652 -0.705439
6.226008 -12.293394 2.678577
4.902777 -9.684836 -0.568892
4.863851 -9.612109 2.487059
4.964941 -9.816135 -0.192011
4.854109 -9.601175 2.882727
2.216415 -4.397287 -1.319459
2.507716 -4.979542 -1.287170
5.597416 -11.119553 0.652420
2.811526 -5.585239 -1.215453
3.921522 -7.793689 0.763310
2.812723 -5.592477 -0.991482
4.674817 -9.298882 1.277922
3.014446 -5.998775 -0.824324
5.366894 -10.684814 1.893796
3.610234 -7.187525 -0.703695
6.202437 -12.353651 2.686972
4.854606 -9.673329 -0.567217
4.811920 -9.592448 2.477611
4.916304 -9.804805 -0.191453
4.810179 -9.597335 2.876515
2.206234 -4.415366 -1.322565
2.492931 -4.993496 -1.288520
5.560352 -11.142597 0.652629
2.781494 -5.573939 -1.210874
4.463452 -8.948388 0.874869
2.780845 -5.577512 -0.987102
5.501200 -11.038526 1.514349
2.982867 -5.987938 -0.821399
5.329564 -10.703483 1.893796
3.582459 -7.194733 -0.703173
5.980823 -12.016677 2.609122
4.813694 -9.675911 -0.566380
4.767127 -9.586504 2.471762
4.874928 -9.807581 -0.191174
4.768053 -9.596766 2.871339
2.194237 -4.429965 -1.324636
5.768070 -11.650318 0.226916
2.471163 -4.993434 -1.286270
5.528507 -11.176261 0.653467
2.756797 -5.573056 -1.208584
5.498953 -11.121398 1.085438
2.752607 -5.569476 -0.983973
5.640240 -11.417172 1.563584
2.996225 -6.067731 -0.830905
8.291036 -16.797775 2.966937
3.560850 -7.214340 -0.703870
5.909308 -11.977619 2.596147
4.765755 -9.663995 -0.564705
4.725880 -9.587355 2.467713
4.838896 -9.820951 -0.191104
4.724282 -9.592555 2.865127
2.183017 -4.446268 -1.327224
5.746750 -11.709874 0.227684
2.454576 -5.003780 -1.286720
5.459565 -11.134519 0.649908
2.728683 -5.565018 -1.204768
5.556551 -11.337322 1.104612
2.736625 -5.586146 -0.985224
5.607336 -11.451053 1.565534
2.988990 -6.106681 -0.834805
8.333054 -17.032444 3.003229
4.277273 -8.742583 -0.851512
5.405172 -11.052852 2.391600
4.722345 -9.660833 -0.563554
4.688107 -9.595038 2.465464
4.787035 -9.801845 -0.190406
4.683142 -9.593364 2.860468
2.167484 -4.453861 -1.327224
2.438799 -5.015823 -1.287620
5.443363 -11.200212 0.652629
2.705808 -5.567445 -1.203242
2.696400 -5.553018 -0.977716
5.586399 -11.509846 1.570896
2.971122 -6.124220 -0.835780
4.343203 -8.956405 1.576547
5.404235 -11.149384 2.408391
4.677271 -9.653893 -0.562193
4.636749 -9.574512 2.456016
4.740593 -9.793297 -0.189917
4.639529 -9.588784 2.854257
2.155281 -4.468359 -1.329295
2.424660 -5.031327 -1.289419
2.676986 -5.557401 -1.199044
2.675287 -5.558836 -0.977090
5.594379 -11.629453 1.584545
2.984134 -6.206116 -0.845530
4.064233 -8.456180 -0.820833
5.387387 -11.214191 2.418313
4.633171 -9.648555 -0.560937
4.590651 -9.564286 2.449267
4.694269 -9.784543 -0.189428
4.590994 -9.573566 2.844939
2.133005 -4.461912 -1.325154
5.378960 -11.256991 0.217771
2.412122 -5.050311 -1.292119
2.658417 -5.568482 -1.199425
2.649064 -5.553877 -0.974587
5.048008 -10.588126 1.440252
2.912068 -6.110765 -0.831149
4.011556 -8.421748 -0.816126
5.663853 -11.895880 2.561038
4.590880 -9.646634 -0.559890
4.552214 -9.569694 2.446568
4.648064 -9.775586 -0.188940
4.548427 -9.570340 2.839245
2.124861 -4.485043 -1.329812
8.081771 -17.066265 0.329606
2.390309 -5.049893 -1.289869
5.054152 -10.682487 0.619344
2.628887 -5.556432 -1.194846
8.089335 -17.105389 1.655436
2.621219 -5.545231 -0.971458
5.044940 -10.677476 1.450002
2.827140 -5.986270 -0.812869
8.023597 -16.997076 2.976948
3.890279 -8.241114 -0.797301
5.689317 -12.057620 2.591568
4.546103 -9.639118 -0.558529
4.508811 -9.564373 2.441169
4.612209 -9.788134 -0.188870
4.503468 -9.561690 2.831998
2.110834 -4.495930 -1.330848
8.044234 -17.141439 0.330514
2.376806 -5.067027 -1.292119
5.033790 -10.736230 0.621437
2.604475 -5.554910 -1.192556
4.963845 -10.591861 1.023383
2.596819 -5.543614 -0.969581
3.692807 -7.886881 1.069282
2.811276 -6.006889 -0.814331
3.832785 -8.193284 -0.791374
5.750307 -12.297934 2.638889
4.503127 -9.635024 -0.557378
4.465500 -9.558866 2.435770
4.562783 -9.771560 -0.188242
4.460260 -9.556346 2.825786
2.095942 -4.505023 -1.331365
5.403287 -11.619137 0.223670
2.361568 -5.080595 -1.293469
2.571833 -5.535480 -1.186450
4.928521 -10.612737 1.023731
2.579115 -5.556228 -0.970207
4.905107 -10.571980 1.430990
2.815346 -6.070691 -0.821643
3.254485 -7.020812 -0.677026
5.434977 -11.730090 2.512955
4.459394 -9.628937 -0.556122
4.422283 -9.553174 2.430371
4.515212 -9.758390 -0.187683
4.414710 -9.545557 2.818022
2.080204 -4.512311 -1.331365
5.331729 -11.570730 0.222379
2.345449 -5.092347 -1.294368
5.075645 -11.025105 0.636091
2.549212 -5.537291 -1.184924
4.941416 -10.738474 1.034190
2.554752 -5.554429 -0.968329
4.869833 -10.592645 1.431477
2.712908 -5.903714 -0.797757
5.134193 -11.177951 1.948235
3.229958 -7.032129 -0.677026
5.392360 -11.745420 2.512191
4.417426 -9.626292 -0.555075
4.380784 -9.550840 2.425872
4.471121 -9.752278 -0.187264
4.370096 -9.536321 2.810775
2.063638 -4.517788 -1.330848
5.321208 -11.654757 0.223635
2.327659 -5.100503 -1.294368
5.002316 -10.966435 0.631695
2.524978 -5.535438 -1.182634
4.892331 -10.730277 1.031750
2.522241 -5.534553 -0.963324
5.318332 -11.675415 1.575283
2.662672 -5.848108 -0.788982
5.288248 -11.620118 2.022072
5.323688 -11.703414 2.499216
4.373878 -9.619834 -0.553819
4.340970 -9.551880 2.422273
4.420510 -9.731414 -0.186566
4.325600 -9.526891 2.803528
2.051041 -4.532004 -1.332918
5.181593 -11.454624 0.219447
2.309841 -5.108597 -1.294368
4.949200 -10.951069 0.629811
2.505640 -5.544218 -1.182634
4.831881 -10.696448 1.026869
2.501281 -5.539723 -0.962698
5.264480 -11.664958 1.571383
2.635711 -5.842890 -0.787032
5.265516 -11.678124 2.028955
3.827754 -8.489383 -0.814732
5.445749 -12.083480 2.576303
4.325505 -9.602265 -0.551935
4.297998 -9.545652 2.416874
4.379949 -9.732196 -0.186287
4.282015 -9.519029 2.796799
2.039952 -4.549713 -1.336024
5.272425 -11.764614 0.225031
2.290402 -5.113072 -1.293469
4.891356 -10.924529 0.627299
2.479854 -5.538595 -1.179581
4.794512 -10.713250 1.026869
2.543230 -5.685462 -0.986476
5.212387 -11.657892 1.567971
2.642838 -5.913675 -0.795319
3.804598 -8.517245 -0.816126
5.219444 -11.690098 2.488531
4.285450 -9.602715 -0.551098
4.250362 -9.528561 2.408776
4.336178 -9.725509 -0.185868
4.248762 -9.533917 2.796799
2.023273 -4.555040 -1.335506
5.263785 -11.856053 0.226428
2.277282 -5.131723 -1.296168
4.905018 -11.058383 0.633998
2.447769 -5.518504 -1.173475
5.214143 -11.760839 1.125529
2.572188 -5.804471 -1.005561
5.147542 -11.621566 1.560659
2.770044 -6.256854 -0.840167
5.183861 -11.714599 2.028955
3.832895 -8.661656 -0.828677
5.572500 -12.598799 2.677814
4.242212 -9.595695 -0.549842
4.202899 -9.511257 2.400678
4.294125 -9.722294 -0.185519
4.202973 -9.520413 2.788517
2.008917 -4.565611 -1.336542
2.266413 -5.155697 -1.300217
5.192583 -11.817822 0.676495
2.425332 -5.519825 -1.171949
5.230741 -11.910312 1.138080
2.551117 -5.811606 -1.005248
4.524707 -10.312458 1.382730
2.738618 -6.244669 -0.837242
5.587045 -12.745772 2.204162
3.794636 -8.656736 -0.826934
5.276370 -12.042740 2.555696
4.202281 -9.595808 -0.549004
4.168109 -9.522298 2.399778
4.250544 -9.715239 -0.185100
4.160427 -9.513787 2.782305
1.991425 -4.569054 -1.335506
2.250736 -5.168937 -1.301567
5.062031 -11.630766 0.664771
2.398216 -5.510255 -1.168133
4.941162 -11.358473 1.083695
2.518212 -5.791491 -1.000242
4.483933 -10.317267 1.381267
2.708895 -6.235984 -0.834805
5.547241 -12.776069 2.206039
3.703296 -8.529206 -0.813512
5.213978 -12.014260 2.545774
4.160813 -9.592095 -0.547957
4.131745 -9.529638 2.397978
4.213424 -9.722678 -0.184961
4.124120 -9.521161 2.780234
1.978525 -4.583072 -1.337577
2.228822 -5.167815 -1.299317
5.068838 -11.758412 0.671052
2.382074 -5.525805 -1.169659
7.372331 -17.110136 1.629987
2.500325 -5.805688 -1.001181
4.435335 -10.303682 1.377367
2.713786 -6.307400 -0.843092
3.747490 -8.714131 -0.829897
5.103783 -11.873662 2.512191
4.117843 -9.584538 -0.546701
4.092302 -9.529677 2.394379
4.184193 -9.748352 -0.185170
4.081721 -9.514194 2.774023
1.967073 -4.600608 -1.340683
2.210769 -5.175564 -1.299317
4.982278 -11.669497 0.664981
2.359688 -5.526864 -1.168133
4.821082 -11.297401 1.074630
2.490119 -5.838002 -1.005248
4.461623 -10.465187 1.396867
2.674632 -6.276658 -0.837730
3.774042 -8.860971 -0.842622
4.076542 -9.580477 -0.545655
4.046810 -9.515211 2.387181
4.132928 -9.722411 -0.184402
4.043952 -9.517715 2.770917
1.951756 -4.609225 -1.341200
2.196485 -5.192223 -1.301567
5.227751 -12.363781 0.703500
2.328147 -5.506135 -1.162027
4.987928 -11.802331 1.120997
2.920933 -6.914815 -1.188902
4.888340 -11.577962 1.543110
3.645525 -8.642785 -0.820658
5.000936 -11.861969 2.502269
4.035319 -9.576243 -0.544608
4.006764 -9.513116 2.383132
4.089655 -9.714663 -0.183983
3.997218 -9.499722 2.761599
1.931171 -4.605321 -1.338094
5.035979 -12.015328 0.227405
2.178348 -5.199858 -1.301567
4.568988 -10.911816 0.619972
2.308156 -5.512418 -1.161645
4.954391 -11.838049 1.122740
2.902876 -6.939548 -1.191405
4.396111 -10.514394 1.399304
2.966768 -7.099246 -0.944731
3.610725 -8.644427 -0.819613
3.994177 -9.571838 -0.543561
3.966780 -9.510858 2.379082
4.063414 -9.747334 -0.184332
3.955860 -9.494002 2.755905
1.917307 -4.617386 -1.339647
7.218508 -17.392662 0.328699
2.165410 -5.220031 -1.304716
4.682333 -11.292999 0.640697
2.282885 -5.505932 -1.158592
2.870319 -6.929564 -1.187963
4.979005 -12.026317 1.598195
3.476320 -8.400871 -1.116323
3.582052 -8.660661 -0.819961
3.956164 -9.574648 -0.542933
3.923887 -9.501230 2.373234
4.021734 -9.742977 -0.183983
3.910170 -9.477393 2.747105
1.904115 -4.631198 -1.341718
7.165353 -17.436251 0.329048
2.144955 -5.222149 -1.303366
5.157158 -12.561961 0.711664
2.257686 -5.499339 -1.155539
2.422607 -5.906926 -1.011192
4.818031 -11.753416 1.559684
3.462026 -8.449693 -1.121198
3.590307 -8.767144 -0.828851
3.909105 -9.555125 -0.541049
3.887009 -9.505852 2.370984
3.990727 -9.764359 -0.184123
3.867567 -9.467735 2.740376
1.890852 -4.644974 -1.343789
7.128561 -17.520428 0.330165
2.125979 -5.227800 -1.302917
5.463076 -13.433750 0.760023
2.239954 -5.510823 -1.156303
2.372988 -5.843966 -0.998991
4.729198 -11.652442 1.544085
3.432511 -8.461725 -1.121198
3.569413 -8.803626 -0.831117
4.874648 -12.028891 2.522877
3.869729 -9.553903 -0.540212
3.842835 -9.492266 2.364236
3.944818 -9.744175 -0.183495
3.828904 -9.462601 2.735200
1.873182 -4.647962 -1.342753
7.091352 -17.595903 0.331142
2.115184 -5.251090 -1.306966
5.174471 -12.852451 0.726109
2.210443 -5.493110 -1.150960
4.236977 -10.534497 0.993401
2.358756 -5.864632 -1.001181
4.706820 -11.708581 1.549447
2.454151 -6.107972 -0.808238
3.557216 -8.862257 -0.835475
7.098886 -17.685783 3.704366
3.833564 -9.555561 -0.539584
3.799732 -9.476017 2.357037
3.881025 -9.683640 -0.182098
3.792976 -9.468736 2.733129
1.857043 -4.652354 -1.342236
4.418595 -11.075297 0.208137
2.098285 -5.262061 -1.307865
4.884737 -12.249902 0.691149
2.189309 -5.493114 -1.149433
5.128100 -12.873265 1.212336
2.348500 -5.898524 -1.005561
2.495176 -6.273288 -0.828955
3.521184 -8.857342 -0.833906
3.793551 -9.552178 -0.538642
3.762318 -9.478355 2.354338
3.786919 -9.540332 -0.179166
3.752294 -9.457917 2.726400
1.842211 -4.662401 -1.343271
3.766049 -9.531390 0.178887
2.086550 -5.283490 -1.311465
3.771337 -9.554528 0.538328
2.167238 -5.493419 -1.147907
3.752968 -9.517718 0.895089
2.334725 -5.920980 -1.008064
3.771049 -9.568466 1.262810
2.435800 -6.183638 -0.816037
4.886857 -12.412363 2.112804
3.645643 -9.264482 -0.871035
3.756006 -9.549836 -0.537804
3.726588 -9.479897 2.351638
3.755056 -9.557214 -0.179236
3.714314 -9.458370 2.722776
1.827444 -4.670284 -1.343789
3.725472 -9.525853 0.178538
2.063838 -5.279852 -1.308765
3.731421 -9.550892 0.537386
2.145193 -5.493635 -1.146381
3.728632 -9.548672 0.896833
2.329124 -5.967739 -1.014634
3.720312 -9.537187 1.256961
2.474051 -6.345611 -0.836268
3.720307 -9.547019 1.622851
2.766542 -7.103139 -0.666916
3.712683 -9.537288 1.989375
3.707942 -9.530034 -0.535920
3.690647 -9.485583 2.349839
3.713700 -9.549763 -0.178852
3.677077 -9.460474 2.719671
1.813801 -4.685958 -1.346377
3.689090 -9.535715 0.178468
2.044472 -5.287381 -1.308765
3.687032 -9.540286 0.536025
2.126458 -5.505123 -1.147144
3.682123 -9.532536 0.894044
2.311504 -5.987291 -1.016511
3.677469 -9.530387 1.254279
2.453634 -6.362045 -0.837242
3.681029 -9.549531 1.620974
3.672370 -9.532027 -0.893695
3.669236 -9.528846 1.984795
3.663663 -9.519329 -0.534560
3.642559 -9.464492 2.341291
3.671494 -9.544646 -0.178503
3.636831 -9.459462 2.715529
1.799377 -4.699791 -1.348447
3.646969 -9.530496 0.178119
2.032041 -5.313040 -1.313264
3.641341 -9.525752 0.534455
2.091807 -5.472168 -1.138748
3.642183 -9.532939 0.892823
2.280383 -5.971733 -1.012444
3.639683 -9.536383 1.253304
2.374405 -6.224471 -0.817987
3.631928 -9.526043 1.614717
3.634107 -9.531756 -0.892475
3.630358 -9.526919 1.981742
3.624013 -9.515262 -0.533617
3.602992 -9.465030 2.338141
3.622265 -9.520658 -0.177805
3.600076 -9.467311 2.713977
1.780223 -4.698817 -1.346377
3.610137 -9.533817 0.177945
2.015552 -5.325569 -1.314614
3.605947 -9.532800 0.534141
2.074081 -5.483109 -1.139511
3.596905 -9.513912 0.889860
2.253939 -5.964874 -1.009941
3.600061 -9.532316 1.251111
2.348457 -6.221579 -0.816525
3.591681 -9.520179 1.611588
3.589560 -9.514557 -0.889686
3.595003 -9.534022 1.980597
3.586551 -9.516640 -0.532989
3.567870 -9.472078 2.336792
3.581260 -9.512659 -0.177421
3.556123 -9.450891 2.705694
1.763810 -4.705003 -1.346377
3.562804 -9.508909 0.177247
1.999683 -5.339872 -1.316414
3.570551 -9.539717 0.533827
2.053554 -5.486638 -1.138748
3.557392 -9.509616 0.888291
2.217883 -5.931999 -1.003058
3.562595 -9.533668 1.249648
2.349646 -6.291106 -0.824568
3.551519 -9.514153 1.608459
3.552145 -9.515830 -0.888640
3.545917 -9.504208 1.971820
3.549124 -9.517873 -0.532361
3.527978 -9.466214 2.332292
3.542448 -9.510110 -0.177142
3.518392 -9.450574 2.702071
1.751406 -4.721999 -1.349483
3.524725 -9.508162 0.177002
1.981032 -5.346819 -1.316414
3.526131 -9.522155 0.532152
2.035752 -5.497455 -1.139511
3.518643 -9.507027 0.886897
2.184143 -5.904504 -0.997113
3.519659 -9.519979 1.246236
3.231079 -8.744123 -1.144597
3.514866 -9.517226 1.606895
3.516147 -9.520695 -0.887943
3.510680 -9.511001 1.970675
3.506891 -9.505845 -0.531001
3.486149 -9.454702 2.326444
3.502315 -9.503654 -0.176793
3.478705 -9.444669 2.696894
1.738906 -4.738966 -1.352588
3.488071 -9.511022 0.176828
1.964368 -5.359190 -1.317763
3.489038 -9.518793 0.531315
2.008446 -5.482407 -1.134932
3.484066 -9.515510 0.886548
2.118035 -5.787803 -0.976151
3.474133 -9.498649 1.241849
3.202066 -8.754789 -1.144597
3.477860 -9.513988 1.604392
3.476738 -9.516068 -0.886374
3.463991 -9.486315 1.963043
3.463418 -9.489884 -0.529431
3.444756 -9.438751 2.319695
3.466668 -9.503943 -0.176583
3.441411 -9.439818 2.692236
1.722521 -4.742890 -1.352071
3.451054 -9.507499 0.176549
1.945921 -5.363843 -1.317313
3.451322 -9.513414 0.530373
1.986239 -5.477962 -1.132642
3.445703 -9.508279 0.884805
2.103540 -5.807796 -0.978341
3.441938 -9.508250 1.241605
3.170313 -8.757894 -1.143622
3.434194 -9.492032 1.598760
3.441098 -9.516303 -0.885328
3.432514 -9.497749 1.963043
3.428536 -9.491925 -0.528907
3.406155 -9.429962 2.314746
3.425627 -9.489056 -0.176095
3.407467 -9.443909 2.690165
1.704825 -4.743122 -1.350518
3.413422 -9.501952 0.176234
1.932074 -5.381272 -1.320013
3.418405 -9.521047 0.530163
1.960105 -5.462345 -1.128063
3.404065 -9.491522 0.882190
2.069605 -5.773830 -0.971458
3.408380 -9.514006 1.240874
2.187898 -6.107203 -0.796538
3.397373 -9.488491 1.596257
3.397439 -9.493896 -0.882190
3.402322 -9.512778 1.963806
3.397041 -9.503242 -0.528907
3.370929 -9.430195 2.312047
3.390105 -9.489064 -0.175885
3.364437 -9.422409 2.680848
1.689086 -4.748749 -1.350518
3.374526 -9.492494 0.175850
1.918786 -5.400503 -1.323162
3.376785 -9.504101 0.528593
1.941981 -5.468814 -1.128063
3.371238 -9.499002 0.881842
2.084125 -5.875609 -0.987414
3.364873 -9.491578 1.236487
2.203452 -6.215459 -0.809700
3.359291 -9.481085 1.593129
3.361946 -9.493841 -0.881145
3.357002 -9.485143 1.955792
3.360846 -9.501273 -0.528175
3.335091 -9.428461 2.308898
3.353287 -9.485171 -0.175606
3.324806 -9.409835 2.674119
1.677884 -4.775248 -1.356212
3.331426 -9.486514 0.175501
1.895454 -5.400475 -1.321362
3.333652 -9.498151 0.527547
1.919669 -5.472526 -1.127300
3.332762 -9.506237 0.881319
2.101396 -5.997288 -1.006500
3.322499 -9.487566 1.234293
2.219797 -6.342294 -0.825056
3.319599 -9.484592 1.591565
3.320204 -9.491635 -0.879750
3.316670 -9.486843 1.953503
3.315116 -9.487711 -0.526709
3.294644 -9.434414 2.307098
3.314205 -9.490427 -0.175467
3.284194 -9.409764 2.670495
1.664376 -4.790201 -1.358800
3.298638 -9.493731 0.175432
1.878813 -5.410413 -1.322262
3.293272 -9.488975 0.526395
1.897981 -5.471773 -1.125773
3.292381 -9.497105 0.879401
1.970855 -5.685068 -0.952999
3.283220 -9.476024 1.231368
2.192258 -6.330862 -0.822618
3.280656 -9.479321 1.588749
3.281842 -9.488103 -0.878356
3.278774 -9.479235 1.949686
3.278414 -9.483552 -0.525872
3.251887 -9.412132 2.299000
3.278447 -9.494376 -0.175327
3.242506 -9.395605 2.663248
0.386216 -1.123562 -0.318347
3.257682 -9.482494 0.175013
1.862447 -5.424311 -1.324062
3.253648 -9.481521 0.525348
1.874728 -5.463181 -1.122720
3.254406 -9.489123 0.877658
1.949716 -5.688176 -0.952373
3.248836 -9.483670 1.230880
2.121920 -6.197621 -0.804338
3.237315 -9.460811 1.583743
3.244835 -9.488190 -0.877310
3.239314 -9.472046 1.945870
3.240123 -9.479819 -0.525034
3.215862 -9.414206 2.296750
3.233656 -9.471699 -0.174699
3.205945 -9.395895 2.660142
0.389551 -1.146921 -0.324559
3.221989 -9.486234 0.174873
1.846007 -5.438160 -1.325861
3.217964 -9.485254 0.524930
1.853431 -5.466298 -1.121957
3.210652 -9.474570 0.875218
1.958637 -5.783220 -0.967078
3.210617 -9.479913 1.228931
2.137824 -6.315927 -0.818718
3.202373 -9.466439 1.582804
3.202760 -9.473034 -0.874869
3.202060 -9.476415 1.944344
3.198967 -9.472708 -0.523988
3.177597 -9.414851 2.294051
3.195457 -9.467771 -0.174419
3.166336 -9.386894 2.654448
0.379396 -1.129960 -0.319383
3.177657 -9.469542 0.174350
1.827921 -5.450432 -1.327211
3.181659 -9.486962 0.524406
1.830595 -5.461565 -1.119667
3.171233 -9.466827 0.873475
1.944709 -5.808753 -0.970207
3.172071 -9.480321 1.227468
2.090107 -6.250299 -0.809213
3.164922 -9.464447 1.580614
3.165885 -9.472818 -0.873823
3.159633 -9.459602 1.938620
3.163983 -9.478134 -0.523674
3.141014 -9.414795 2.291352
3.156695 -9.461795 -0.174105
3.127440 -9.379561 2.649272
0.376666 -1.134945 -0.320418
3.139308 -9.459149 0.173966
1.807996 -5.450915 -1.325861
3.143498 -9.482843 0.523569
1.812754 -5.471649 -1.120430
3.138166 -9.477840 0.873475
1.944684 -5.873303 -0.979906
3.131262 -9.462519 1.223812
2.063136 -6.238348 -0.806775
3.128767 -9.466060 1.579050
3.129674 -9.474353 -0.872952
3.117777 -9.438337 1.932132
3.123144 -9.460125 -0.522104
3.104891 -9.410354 2.287752
3.121768 -9.467058 -0.174000
3.096493 -9.395926 2.650825
0.370491 -1.128845 -0.318347
3.105647 -9.468151 0.173931
1.786530 -5.449786 -1.324062
3.104779 -9.476676 0.522627
1.792154 -5.470168 -1.118904
3.101760 -9.473046 0.872080
1.939530 -5.926991 -0.987727
3.095126 -9.463958 1.222593
2.075884 -6.351176 -0.820424
3.092026 -9.465657 1.577173
3.089164 -9.462492 -0.870860
3.086640 -9.454762 1.933277
3.083907 -9.451982 -0.521057
3.061754 -9.389638 2.280104
3.084366 -9.464589 -0.173756
3.055302 -9.380961 2.643578
0.368733 -1.137546 -0.320418
3.064562 -9.454205 0.173477
1.770500 -5.465259 -1.326311
3.064299 -9.464655 0.521371
1.766049 -5.458020 -1.115088
3.062114 -9.469186 0.870686
1.917793 -5.934059 -0.987727
3.057800 -9.461481 1.220887
2.006112 -6.211041 -0.801413
3.051076 -9.451954 1.573105
3.055504 -9.471321 -0.870686
3.045340 -9.445457 1.929079
3.047405 -9.457519 -0.520743
3.024331 -9.391521 2.277854
3.042115 -9.446747 -0.173233
3.023721 -9.395247 2.644613
0.361225 -1.127788 -0.317312
3.025622 -9.452042 0.173233
1.748081 -5.464287 -1.324512
3.027591 -9.463880 0.520743
1.748182 -5.467892 -1.115851
3.018733 -9.447553 0.867723
1.921705 -6.017870 -1.000555
3.016462 -9.451822 1.218206
2.012891 -6.311022 -0.813356
3.013263 -9.447491 1.570602
3.012137 -9.449657 -0.867723
3.006986 -9.439194 1.925644
3.008921 -9.450969 -0.519801
2.987394 -9.389023 2.274705
3.004876 -9.443969 -0.172988
2.983882 -9.383652 2.638402
0.354955 -1.121675 -0.315242
2.988229 -9.442957 0.172884
1.728188 -5.464479 -1.323162
2.991528 -9.464869 0.520219
1.725537 -5.462729 -1.113561
2.982139 -9.446632 0.866677
1.889846 -5.986535 -0.994298
2.980324 -9.446630 1.216256
1.990161 -6.311983 -0.812625
2.976703 -9.446648 1.568725
2.972550 -9.439210 -0.865805
2.970361 -9.432261 1.922210
2.978163 -9.462800 -0.519905
2.952734 -9.387724 2.272006
2.968295 -9.442954 -0.172779
2.945898 -9.377423 2.633743
0.345466 -1.104408 -0.310065
2.950475 -9.438063 0.172604
1.703872 -5.453738 -1.319113
2.954900 -9.463815 0.519591
1.707998 -5.470294 -1.113943
2.949015 -9.450764 0.866154
1.965970 -6.304254 -1.045921
2.942016 -9.439919 1.214063
1.924433 -6.178640 -0.794588
2.939601 -9.443777 1.566535
2.118729 -6.806640 -0.623686
2.934502 -9.433199 1.920302
2.114410 -6.801130 -0.373260
2.917056 -9.388668 2.269756
2.910856 -9.380269 2.631672
0.333624 -1.079767 -0.302818
1.680228 -5.444756 -1.315514
2.914195 -9.449260 0.518231
1.685421 -5.464967 -1.111653
2.912487 -9.449576 0.865108
1.948605 -6.326180 -1.048424
2.903206 -9.431157 1.211625
1.899351 -6.173936 -0.793126
2.903136 -9.442652 1.564658
2.091444 -6.802567 -0.622641
2.896943 -9.428371 1.917249
2.080690 -6.776012 -0.371481
2.877406 -9.376438 2.264357
2.086137 -6.802210 -0.124191
2.871868 -9.370056 2.625978
0.332108 -1.088316 -0.304889
2.070783 -6.790177 0.123912
1.661781 -5.452451 -1.315964
2.076950 -6.818927 0.373574
1.660042 -5.450158 -1.107455
2.074760 -6.816006 0.623338
2.018495 -6.635322 -1.098483
1.934341 -6.366666 -0.817012
2.869008 -9.448947 1.564032
2.062448 -6.796841 -0.621420
2.862305 -9.432790 1.916104
2.057025 -6.783233 -0.371481
2.837875 -9.364045 2.258959
2.052526 -6.776916 -0.123598
2.838025 -9.376325 2.624943
2.043032 -6.783961 0.123668
1.642176 -5.456353 -1.315514
2.043930 -6.795534 0.371899
1.637230 -5.446805 -1.105547
2.041166 -6.794942 0.620723
2.023129 -6.739166 -1.114439
2.043353 -6.806534 0.872585
1.876739 -6.255495 -0.801900
2.036094 -6.790960 1.122887
2.077024 -6.931873 -0.633099
2.039827 -6.812056 1.382221
2.029859 -6.783073 -0.371062
2.034113 -6.801609 1.638993
2.022556 -6.762965 -0.123214
2.798085 -9.362112 2.618213
2.011888 -6.770318 0.123284
1.620502 -5.456731 -1.314164
2.016217 -6.789225 0.371167
1.620440 -5.460015 -1.107074
2.012336 -6.784834 0.619154
2.010820 -6.784066 -1.120697
2.008807 -6.781621 0.868441
2.120317 -7.162661 -0.917189
2.004527 -6.771508 1.118507
2.070902 -7.000218 -0.638677
2.003791 -6.777715 1.373825
2.004472 -6.784371 -0.370748
2.009807 -6.806799 1.638543
1.998370 -6.768066 -0.123179
2.004879 -6.794478 1.898179
1.987736 -6.771197 0.123179
1.598009 -5.447115 -1.310565
1.991382 -6.792388 0.370957
1.598612 -5.456218 -1.105166
1.985841 -6.782257 0.618283
1.985536 -6.781218 -1.119132
1.977946 -6.759666 0.864785
2.039167 -6.973406 -0.892084
1.976445 -6.763296 1.116004
2.057624 -7.045654 -0.642164
1.979653 -6.778669 1.372680
1.978606 -6.779478 -0.370120
1.977947 -6.781623 1.630895
1.975292 -6.776920 -0.123214
1.980609 -6.799580 1.897661
1.577360 -5.447045 -1.309215
1.958777 -6.768601 0.369283
1.578872 -5.455832 -1.104021
1.961125 -6.781149 0.617586
1.963499 -6.793800 -1.120071
1.954338 -6.766530 0.864785
1.998297 -6.923265 -0.884771
1.948992 -6.756867 1.113814
1.960726 -6.802002 -0.619329
1.949455 -6.762901 1.368101
1.954928 -6.786343 -0.370120
1.949412 -6.771632 1.626846
1.956048 -6.799148 -0.123493
1.942984 -6.758180 1.884203
1.943715 -6.796444 0.123389
1.558337 -5.452518 -1.309215
1.935138 -6.775397 0.369283
1.553476 -5.442703 -1.100205
1.939537 -6.799787 0.618631
1.973242 -6.922532 -1.140095
1.934516 -6.786674 0.866491
1.963242 -6.892015 -0.879897
1.923772 -6.757929 1.112875
1.940786 -6.822219 -0.620549
1.924654 -6.770001 1.368101
1.935500 -6.812675 -0.371167
1.923514 -6.774982 1.625946
1.930663 -6.800163 -0.123389
1.918328 -6.761204 1.883168
1.919877 -6.807372 0.123458
1.535698 -5.448814 -1.306966
1.916351 -6.799412 0.370225
1.535533 -5.451872 -1.100968
1.906072 -6.771994 0.615494
1.952809 -6.942689 -1.142285
1.901572 -6.765053 0.862835
1.928306 -6.864764 -0.875509
1.901239 -6.768407 1.113501
1.919114 -6.836625 -0.621246
1.897298 -6.763446 1.365429
1.917099 -6.838621 -0.372213
1.897225 -6.772273 1.623697
1.911770 -6.824191 -0.123703
1.892631 -6.760418 1.881097
1.898367 -6.817554 0.123528
1.518666 -5.457631 -1.307865
1.894211 -6.811833 0.370539
1.515967 -5.455307 -1.100586
1.887221 -6.795884 0.617063
1.928191 -6.943417 -1.141346
1.832415 -6.602995 0.841386
2.086959 -7.525331 -0.958868
1.882877 -6.794039 1.116629
1.903215 -6.872084 -0.623861
1.872764 -6.762132 1.363903
1.902402 -6.873814 -0.373783
1.873718 -6.774770 1.622797
1.893264 -6.850097 -0.124052
1.867993 -6.763259 1.880062
1.881442 -6.849206 0.123982
1.494447 -5.444107 -1.303366
1.877290 -6.843442 0.371899
1.496830 -5.456518 -1.099823
1.870468 -6.823241 0.618980
1.903942 -6.950105 -1.141346
1.863341 -6.806560 0.866491
2.135060 -7.804462 -0.993479
1.860713 -6.806286 1.117568
1.854839 -6.789461 1.368101
2.564846 -9.394818 -0.510380
1.853135 -6.792550 1.625496
2.558904 -9.385951 -0.169812
1.847420 -6.780921 1.883168
2.541544 -9.380309 0.169637
1.480527 -5.468101 -1.307865
1.855477 -6.857666 0.372318
1.472722 -5.446805 -1.096770
1.831935 -6.780042 0.614448
1.880515 -6.964665 -1.142597
1.838536 -6.809190 0.866004
2.073156 -7.683459 -0.977149
1.847228 -6.850885 1.123825
2.457003 -9.118711 -0.826236
1.838619 -6.828441 1.374588
2.525724 -9.386797 -0.509438
1.832782 -6.816233 1.629545
2.526126 -9.394826 -0.169812
1.828251 -6.804120 1.887826
2.513336 -9.412745 0.170056
1.464495 -5.488553 -1.311465
2.503389 -9.388643 0.509229
1.451676 -5.444325 -1.095244
2.510015 -9.420094 0.852906
1.872966 -7.034179 -1.152922
2.497545 -9.386465 1.192613
2.031718 -7.641126 -0.970811
1.828193 -6.880519 1.127580
2.279378 -8.584617 -0.777081
1.822834 -6.865178 1.380694
2.487820 -9.376251 -0.508392
1.612696 -6.082314 1.452734
2.484505 -9.376961 -0.169323
1.810223 -6.836920 1.895073
2.472318 -9.390520 0.169498
1.451277 -5.516247 -1.316863
2.469079 -9.391530 0.508915
1.430714 -5.445812 -1.094480
2.466364 -9.394543 0.849768
1.983015 -7.558801 -1.237710
2.462247 -9.385526 1.191395
2.051346 -7.824831 -0.993235
2.458449 -9.384397 1.536500
2.176234 -8.313043 -0.751805
2.453025 -9.377042 1.884048
2.451417 -9.377578 -0.507973
2.438045 -9.333078 2.227015
2.449231 -9.375901 -0.169149
1.792690 -6.867497 1.901802
2.435002 -9.381673 0.169184
2.439426 -9.405465 0.509229
1.409692 -5.439124 -1.092191
1.675417 -6.469037 0.584641
1.964372 -7.590196 -1.241777
1.743572 -6.741894 0.855035
2.056306 -7.956870 -1.009078
2.424351 -9.381021 1.534622
2.134209 -8.264270 -0.746750
2.418972 -9.373718 1.881758
2.418311 -9.377919 -0.507554
1.506979 -5.848102 1.394247
2.416630 -9.378162 -0.169044
2.394239 -9.297991 2.572661
2.399910 -9.374199 0.168904
1.626482 -6.362381 0.344161
1.396042 -5.464935 -1.096389
2.396941 -9.389879 0.847851
1.943100 -7.611981 -1.244280
1.685388 -6.607223 0.837242
2.015689 -7.907860 -1.002010
2.390128 -9.383684 1.533684
2.109770 -8.289047 -0.748319
2.384969 -9.370274 1.879469
2.382769 -9.368465 -0.506612
2.367452 -9.315046 2.218917
2.381909 -9.378789 -0.168904
2.359393 -9.296928 2.570073
2.366196 -9.378641 0.168835
2.360530 -9.369975 0.506403
1.375994 -5.461919 -1.094862
1.601676 -6.362433 0.574008
1.919408 -7.630212 -1.246157
2.355309 -9.369954 1.186276
1.999679 -7.961055 -1.007860
2.351106 -9.367064 1.529616
2.092941 -8.344674 -0.752677
2.348426 -9.363307 1.876416
2.346168 -9.361228 -0.505775
1.569397 -6.266541 1.491425
2.346244 -9.375406 -0.168695
1.624864 -6.497646 1.794651
2.330066 -9.373259 0.168590
2.326366 -9.372342 0.506089
1.353130 -5.455493 -1.092572
2.324140 -9.377376 0.845236
1.889531 -7.629525 -1.244906
2.320679 -9.370411 1.185301
1.973308 -7.973768 -1.008591
1.526944 -6.174716 1.007438
2.040381 -8.257152 -0.744136
2.312209 -9.364227 1.874889
2.309928 -9.362008 -0.505356
2.295135 -9.309044 2.213518
2.309194 -9.366065 -0.168381
2.292582 -9.305672 2.568003
2.294270 -9.375908 0.168486
1.576845 -6.448908 0.347929
1.334079 -5.460183 -1.092572
2.285723 -9.362205 0.843145
1.861013 -7.628398 -1.243654
2.283498 -9.367282 1.183839
1.937963 -7.955874 -1.005422
2.274435 -9.337186 1.522107
2.038403 -8.374569 -0.754071
2.275332 -9.355073 1.871455
2.276292 -9.366132 -0.505147
2.261708 -9.313211 2.212619
2.270824 -9.350751 -0.167962
1.527528 -6.294811 1.735641
2.256134 -9.354305 0.167962
2.257137 -9.372821 0.505251
1.316848 -5.472441 -1.094099
2.251631 -9.364314 0.842622
1.834783 -7.630687 -1.243028
2.250103 -9.365151 1.182620
1.953276 -8.135979 -1.027359
2.240906 -9.341227 1.521482
2.002192 -8.352571 -0.751457
2.239264 -9.341566 1.867257
2.243358 -9.365860 -0.504728
2.227182 -9.305499 2.209019
2.237241 -9.354731 -0.167892
2.217682 -9.280113 2.556615
2.220232 -9.348505 0.167718
2.222564 -9.372869 0.504833
1.286011 -5.423290 -1.083414
1.622933 -6.849467 0.615842
1.806315 -7.629355 -1.241777
1.634716 -6.909942 0.871853
1.911621 -8.086724 -1.020290
1.642024 -6.951667 1.131334
1.965780 -8.322323 -0.748145
1.421486 -6.022701 1.202860
2.202400 -9.338644 -0.502844
2.192899 -9.305628 2.207220
2.202280 -9.352751 -0.167718
2.185276 -9.287797 2.556615
2.187587 -9.356198 0.167718
2.185291 -9.361121 0.503786
2.186028 -9.371662 0.841924
1.551442 -6.656394 -1.082527
2.181966 -9.369032 1.181158
1.883381 -8.093348 -1.020290
2.176534 -9.360492 1.522107
1.901071 -8.175824 -0.734374
2.172216 -9.349322 1.865731
2.169337 -9.344329 -0.502739
1.491057 -6.427759 1.523369
2.168717 -9.356485 -0.167648
