# This PCD file was generated using the MATLAB® pcwrite function
# from Computer Vision Toolbox®.
# .PCD v.7 - Point Cloud Data file format
VERSION .7
FIELDS x y z
SIZE 4 4 4
TYPE F F F
COUNT 1 1 1
WIDTH 1729
HEIGHT 1
VIEWPOINT 0 0 0 1 0 0 0
POINTS 1729
DATA ascii
2.558014 7.703144 -0.141679
2.573039 7.743860 2.186503
1.737559 5.208122 -1.471128
2.570743 7.701013 0.141714
1.977458 5.920296 -1.441036
8.307879 24.858498 1.373610
2.315575 6.928570 -1.420001
4.915270 14.698737 1.355969
2.592430 7.747954 -1.294026
3.463617 10.345673 1.339588
2.629963 7.851032 -1.016634
2.632270 7.853355 1.311860
2.580224 7.698078 -0.710319
2.583144 7.702329 1.579135
2.584772 7.702736 -0.425805
2.590907 7.716539 1.879241
2.584889 7.694167 -0.141679
2.603743 7.745820 2.189609
1.751405 5.189211 -1.467504
2.602090 7.705254 0.141958
1.999982 5.918897 -1.442386
8.432472 24.955692 1.380518
2.337233 6.913005 -1.418474
6.051928 17.889938 1.652298
2.622625 7.748214 -1.295590
3.507990 10.357961 1.342757
2.658533 7.849789 -1.017609
2.658296 7.844584 1.311860
2.608358 7.692799 -0.710668
2.613167 7.702562 1.581043
2.614856 7.703123 -0.426329
2.619612 7.717132 1.881491
2.612318 7.691235 -0.141783
2.630660 7.740802 2.190645
1.776712 5.207144 -1.474233
2.628921 7.700367 0.142028
2.017078 5.904856 -1.440587
8.581030 25.120375 1.391194
2.361413 6.908932 -1.419237
6.058358 17.715183 1.638005
2.649582 7.743212 -1.296216
3.551318 10.372564 1.346169
2.690978 7.859711 -1.020047
2.688779 7.848806 1.314050
2.639020 7.699185 -0.712062
2.638694 7.693855 1.581043
2.642333 7.700075 -0.426643
2.650251 7.723147 1.885090
2.639755 7.688203 -0.141888
2.658828 7.739342 2.192715
1.790822 5.192092 -1.471645
2.657703 7.701059 0.142202
2.032833 5.887082 -1.437887
8.668672 25.090267 1.391194
2.380466 6.889929 -1.416948
6.061085 17.533054 1.623014
2.676538 7.738117 -1.296842
4.785476 13.827437 1.796598
2.723595 7.865276 -1.021996
2.723272 7.859905 1.317491
2.667800 7.699804 -0.712934
2.670625 7.703611 1.584860
2.669815 7.696931 -0.426957
2.683582 7.732261 1.889589
2.672482 7.695943 -0.142202
2.689630 7.740964 2.195821
1.816569 5.207698 -1.477857
2.692474 7.714391 0.142621
2.052084 5.876272 -1.436987
8.836570 25.289885 1.403965
2.403205 6.877872 -1.416184
6.064384 17.346285 1.607675
2.706140 7.736185 -1.298093
3.489379 9.969672 1.296934
2.749720 7.851974 -1.021509
2.752000 7.854079 1.318117
2.700593 7.707366 -0.714503
2.696853 7.692389 1.584478
2.702615 7.704529 -0.427899
2.710558 7.722846 1.889589
2.704632 7.701660 -0.142481
2.723037 7.749755 2.200997
1.840521 5.217721 -1.482516
2.722050 7.712489 0.142761
2.072583 5.869073 -1.436987
8.858261 25.070566 1.393497
2.423276 6.858334 -1.413895
6.071774 17.174732 1.593730
2.738396 7.741591 -1.300596
3.492365 9.867607 1.285234
2.781089 7.853554 -1.022971
2.782692 7.853737 1.319681
2.730137 7.705406 -0.715200
2.730902 7.703282 1.588676
2.734835 7.710106 -0.428736
2.743363 7.729866 1.893638
2.734174 7.699710 -0.142621
2.753955 7.751125 2.204103
1.853531 5.196709 -1.478374
2.754330 7.718006 0.143040
2.091748 5.858131 -1.436087
8.851653 24.776173 1.378843
2.443240 6.838739 -1.411605
6.071326 16.984583 1.578042
2.768066 7.739425 -1.301848
3.490674 9.754429 1.272072
2.816514 7.866225 -1.025896
2.812090 7.849553 1.320620
2.756347 7.693954 -0.715026
2.767051 7.719576 1.594018
2.763753 7.706152 -0.429050
2.772302 7.725747 1.894988
2.762388 7.693883 -0.142691
2.782299 7.745101 2.205138
1.871658 5.190207 -1.478374
2.782614 7.712108 0.143110
2.112185 5.850794 -1.436087
8.867501 24.549768 1.367957
2.465759 6.826478 -1.410842
6.075052 16.809637 1.563748
2.796410 7.733430 -1.302473
3.499031 9.671253 1.262810
2.846661 7.863812 -1.026871
2.843512 7.850832 1.322497
2.785884 7.687545 -0.715374
2.791968 7.704335 1.592874
2.794042 7.705846 -0.429574
2.805236 7.732508 1.899037
2.796728 7.704872 -0.143075
2.811958 7.742604 2.207209
1.895968 5.197830 -1.482516
2.811575 7.707982 0.143214
2.128586 5.832402 -1.433388
9.246358 25.321632 1.412757
2.488746 6.811861 -1.409697
6.085998 16.648783 1.550849
2.827449 7.730550 -1.303725
3.500042 9.569493 1.251111
2.878189 7.865012 -1.028334
2.869539 7.837150 1.321871
2.816816 7.688999 -0.716420
2.822220 7.699578 1.594018
2.824328 7.701180 -0.429888
2.837584 7.733151 1.901736
2.832563 7.719467 -0.143529
2.842963 7.743621 2.210315
1.916102 5.196620 -1.484068
2.848111 7.720139 0.143633
2.148597 5.820905 -1.432488
9.243393 25.041878 1.398940
2.509784 6.795767 -1.408170
6.092977 16.489138 1.537950
2.859898 7.735455 -1.306228
3.511674 9.493300 1.242824
2.912506 7.869304 -1.030284
2.907165 7.854873 1.326564
2.850559 7.697803 -0.718163
2.858623 7.715455 1.599361
2.856749 7.706255 -0.430725
2.865241 7.725027 1.902186
2.863666 7.720781 -0.143738
2.874004 7.744519 2.213420
1.941652 5.209811 -1.489762
2.877885 7.721895 0.143843
2.167887 5.813749 -1.432488
9.256752 24.811102 1.387845
2.525253 6.764893 -1.403591
6.094718 16.318457 1.524005
2.890366 7.738884 -1.308418
3.527851 9.440692 1.237461
2.939975 7.863322 -1.030771
2.932484 7.839128 1.325626
2.879506 7.693403 -0.718686
2.886948 7.713286 1.600888
2.887890 7.711703 -0.431562
2.893579 7.722781 1.903986
2.887790 7.703249 -0.143598
2.905093 7.745292 2.216526
1.955516 5.194304 -1.487174
2.908344 7.721160 0.144017
2.189544 5.809792 -1.433388
9.254519 24.543165 1.374656
2.546981 6.754644 -1.403209
6.091135 16.145296 1.509712
2.920155 7.736139 -1.309669
4.816214 12.752465 1.673754
2.978630 7.882723 -1.034671
2.963325 7.838082 1.327190
2.909870 7.692623 -0.719558
2.920803 7.721525 1.604704
2.918324 7.710917 -0.432086
2.923964 7.721747 1.906235
2.919623 7.706211 -0.143843
2.932110 7.735105 2.216526
1.976602 5.192518 -1.488727
2.938126 7.718435 0.144157
2.207037 5.794829 -1.431589
9.251930 24.279291 1.361677
2.572419 6.747098 -1.403591
6.099146 15.988831 1.497161
2.951309 7.732766 -1.310921
4.821058 12.631720 1.660104
3.004713 7.868568 -1.034183
2.996309 7.842453 1.329693
2.942394 7.697308 -0.720952
2.947680 7.707101 1.603940
2.948710 7.705763 -0.432400
2.957126 7.723718 1.909385
2.954368 7.716515 -0.144227
2.963241 7.735646 2.219632
2.001652 5.203617 -1.493904
2.966394 7.707615 0.144157
2.226160 5.781245 -1.430239
9.264860 24.060461 1.351210
2.595957 6.738077 -1.403591
6.111920 15.855899 1.486703
2.980415 7.727946 -1.311860
4.823020 12.499140 1.644993
3.037821 7.868614 -1.035646
3.027933 7.843003 1.331570
2.974269 7.700000 -0.722172
2.979521 7.709582 1.606612
2.981351 7.710327 -0.433237
2.990395 7.729706 1.913434
2.984892 7.715481 -0.144401
2.995806 7.739667 2.223773
2.024002 5.207402 -1.497009
2.996286 7.708918 0.144366
2.244614 5.772015 -1.429789
9.258984 23.797169 1.338231
2.618035 6.725316 -1.402828
6.112279 15.693368 1.473455
3.013196 7.736426 -1.314988
4.825518 12.383199 1.631831
3.065342 7.862196 -1.036133
3.061755 7.848948 1.334386
3.007650 7.706275 -0.723741
3.012207 7.717949 1.610428
3.009810 7.707839 -0.433656
3.017431 7.723376 1.914333
3.014720 7.712464 -0.144541
3.025617 7.736360 2.225844
2.041964 5.202460 -1.497527
3.029023 7.713304 0.144646
2.264747 5.764145 -1.429789
9.267469 23.575106 1.327554
2.635294 6.703807 -1.400156
6.113237 15.543226 1.461253
3.044521 7.736891 -1.316865
4.830896 12.270231 1.619156
3.094221 7.855143 -1.036621
3.088408 7.836375 1.334073
3.041108 7.712411 -0.725310
3.042008 7.714694 1.611954
3.044026 7.715866 -0.434703
3.045806 7.716421 1.915233
3.046029 7.713055 -0.144750
3.061121 7.747313 2.232056
2.060305 5.193146 -1.497009
3.061089 7.715695 0.144890
2.281980 5.748959 -1.427989
9.270096 23.342136 1.316249
2.655496 6.683157 -1.397867
6.114230 15.380003 1.448005
3.079431 7.742200 -1.319681
4.834084 12.153687 1.605994
3.130428 7.866427 -1.039546
3.115015 7.823710 1.333760
3.067276 7.699897 -0.725136
3.078984 7.725377 1.616534
3.076726 7.715788 -0.435331
3.081287 7.723306 1.919732
3.076641 7.711660 -0.144925
3.088860 7.738374 2.232573
2.079858 5.189508 -1.498045
3.091583 7.709991 0.144995
2.303034 5.740557 -1.427989
9.279696 23.118946 1.305573
2.679541 6.675669 -1.398248
6.117386 15.232844 1.436152
3.113064 7.747900 -1.322497
4.840092 12.040112 1.593320
3.159241 7.854900 -1.039546
3.150305 7.828735 1.336576
3.103058 7.711324 -0.727228
3.103734 7.709119 1.615389
3.105132 7.708706 -0.435540
3.114053 7.726964 1.923331
3.104135 7.698478 -0.144890
3.119375 7.732374 2.234126
2.103036 5.194750 -1.501668
3.119977 7.702860 0.145064
2.317936 5.719839 -1.424840
9.283799 22.897617 1.294896
2.702091 6.664454 -1.397867
6.127080 15.104317 1.426042
3.141578 7.740646 -1.323123
4.843258 11.927502 1.580645
3.192616 7.858538 -1.041496
3.183565 7.832330 1.339079
3.133710 7.709672 -0.728099
3.135804 7.710967 1.618060
3.133525 7.701521 -0.435749
3.145417 7.726875 1.926031
3.140796 7.711670 -0.145344
3.153632 7.739330 2.239302
2.121887 5.189167 -1.502186
3.155934 7.714131 0.145483
2.336408 5.708107 -1.423940
9.277953 22.667082 1.283592
2.722361 6.647715 -1.396340
6.137469 14.979590 1.416281
3.176070 7.747912 -1.326252
3.667600 8.942536 1.186764
3.215647 7.840560 -1.040521
3.215518 7.836351 1.341582
3.165901 7.711588 -0.729319
3.171651 7.721768 1.622640
3.162668 7.696077 -0.436063
3.171762 7.718205 1.926481
3.172438 7.716009 -0.145623
3.183691 7.739549 2.242408
2.144979 5.196388 -1.506327
3.186080 7.714712 0.145693
2.355326 5.700328 -1.423940
9.278331 22.455292 1.273334
2.740639 6.629580 -1.394432
6.190160 14.966519 1.416978
3.206276 7.748289 -1.328129
4.850673 11.716353 1.557003
3.247703 7.844527 -1.042470
3.241489 7.825643 1.341582
3.195265 7.710253 -0.730191
3.202502 7.723903 1.625311
3.195827 7.703995 -0.437110
3.204062 7.723845 1.930530
3.194939 7.698059 -0.145483
3.215264 7.743223 2.246549
2.161457 5.187462 -1.505809
3.223955 7.733636 0.146251
2.372714 5.688889 -1.423040
9.278211 22.234758 1.262657
2.759586 6.613206 -1.392906
7.518561 18.009005 1.707381
3.234996 7.744905 -1.329380
4.847404 11.599463 1.543597
3.279662 7.844131 -1.043933
3.270305 7.817928 1.342208
3.222352 7.703291 -0.730539
3.238711 7.738595 1.630654
3.230612 7.715462 -0.438366
3.239280 7.732386 1.935479
3.223335 7.690548 -0.145553
3.245264 7.739078 2.248620
2.180302 5.181666 -1.506327
3.250929 7.722336 0.146251
2.391803 5.678776 -1.422590
9.284421 22.032904 1.253028
2.784942 6.608960 -1.394051
7.508618 17.810078 1.690996
3.266619 7.744486 -1.331257
4.849277 11.491026 1.531410
3.317832 7.858238 -1.047345
3.307569 7.830119 1.346275
3.255426 7.706678 -0.731934
3.261120 7.716391 1.628364
3.262968 7.717016 -0.439099
3.272328 7.735390 1.939078
3.264192 7.712397 -0.146181
3.278283 7.741935 2.252761
2.204417 5.188250 -1.510468
3.283343 7.723823 0.146495
2.406274 5.657839 -1.419441
9.289314 21.831289 1.243398
2.810297 6.604620 -1.395195
7.514557 17.651768 1.678445
3.297505 7.742122 -1.332822
4.851997 11.386374 1.519711
3.353029 7.864869 -1.049783
3.334109 7.816708 1.345962
3.287781 7.708096 -0.733154
3.294195 7.719409 1.631417
3.293809 7.714763 -0.439622
3.303905 7.734672 1.941777
3.298161 7.717507 -0.146495
3.312124 7.746429 2.257420
2.225561 5.187624 -1.512539
3.315015 7.723341 0.146705
2.424469 5.645824 -1.418541
9.291359 21.626232 1.233559
2.827911 6.582143 -1.392524
7.522621 17.500959 1.666592
3.329191 7.741454 -1.334699
4.857196 11.289134 1.508986
3.382033 7.856761 -1.050270
3.369186 7.823166 1.349091
3.318606 7.705722 -0.734026
3.327337 7.722285 1.634470
3.323882 7.710553 -0.440041
3.331654 7.724882 1.942227
3.329043 7.715127 -0.146670
3.342975 7.743689 2.260008
2.245191 5.183369 -1.513574
3.348314 7.726401 0.146984
2.441063 5.630174 -1.416742
9.301059 21.452368 1.225394
2.843836 6.556022 -1.389090
7.524966 17.339346 1.653693
3.363276 7.746091 -1.337515
4.857025 11.181075 1.496799
3.415763 7.859476 -1.052220
3.393534 7.808328 1.348465
3.351842 7.708707 -0.735420
3.366019 7.737629 1.640194
3.357945 7.715388 -0.440983
3.364825 7.727499 1.945827
3.359402 7.715044 -0.146879
3.377893 7.753815 2.266220
2.267142 5.184350 -1.516162
3.380329 7.729913 0.147263
2.459719 5.622049 -1.416742
9.294191 21.233149 1.214718
2.863555 6.538861 -1.387563
7.524683 17.174278 1.640445
3.396870 7.752991 -1.340644
4.862201 11.092182 1.487050
3.454565 7.877192 -1.056120
3.423946 7.803669 1.349717
3.378728 7.696961 -0.735420
3.402709 7.751591 1.645537
3.393955 7.727983 -0.442344
3.394349 7.725219 1.948076
3.390334 7.712424 -0.147054
3.404937 7.741977 2.266220
2.285880 5.180339 -1.517197
3.408100 7.719894 0.147298
2.480902 5.616994 -1.417642
3.530146 7.988809 0.457730
2.886015 6.531126 -1.387945
7.525206 17.021671 1.628244
3.420715 7.733860 -1.339392
4.860723 10.984378 1.474863
3.482043 7.865084 -1.056120
3.460763 7.813344 1.353471
3.410687 7.700288 -0.736815
3.428953 7.737870 1.645155
3.421721 7.717913 -0.442448
3.429984 7.732919 1.953025
3.428592 7.726131 -0.147543
3.438214 7.744168 2.270361
2.309450 5.184681 -1.520821
3.443165 7.726216 0.147647
2.494940 5.595840 -1.414492
3.562895 7.987381 0.458358
2.907998 6.519218 -1.387563
7.530983 16.875219 1.616739
3.454941 7.738106 -1.342208
4.865844 10.893030 1.464870
3.519193 7.874630 -1.059045
3.487211 7.799412 1.353158
3.446493 7.708343 -0.738732
3.462354 7.740191 1.648208
3.451903 7.713216 -0.442867
3.463329 7.735126 1.956624
3.457991 7.719592 -0.147647
3.469964 7.742697 2.273467
2.330704 5.183636 -1.522891
3.471753 7.717799 0.147717
2.512858 5.583544 -1.413592
3.595672 7.985824 0.458986
2.928317 6.503657 -1.386418
7.539112 16.736197 1.605932
3.491668 7.747610 -1.345962
4.860591 10.780069 1.451952
3.543397 7.855059 -1.058070
3.522543 7.805196 1.356287
3.479119 7.708977 -0.739952
3.499853 7.751320 1.653169
3.484563 7.713859 -0.443600
3.495126 7.733644 1.959324
3.489858 7.718408 -0.147857
3.503341 7.744617 2.277608
2.351181 5.180745 -1.524444
3.505284 7.720200 0.147996
2.534752 5.580060 -1.414942
3.626834 7.980496 0.459405
2.947754 6.486247 -1.384892
7.543048 16.590078 1.594427
3.525237 7.749759 -1.348465
4.880926 10.725094 1.446833
3.582305 7.867938 -1.061482
3.551403 7.796449 1.356913
3.514264 7.714917 -0.741695
3.527704 7.740842 1.653551
3.518920 7.718007 -0.444542
3.525334 7.728489 1.961123
3.518442 7.709816 -0.147927
3.537574 7.748158 2.282267
2.373272 5.181288 -1.527032
3.541377 7.727913 0.148380
2.550155 5.562321 -1.412693
3.684644 8.033142 0.463173
2.967102 6.468780 -1.383365
3.879816 8.454757 0.813860
3.558038 7.749972 -1.350655
3.875175 8.436872 1.139966
3.614723 7.866207 -1.062944
3.582723 7.792977 1.358477
3.545013 7.707417 -0.742218
3.562085 7.744534 1.656985
3.554191 7.723819 -0.445588
3.558811 7.730297 1.964723
3.552860 7.713836 -0.148241
3.568639 7.744536 2.284855
2.398736 5.186582 -1.531174
3.569173 7.717319 0.148415
2.569552 5.553387 -1.412693
2.990793 6.457860 -1.383365
3.827016 8.259704 0.796429
3.576449 7.715374 -1.346901
3.717597 8.019868 1.085368
3.647172 7.864346 -1.064407
3.612393 7.785802 1.359416
3.581125 7.714872 -0.744136
3.592929 7.736767 1.658130
3.588366 7.723421 -0.446321
3.596975 7.738408 1.970121
3.591567 7.726773 -0.148729
3.605428 7.753052 2.291066
2.426629 5.199184 -1.537385
3.601662 7.713245 0.148590
2.586594 5.536868 -1.410893
3.743176 8.012649 0.463487
3.009990 6.440268 -1.381839
3.737679 7.993616 0.772026
3.600013 7.695684 -1.345649
3.808390 8.137439 1.103161
3.681021 7.861713 -1.065869
3.645414 7.785667 1.361606
3.630855 7.751039 -0.748842
3.629910 7.745512 1.662710
3.615305 7.710847 -0.446321
3.630588 7.739918 1.973721
3.615122 7.706945 -0.148590
3.636571 7.749165 2.293654
2.449703 5.201168 -1.540491
3.636595 7.721158 0.148974
2.601614 5.521210 -1.409093
3.795815 8.051929 0.466523
3.032454 6.429721 -1.381839
3.887137 8.238190 0.796952
3.617078 7.665842 -1.342521
3.875180 8.209137 1.114617
3.708768 7.853052 -1.066357
3.675103 7.778252 1.362544
3.727703 7.886025 -0.763136
3.663964 7.751182 1.666526
3.645127 7.707841 -0.446844
3.657901 7.731361 1.974620
3.655685 7.723201 -0.149148
3.668562 7.746899 2.296760
2.471081 5.201741 -1.543079
3.672962 7.728286 0.149358
2.620035 5.510334 -1.408643
3.903690 8.206363 0.476257
3.049541 6.410766 -1.379931
3.898166 8.191074 0.793640
3.643817 7.653168 -1.342521
3.876497 8.138210 1.106817
3.753236 7.875899 -1.071232
3.702230 7.765377 1.362544
3.673238 7.704566 -0.746750
3.696916 7.750748 1.669197
3.678890 7.709492 -0.447682
3.688222 7.725580 1.976420
3.678315 7.701370 -0.148974
3.708909 7.761933 2.305043
2.486717 5.187858 -1.541526
3.707700 7.731646 0.149672
2.645156 5.513454 -1.411793
3.909840 8.145871 0.473536
3.064253 6.384152 -1.376496
3.891376 8.103777 0.786493
3.667089 7.633278 -1.341269
3.861883 8.035171 1.094630
3.791026 7.884219 -1.074156
3.736167 7.766646 1.365047
3.702703 7.697082 -0.747273
3.739272 7.769639 1.676066
3.715308 7.716399 -0.448833
3.725317 7.733726 1.981819
3.716460 7.711904 -0.149428
3.732620 7.741982 2.302972
2.508177 5.186102 -1.543597
3.737282 7.724056 0.149777
2.660136 5.495418 -1.409543
3.913878 8.081841 0.470605
3.086521 6.373417 -1.376496
3.899661 8.048904 0.782484
3.686818 7.606212 -1.338766
3.713214 7.657264 1.044908
3.823725 7.881653 -1.075619
3.764978 7.757112 1.365673
3.741725 7.709204 -0.749714
3.769803 7.763604 1.677593
3.756186 7.732127 -0.450508
3.765918 7.748719 1.989017
3.754726 7.722262 -0.149881
3.763849 7.737590 2.305560
2.534735 5.194678 -1.548773
3.772114 7.727137 0.150091
2.672463 5.472090 -1.405944
3.916640 8.016088 0.467569
3.108752 6.362603 -1.376496
3.793862 7.761377 0.755815
3.711609 7.589748 -1.338141
3.889972 7.950952 1.086831
3.862557 7.891437 -1.078787
3.801587 7.763439 1.369115
3.775620 7.710412 -0.751108
3.796018 7.748632 1.677211
3.780514 7.713587 -0.450194
3.798089 7.746025 1.991717
3.790468 7.727060 -0.150230
3.806153 7.755622 2.314878
2.552854 5.185798 -1.548773
3.806134 7.728272 0.150370
2.685518 5.450492 -1.402795
3.913689 7.939668 0.463906
3.135281 6.360518 -1.378404
3.832388 7.771314 0.758081
3.739825 7.580289 -1.338766
3.890464 7.882143 1.079275
3.890961 7.879685 -1.079031
3.833915 7.760747 1.370992
3.810920 7.710811 -0.752503
3.838698 7.767016 1.684080
3.815387 7.716458 -0.451136
3.826835 7.736213 1.992617
3.822737 7.724536 -0.150440
3.844347 7.764794 2.321607
2.580438 5.193708 -1.553950
3.837535 7.723895 0.150544
2.701926 5.435849 -1.401445
3.812430 7.666649 0.448729
3.146329 6.324377 -1.373062
3.908783 7.853536 0.767493
3.767586 7.566530 -1.338766
3.896717 7.825869 1.073425
3.925522 7.880271 -1.080981
3.867148 7.759694 1.373182
3.845811 7.713509 -0.754071
3.873273 7.765193 1.686752
3.847208 7.709570 -0.451555
3.860385 7.732597 1.995316
3.854142 7.720091 -0.150614
3.871430 7.751327 2.321607
2.599419 5.186395 -1.554467
3.864924 7.707989 0.150510
2.721830 5.425910 -1.401445
3.909914 7.794329 0.456998
3.168387 6.313355 -1.373062
3.910250 7.788205 0.762438
3.788653 7.542743 -1.336889
3.902202 7.765416 1.067088
3.961514 7.880018 -1.082931
3.895100 7.747911 1.373495
3.876293 7.707159 -0.754769
3.911828 7.774424 1.691713
3.887568 7.722852 -0.453125
3.902252 7.748664 2.002964
3.888260 7.720880 -0.150894
3.903678 7.748118 2.324713
2.619249 5.180738 -1.555503
3.868808 7.652301 0.149672
2.742448 5.422070 -1.402795
3.931689 7.769939 0.456370
3.190404 6.302257 -1.373062
3.926608 7.753180 0.760347
3.810077 7.523087 -1.335638
3.924341 7.745350 1.066113
3.996596 7.884544 -1.085368
3.934627 7.758933 1.377875
3.917597 7.722009 -0.757558
3.938474 7.763160 1.692094
3.923103 7.729508 -0.454276
3.934986 7.749580 2.006563
3.932397 7.741133 -0.151557
3.934203 7.741333 2.326783
2.639045 5.177188 -1.557055
3.940009 7.726041 0.151382
2.755160 5.400312 -1.399645
3.952433 7.743714 0.455637
3.204147 6.277652 -1.370009
3.951389 7.738343 0.760172
3.827330 7.492149 -1.332509
3.953163 7.735139 1.066601
4.024092 7.870546 -1.085368
3.970685 7.762736 1.381004
3.989458 7.799438 -0.766448
3.971811 7.761598 1.694765
3.953695 7.722881 -0.454695
3.969123 7.749673 2.010163
3.962132 7.732697 -0.151661
3.971771 7.748185 2.332995
2.665053 5.183406 -1.561714
3.973359 7.724687 0.151627
2.769532 5.382000 -1.397396
3.978524 7.728096 0.455532
3.231431 6.276903 -1.372298
3.989326 7.745757 0.762264
3.856168 7.484015 -1.333447
3.991052 7.742467 1.069525
4.058822 7.870565 -1.087318
4.006817 7.766384 1.384132
4.070557 7.889931 -0.776732
4.010584 7.770367 1.699727
3.984296 7.716130 -0.455114
3.998835 7.740963 2.011512
3.993690 7.727704 -0.151836
4.007667 7.751434 2.338171
2.676906 5.162066 -1.558091
4.005823 7.721421 0.151836
2.789201 5.374029 -1.397846
4.014248 7.734361 0.456684
3.241563 6.242934 -1.367337
4.025523 7.749467 0.764007
3.881360 7.468754 -1.333135
4.023551 7.739056 1.070988
4.093597 7.870439 -1.089268
4.034366 7.756561 1.384758
4.107264 7.893351 -0.778475
4.049471 7.778958 1.704688
4.016740 7.712805 -0.455742
4.031229 7.737330 2.014212
4.021140 7.717965 -0.151906
4.044960 7.760370 2.344901
2.690428 5.144133 -1.555503
4.047159 7.738219 0.152429
2.806105 5.363023 -1.397396
4.049560 7.736225 0.457626
3.259687 6.224626 -1.365811
4.055325 7.740661 0.764530
3.906108 7.455841 -1.333135
4.058405 7.743253 1.073425
4.127047 7.870886 -1.091218
4.063255 7.745929 1.385384
4.117203 7.845444 -0.775163
4.088015 7.789825 1.710030
4.048792 7.711822 -0.456474
4.065022 7.739445 2.018261
4.051779 7.710962 -0.152045
4.072917 7.747916 2.345418
2.712879 5.145436 -1.558608
4.074147 7.724043 0.152429
2.823900 5.351470 -1.396946
4.088660 7.745005 0.458986
3.280313 6.213781 -1.365811
4.085622 7.735980 0.765402
3.921961 7.422947 -1.329693
4.095613 7.748346 1.076106
4.165634 7.877490 -1.094143
4.101355 7.752651 1.389138
4.134311 7.811656 -0.773246
4.114262 7.773774 1.709649
4.085034 7.715292 -0.457521
4.102961 7.745872 2.023660
4.088032 7.714442 -0.152394
4.104465 7.742185 2.348006
2.730812 5.133753 -1.558091
4.111413 7.729197 0.152813
2.836151 5.329540 -1.393797
4.122242 7.743025 0.459719
3.302144 6.199983 -1.365429
4.129874 7.750846 0.768365
3.946352 7.403294 -1.328755
4.126371 7.741008 1.077081
4.204318 7.883919 -1.097068
4.136755 7.753976 1.391954
4.224410 7.914942 -0.784925
4.156600 7.784619 1.715373
4.117989 7.709078 -0.458044
4.138669 7.744532 2.027259
4.127190 7.723051 -0.152848
4.142397 7.748254 2.354218
2.751456 5.129296 -1.559644
4.150118 7.733457 0.153197
2.854745 5.317391 -1.393347
4.153022 7.735628 0.460138
3.327481 6.195338 -1.366956
4.160678 7.743402 0.769062
3.968427 7.382514 -1.327503
4.164116 7.743316 1.079519
4.235065 7.871953 -1.097555
4.169414 7.749926 1.393831
4.227464 7.854531 -0.780393
4.193984 7.789077 1.719571
4.153400 7.710480 -0.458986
4.175849 7.748908 2.032208
4.166458 7.731480 -0.153302
4.194169 7.779660 2.368194
2.761992 5.106066 -1.555503
4.186208 7.738998 0.153581
2.879781 5.321607 -1.396946
4.191408 7.742162 0.461394
3.336933 6.161242 -1.361995
4.198122 7.748102 0.770980
3.995709 7.374526 -1.328442
4.200175 7.748662 1.082200
4.276289 7.885785 -1.101455
4.208685 7.757897 1.397899
4.192129 7.724154 -0.768888
4.230093 7.794106 1.723769
4.189431 7.715971 -0.460138
4.217330 7.764132 2.039856
4.198193 7.725677 -0.153476
4.226838 7.775155 2.371300
2.777059 5.093487 -1.554467
4.223728 7.743650 0.153965
2.896474 5.308100 -1.396046
4.226066 7.741508 0.462231
3.354523 6.144973 -1.360850
4.229525 7.744628 0.772026
4.024269 7.365732 -1.329380
4.234816 7.747889 1.084150
4.313311 7.888228 -1.103893
4.249961 7.769153 1.402592
4.217719 7.710211 -0.768888
4.260100 7.784461 1.724913
4.227847 7.722323 -0.461394
4.246281 7.752781 2.040756
4.232820 7.725005 -0.153756
4.251164 7.755272 2.369747
2.794821 5.083764 -1.554467
4.263258 7.751638 0.154419
2.918744 5.304786 -1.397846
4.262692 7.744206 0.463278
3.375004 6.131507 -1.360468
4.264220 7.743782 0.773420
4.038520 7.330876 -1.325626
4.275248 7.757400 1.087562
4.352324 7.893984 -1.106817
4.273241 7.747350 1.401340
4.252306 7.709397 -0.770282
4.290091 7.774700 1.726058
4.274084 7.742488 -0.463487
4.282740 7.754968 2.045255
4.285868 7.757442 -0.154698
4.285688 7.753910 2.373888
2.813487 5.075665 -1.554985
4.299017 7.752450 0.154733
2.928734 5.279230 -1.393797
4.304239 7.755473 0.464848
3.396388 6.119688 -1.360468
4.306701 7.756718 0.776209
4.059288 7.308102 -1.324062
4.307123 7.751103 1.088781
4.365382 7.852718 -1.103161
4.306977 7.744472 1.403530
4.311146 7.751968 -0.776035
4.328660 7.780264 1.730638
4.311768 7.746719 -0.464639
4.321158 7.760404 2.050654
4.321681 7.758155 -0.155012
4.320250 7.752404 2.378030
2.830244 5.064128 -1.554467
4.330934 7.746122 0.154908
2.947145 5.268973 -1.393797
4.333233 7.743889 0.465057
3.413893 6.100943 -1.358942
4.342508 7.757286 0.777778
4.081879 7.288716 -1.323123
4.342885 7.751609 1.090974
4.424793 7.894577 -1.111205
4.345579 7.750065 1.407285
4.361567 7.778580 -0.780218
4.365398 7.782228 1.734454
4.341713 7.736847 -0.464953
4.352993 7.753768 2.052903
4.353633 7.751739 -0.155187
4.360531 7.760856 2.385277
2.853595 5.064315 -1.557573
4.366786 7.746634 0.155222
2.962644 5.253563 -1.392447
4.372017 7.749589 0.466313
3.425523 6.071888 -1.355126
4.379354 7.759429 0.779521
4.107292 7.274426 -1.323123
4.378705 7.751957 1.093168
4.452326 7.879082 -1.111205
4.377461 7.743451 1.408849
4.377903 7.744232 -0.778301
4.400267 7.780614 1.737507
4.376564 7.735550 -0.465790
4.385787 7.748705 2.055603
4.383620 7.741716 -0.155292
4.397118 7.762395 2.390453
2.858852 5.032486 -1.550844
4.405655 7.752207 0.155641
2.984819 5.249966 -1.394247
4.409905 7.753376 0.467465
3.444758 6.056481 -1.354362
4.413308 7.756218 0.780741
4.133638 7.261760 -1.323436
4.418510 7.759049 1.096337
4.489626 7.880743 -1.113642
4.412291 7.741852 1.411352
4.409843 7.737556 -0.779172
4.442961 7.792495 1.743613
4.409475 7.730637 -0.466418
4.426331 7.757043 2.061901
4.414584 7.733313 -0.155431
4.428976 7.755388 2.393041
2.879278 5.027507 -1.552397
4.436667 7.743721 0.155780
3.004097 5.241205 -1.394697
4.446872 7.755265 0.468512
3.469780 6.051234 -1.355889
4.452255 7.761504 0.782833
4.152081 7.235292 -1.321246
4.454457 7.759076 1.098530
4.528974 7.885678 -1.116567
4.452084 7.748668 1.415419
4.448739 7.742846 -0.781264
4.468173 7.773537 1.742849
4.450373 7.739436 -0.467883
4.461157 7.755057 2.065500
4.451521 7.735192 -0.155780
4.463734 7.753273 2.397182
2.895845 5.015752 -1.551879
4.470665 7.740311 0.156025
3.009698 5.208752 -1.388848
4.485913 7.760444 0.469768
3.485971 6.030586 -1.353981
4.488298 7.761436 0.784402
4.174342 7.215627 -1.320307
4.484499 7.748632 1.099262
4.570400 7.893871 -1.119979
4.490983 7.753593 1.419174
4.487720 7.747960 -0.783356
4.509062 7.781673 1.748192
4.481370 7.730764 -0.468302
4.492109 7.746181 2.067300
4.489534 7.738630 -0.156164
4.502409 7.757694 2.403394
2.913335 5.005614 -1.551879
4.509734 7.745395 0.156443
3.025901 5.194846 -1.387948
4.518001 7.753367 0.470291
3.507988 6.020078 -1.354362
4.524389 7.761217 0.785971
4.190550 7.185653 -1.317491
4.529524 7.763796 1.103649
4.601924 7.884731 -1.120954
4.524996 7.749810 1.421364
4.526796 7.752892 -0.785448
4.556994 7.801485 1.756206
4.516385 7.728873 -0.469140
4.528958 7.747277 2.071799
4.530655 7.747078 -0.156653
4.544088 7.766944 2.411158
2.932746 4.998745 -1.552914
4.548892 7.750300 0.156862
3.043026 5.182573 -1.387498
4.553132 7.751325 0.471128
3.520032 5.992559 -1.350928
4.564578 7.767706 0.788237
4.217607 7.174388 -1.318117
4.566662 7.765047 1.106086
4.639487 7.885727 -1.123392
4.560034 7.747587 1.423867
4.562925 7.752499 -0.787016
4.591170 7.797374 1.758877
4.555502 7.733711 -0.470396
4.561907 7.741494 2.074499
4.562746 7.739829 -0.156827
4.585895 7.775995 2.418923
2.938378 4.968523 -1.546703
4.589153 7.756748 0.157316
3.065070 5.178627 -1.389298
4.593392 7.757725 0.472489
3.539930 5.978546 -1.350546
4.657664 7.863152 0.799567
4.244637 7.163021 -1.318743
4.731412 7.981291 1.139235
4.669008 7.872899 -1.123879
4.597128 7.748612 1.426995
4.594023 7.743378 -0.787714
4.630386 7.801558 1.763457
4.592665 7.734936 -0.471442
4.600843 7.745630 2.079897
4.599953 7.741045 -0.157176
4.614983 7.763262 2.419958
2.955702 4.958237 -1.546703
4.619276 7.745833 0.157421
3.085127 5.171243 -1.390198
4.760672 7.976603 0.486829
3.561782 5.967839 -1.350928
4.775988 7.999093 0.815080
4.263539 7.137985 -1.316865
6.174592 10.333355 1.478032
4.705631 7.871888 -1.126073
4.636316 7.752861 1.430750
4.636366 7.752944 -0.790328
4.662629 7.793772 1.765365
4.640152 7.753131 -0.473536
4.641870 7.752929 2.086196
4.647495 7.759252 -0.157874
4.646028 7.753733 2.422029
2.978961 4.957826 -1.549809
4.653495 7.741659 0.157665
3.103157 5.160443 -1.390198
4.815254 8.004436 0.489551
3.577531 5.946959 -1.349020
8.951283 14.873915 1.518776
4.282315 7.112906 -1.314988
6.174775 10.252224 1.469501
4.741278 7.869015 -1.128023
4.669467 7.746781 1.432627
4.674712 7.755483 -0.792246
4.696901 7.789220 1.768036
4.676475 7.752278 -0.474478
4.682998 7.760038 2.092495
4.681784 7.754966 -0.158119
4.688048 7.762272 2.429793
2.988241 4.934177 -1.545667
4.693963 7.747601 0.158119
3.129234 5.162910 -1.393797
4.855590 8.008073 0.490807
3.598267 5.934435 -1.349020
8.943221 14.743773 1.508666
4.307119 7.097913 -1.314988
6.214643 10.237396 1.470476
4.773868 7.860902 -1.129241
4.708790 7.750692 1.436381
4.733827 7.791903 -0.797649
4.731197 7.784522 1.770708
4.703506 7.735908 -0.474478
4.718162 7.756963 2.096094
4.715065 7.748825 -0.158328
4.725158 7.762362 2.434970
3.016520 4.941854 -1.551361
4.731399 7.748237 0.158468
3.157394 5.168586 -1.398296
4.894615 8.012380 0.492063
3.613843 5.913463 -1.347112
8.978001 14.685268 1.505877
4.329807 7.079466 -1.314363
6.264848 10.239345 1.473888
4.807494 7.854350 -1.130704
4.738590 7.741776 1.437633
4.791167 7.824608 -0.802704
4.773726 7.793070 1.776432
4.741961 7.738173 -0.475629
4.753356 7.753738 2.099693
4.744914 7.739967 -0.158468
4.760971 7.763120 2.440146
3.022618 4.913194 -1.545667
4.767547 7.749535 0.158817
3.182687 5.171366 -1.401895
4.933028 8.012252 0.493109
3.634464 5.900811 -1.347112
9.647944 15.658019 1.609069
4.349113 7.058342 -1.313111
7.569566 12.280127 1.771249
4.853312 7.870466 -1.135335
4.783214 7.753769 1.442952
4.802758 7.782403 -0.800090
4.809856 7.793903 1.780248
4.779135 7.741101 -0.476781
4.790305 7.756173 2.104642
4.783466 7.742069 -0.158852
4.795153 7.757956 2.443769
3.027696 4.885083 -1.539973
4.798782 7.739645 0.158957
3.210992 5.176784 -1.406394
4.976759 8.020440 0.494680
3.649870 5.882054 -1.345585
9.653584 15.551455 1.601400
4.364347 7.028014 -1.310295
7.573631 12.191238 1.762231
4.894376 7.875396 -1.138503
4.818597 7.750445 1.445455
4.816966 7.747821 -0.798172
4.845329 7.790401 1.783301
4.815622 7.739635 -0.477723
4.829709 7.759255 2.110041
4.819978 7.740601 -0.159166
4.832417 7.757569 2.448946
3.051895 4.885953 -1.543597
4.839547 7.744891 0.159410
3.229042 5.165545 -1.406394
5.016372 8.021647 0.495831
3.672461 5.872608 -1.346348
9.654980 15.433205 1.592684
4.386756 7.009389 -1.309669
7.579262 12.105843 1.753700
4.937644 7.883498 -1.142160
4.859259 7.755338 1.449522
4.855620 7.749531 -0.800090
4.878744 7.783424 1.785591
4.851100 7.736313 -0.478560
4.865051 7.755555 2.113640
4.857591 7.740670 -0.159515
4.870767 7.758649 2.454640
3.068933 4.875270 -1.543597
4.874006 7.739799 0.159655
3.255365 5.167431 -1.409993
5.054994 8.020985 0.496878
3.689799 5.854768 -1.345204
9.657780 15.318518 1.584317
4.418575 7.005728 -1.311860
7.570631 11.998726 1.742001
4.976782 7.884683 -1.144841
4.896845 7.755032 1.452651
4.892214 7.747697 -0.801659
4.924758 7.796223 1.792460
4.884471 7.729466 -0.479188
4.899381 7.750057 2.116790
4.897410 7.743947 -0.159934
4.910216 7.761189 2.460852
3.081792 4.858004 -1.541526
4.923497 7.758193 0.160388
3.280695 5.167552 -1.413142
5.092597 8.018465 0.497820
3.704949 5.833567 -1.343295
9.670594 15.220805 1.577693
4.439826 6.985259 -1.310921
7.580512 11.921973 1.734688
5.014931 7.884011 -1.147278
4.931311 7.749556 1.454841
4.924578 7.738976 -0.802530
4.965646 7.800516 1.797421
4.931808 7.744377 -0.481177
4.940018 7.754272 2.122638
4.939456 7.750413 -0.160423
4.948697 7.761924 2.466546
3.090407 4.834194 -1.537385
4.962401 7.759490 0.160772
3.306062 5.167562 -1.416292
5.135631 8.024190 0.499285
3.720000 5.812331 -1.341387
9.678549 15.116482 1.570372
4.456719 6.958078 -1.308731
7.581388 11.831925 1.725426
5.065991 7.903223 -1.152640
4.967924 7.747265 1.457657
4.961237 7.736837 -0.804099
5.003447 7.799658 1.801237
4.976073 7.754008 -0.482852
4.980736 7.758303 2.128487
4.972966 7.743218 -0.160632
4.986205 7.760853 2.471722
3.103077 4.816882 -1.535315
4.989455 7.742122 0.160772
3.338864 5.178919 -1.422590
5.172272 8.019640 0.500122
3.740268 5.799309 -1.341387
9.683725 15.008944 1.562702
4.474554 6.932518 -1.306854
7.583881 11.745351 1.716652
5.102162 7.898832 -1.154590
5.009948 7.753103 1.462037
4.996866 7.732858 -0.805493
5.034908 7.788739 1.802764
5.011785 7.750009 -0.483689
5.018374 7.757230 2.132986
5.016263 7.750992 -0.161156
5.026912 7.764484 2.478451
3.127234 4.817363 -1.538938
5.030611 7.746459 0.161225
3.355859 5.165599 -1.422141
5.214377 8.023312 0.501483
3.758345 5.782928 -1.340624
9.731717 14.968364 1.562005
4.494417 6.910235 -1.305602
7.583686 11.655583 1.707390
5.151363 7.914247 -1.159465
5.047762 7.752120 1.465165
5.034702 7.732063 -0.807236
5.074922 7.790858 1.807343
5.044260 7.740833 -0.484212
5.055001 7.754356 2.137035
5.054211 7.750187 -0.161505
5.066653 7.766304 2.484663
3.145090 4.808034 -1.539456
5.072948 7.752278 0.161714
3.373871 5.153853 -1.422141
5.250013 8.016755 0.502216
3.783887 5.777985 -1.342532
9.827579 15.000969 1.568978
4.515264 6.889546 -1.304664
7.585145 11.569275 1.698615
5.183311 7.902857 -1.160440
5.083458 7.747666 1.467668
5.074775 7.734433 -0.809328
5.110703 7.786228 1.810396
5.083307 7.741543 -0.485364
5.090596 7.749696 2.140634
5.093311 7.750881 -0.161889
5.106468 7.767941 2.490875
3.161853 4.797027 -1.539456
5.108782 7.747880 0.161993
3.402572 5.158311 -1.426640
5.287569 8.015972 0.503263
3.787812 5.740162 -1.336808
9.888659 14.979878 1.570372
4.538199 6.872094 -1.304351
7.590467 11.489728 1.690815
5.226995 7.912128 -1.164340
5.118927 7.745597 1.470484
5.116029 7.738276 -0.811594
5.151929 7.789629 1.815357
5.119118 7.737077 -0.486201
5.128098 7.750648 2.145583
5.124507 7.742284 -0.162063
5.144993 7.770297 2.497086
3.171334 4.776858 -1.536350
5.146618 7.749218 0.162377
3.427207 5.158362 -1.429789
5.325172 8.015030 0.504309
3.806828 5.727569 -1.336808
4.552209 6.843850 -1.301848
7.591141 11.408300 1.682528
5.270801 7.921191 -1.168240
5.157718 7.748313 1.474239
5.147182 7.729561 -0.812466
5.197325 7.801909 1.822226
5.165789 7.751637 -0.488190
5.168899 7.756303 2.151882
5.163462 7.745215 -0.162482
5.175021 7.759620 2.499157
3.187156 4.766316 -1.536350
5.180069 7.743744 0.162622
3.455131 5.163165 -1.434288
5.369493 8.023886 0.505984
3.826891 5.716546 -1.337190
4.567184 6.817227 -1.299658
7.595773 11.333596 1.675216
5.312510 7.926757 -1.171652
5.198787 7.754136 1.478619
5.193874 7.743887 -0.815778
5.227543 7.791154 1.823753
5.200373 7.747730 -0.489027
5.207626 7.758535 2.157280
5.204726 7.751292 -0.162971
5.216881 7.766473 2.506922
3.198629 4.749310 -1.534279
5.214660 7.739790 0.162901
3.472232 5.151680 -1.434288
5.412814 8.030881 0.507554
3.843633 5.700567 -1.336426
4.584237 6.793859 -1.298093
7.586672 11.239240 1.664979
5.346543 7.920612 -1.173358
5.234419 7.751588 1.481435
5.230673 7.743134 -0.817521
5.269842 7.798175 1.829477
5.233865 7.742025 -0.489760
5.246421 7.760598 2.162679
5.241603 7.750556 -0.163320
5.255599 7.768329 2.513133
3.220926 4.741226 -1.535832
5.267042 7.750220 0.163564
3.501651 5.150591 -1.437887
5.449502 8.015693 0.507973
3.865384 5.683468 -1.336045
4.618143 6.785200 -1.299971
7.598214 11.159467 1.657667
5.383884 7.907289 -1.174577
5.286621 7.761535 1.487379
5.274056 7.740185 -0.819438
5.313268 7.794801 1.833675
5.278402 7.740755 -0.491016
5.288509 7.755577 2.167179
5.289575 7.754232 -0.163843
5.301988 7.769508 2.520380
3.233357 4.725736 -1.534279
5.305136 7.750864 0.163948
3.528622 5.153421 -1.441936
5.487339 8.014056 0.509020
3.876442 5.659281 -1.333373
4.630569 6.755184 -1.297155
7.605986 11.091644 1.651330
5.421300 7.905764 -1.177014
5.314563 7.747220 1.488005
5.306461 7.732508 -0.820484
5.353531 7.798181 1.838636
5.321002 7.747906 -0.492586
5.327435 7.757274 2.172577
5.325453 7.751481 -0.164157
5.340852 7.770989 2.526592
3.242435 4.705442 -1.531174
5.347836 7.757925 0.164471
3.563391 5.167361 -1.449135
5.537965 8.027732 0.511113
3.890729 5.639930 -1.331847
9.665439 14.005625 1.488794
4.651820 6.738166 -1.296842
7.597606 11.001022 1.641580
5.461274 7.904758 -1.179695
5.359546 7.754621 1.493011
5.344533 7.732900 -0.822402
5.389412 7.794917 1.842070
5.364845 7.756498 -0.494261
5.368897 7.759462 2.178426
5.355895 7.737776 -0.164262
5.375643 7.763418 2.530215
3.261040 4.697271 -1.532209
5.379448 7.745778 0.164611
3.590301 5.167695 -1.452734
5.581905 8.031316 0.512578
3.910389 5.626317 -1.331847
9.665364 13.901457 1.481299
4.671930 6.717021 -1.295903
7.605341 10.930445 1.634999
5.497908 7.898680 -1.181645
5.400129 7.755317 1.496765
5.378326 7.724005 -0.823447
5.426683 7.790560 1.845505
5.405592 7.757388 -0.495517
5.409325 7.759857 2.183825
5.402312 7.746921 -0.164855
5.415975 7.763618 2.536427
3.271882 4.677943 -1.529621
5.421351 7.748256 0.165065
3.613907 5.163113 -1.454983
5.623655 8.031414 0.513834
3.926628 5.607807 -1.330702
9.677244 13.815422 1.475721
4.694214 6.699055 -1.295590
7.596735 10.837184 1.625006
5.544820 7.907072 -1.185789
5.443048 7.759061 1.501145
5.426055 7.731967 -0.826411
5.466251 7.789245 1.849702
5.438378 7.746644 -0.496040
5.450937 7.761660 2.189673
5.443117 7.747650 -0.165274
5.458595 7.766791 2.543674
3.285665 4.661184 -1.528068
5.462192 7.748897 0.165484
3.639770 5.161613 -1.458133
5.665469 8.031320 0.515091
3.941494 5.585359 -1.328794
9.680714 13.713118 1.468574
4.716455 6.678579 -1.294965
7.607032 10.771685 1.619156
5.579258 7.897398 -1.187251
5.484922 7.760984 1.505213
5.473713 7.742264 -0.829548
5.507232 7.786791 1.853900
5.477115 7.741333 -0.496982
5.486102 7.751175 2.192373
5.488611 7.754720 -0.165833
5.505762 7.776073 2.552991
3.310865 4.662286 -1.532209
5.504456 7.748386 0.165903
3.677854 5.175243 -1.465781
5.713386 8.036545 0.516765
3.954143 5.561964 -1.326504
9.680021 13.611053 1.461253
4.743176 6.666902 -1.295903
7.614234 10.698445 1.612332
5.624286 7.899533 -1.190664
5.519059 7.748875 1.506777
5.515733 7.744205 -0.831814
5.556026 7.797897 1.861151
5.524969 7.751444 -0.498866
5.528966 7.754189 2.198672
5.523966 7.744317 -0.166042
5.552182 7.781002 2.561274
3.315878 4.634989 -1.527032
5.545433 7.748640 0.166321
3.697031 5.163957 -1.466231
5.750705 8.029544 0.517603
3.973532 5.548129 -1.326504
9.678735 13.509157 1.453932
4.760666 6.642275 -1.294339
7.617986 10.625018 1.605263
5.678436 7.916955 -1.196270
5.559895 7.748820 1.510531
5.543896 7.726522 -0.831989
5.599238 7.800786 1.866494
5.560145 7.743469 -0.499599
5.566234 7.749086 2.202721
5.562633 7.741228 -0.166391
5.575924 7.756868 2.559721
3.332038 4.623385 -1.527032
5.584140 7.745457 0.166670
3.727573 5.168407 -1.471180
5.799736 8.038575 0.519487
3.987133 5.526263 -1.324596
9.679194 13.410666 1.446960
4.772258 6.609603 -1.291210
7.615512 10.543647 1.596976
5.709527 7.901911 -1.197001
5.610052 7.761385 1.516789
5.588338 7.731346 -0.834603
5.634489 7.792328 1.869165
5.611724 7.757995 -0.501797
5.612669 7.756449 2.210369
5.608383 7.747679 -0.166950
5.616566 7.756132 2.565932
3.343616 4.605474 -1.524962
5.627596 7.748569 0.167159
3.743299 5.152212 -1.470280
5.837152 8.031207 0.520324
4.005243 5.510725 -1.324215
9.702511 13.344569 1.443473
4.791814 6.588113 -1.290272
7.616062 10.467240 1.589420
5.745250 7.893168 -1.198707
5.648736 7.757725 1.519917
5.630537 7.732731 -0.836869
5.675528 7.791655 1.873744
5.643475 7.744817 -0.502216
5.660374 7.765154 2.218467
5.647178 7.744211 -0.167299
5.667512 7.769256 2.576802
3.364234 4.600011 -1.527032
5.668781 7.748242 0.167578
3.769316 5.150123 -1.473429
9.754017 13.322294 0.865323
4.019817 5.490372 -1.322688
9.772583 13.342765 1.446960
4.807775 6.561787 -1.288394
7.622044 10.398961 1.583083
5.779813 7.882669 -1.200169
5.696809 7.766633 1.525549
5.675169 7.737129 -0.839484
5.718950 7.793957 1.879087
5.687023 7.747610 -0.503681
5.694360 7.754777 2.221167
5.690748 7.747015 -0.167787
5.714047 7.775889 2.585603
3.379124 4.586685 -1.526515
5.712400 7.750945 0.168067
3.797680 5.151050 -1.477479
9.755409 13.227086 0.861345
4.035460 5.471568 -1.321543
9.849851 13.350258 1.451492
4.824788 6.537016 -1.286830
5.950949 8.059888 1.230149
5.812009 7.868834 -1.201144
5.726235 7.749876 1.526175
5.718720 7.739704 -0.841924
5.757792 7.789732 1.882903
5.730654 7.750195 -0.505147
5.737621 7.756784 2.227465
5.733221 7.747999 -0.168241
5.758394 7.779188 2.593367
3.392811 4.571759 -1.525479
5.756111 7.753435 0.168555
3.827258 5.153406 -1.481978
9.877817 13.300488 0.868254
4.049851 5.451146 -1.320017
9.908280 13.331782 1.453235
4.842864 6.513793 -1.285579
5.995631 8.061367 1.233562
5.860772 7.877164 -1.205532
5.769592 7.754615 1.530868
5.754031 7.730882 -0.843145
5.801358 7.791636 1.888246
5.774377 7.752568 -0.506612
5.782130 7.760148 2.234214
5.773219 7.748188 -0.168660
5.789930 7.767795 2.595955
3.396026 4.542867 -1.519786
5.793762 7.750322 0.168904
3.860662 5.162537 -1.488276
9.979216 13.339495 0.873069
4.071208 5.440118 -1.320780
4.859704 6.491370 -1.284327
6.033041 8.055737 1.235755
5.908284 7.886283 -1.209919
5.814398 7.758138 1.535561
5.791737 7.725097 -0.844713
5.840121 7.789633 1.892444
5.810838 7.747758 -0.507554
5.821868 7.759635 2.239613
5.811030 7.742383 -0.168974
5.830931 7.766074 2.602167
3.418044 4.540841 -1.522891
5.835214 7.749221 0.169323
3.875142 5.144358 -1.486926
6.056781 8.037617 0.527442
4.084502 5.420315 -1.319253
4.876383 6.466486 -1.282763
6.074277 8.052061 1.238436
5.957298 7.894135 -1.214306
5.856911 7.758293 1.539628
5.846131 7.744013 -0.848897
5.886209 7.794265 1.898550
5.847481 7.740175 -0.508392
5.867712 7.764145 2.246811
5.866966 7.760334 -0.169812
5.876651 7.770324 2.610449
3.429202 4.522727 -1.520821
5.879148 7.751109 0.169812
3.893077 5.130799 -1.486926
6.125852 8.070521 0.531001
4.105767 5.409155 -1.320017
4.884588 6.430546 -1.279008
6.115552 8.048198 1.241117
5.984820 7.873291 -1.214306
5.905481 7.766103 1.545260
5.891218 7.747346 -0.851512
5.938335 7.806489 1.906564
5.888976 7.738791 -0.509648
5.901863 7.752917 2.249511
5.902495 7.750947 -0.170056
5.911931 7.760521 2.614072
3.447315 4.513799 -1.521856
5.923167 7.752784 0.170301
3.909779 5.115631 -1.486477
6.153988 8.049087 0.531001
4.117470 5.385431 -1.317727
4.905804 6.411889 -1.278696
6.165329 8.055175 1.245505
6.032783 7.879144 -1.218450
5.934955 7.748580 1.545886
5.932763 7.745718 -0.853603
5.972715 7.795062 1.908853
5.931751 7.738793 -0.511008
5.947861 7.757013 2.256709
5.940470 7.744575 -0.170370
5.964859 7.773554 2.625460
3.451272 4.486425 -1.516680
5.972140 7.760591 0.170929
3.926425 5.100408 -1.486027
6.223482 8.081356 0.534560
4.130257 5.363247 -1.315819
4.925745 6.391594 -1.278070
6.204319 8.047752 1.247699
6.076005 7.878477 -1.221618
5.982481 7.754403 1.551204
5.965851 7.732848 -0.854475
6.023881 7.805247 1.916486
5.990457 7.759148 -0.513730
5.993962 7.760879 2.263907
5.991921 7.755438 -0.171068
6.002589 7.766444 2.630119
3.469277 4.477405 -1.517715
6.007771 7.750760 0.171173
3.951368 5.095912 -1.488726
6.225768 8.029108 0.532466
4.145341 5.344144 -1.314674
9.709100 12.512391 1.385602
4.937126 6.360316 -1.275254
6.244546 8.041727 1.250136
6.081551 7.829000 -1.217231
6.022703 7.753243 1.554959
6.006257 7.729279 -0.856392
6.059522 7.795024 1.919157
6.028542 7.752378 -0.514672
6.040163 7.764518 2.271106
6.028659 7.749730 -0.171383
6.047292 7.770891 2.638402
3.483698 4.463744 -1.517197
6.049437 7.751286 0.171627
3.958650 5.070492 -1.485127
4.165181 5.331188 -1.315056
9.706091 12.418773 1.378978
4.955754 6.340800 -1.274628
6.283405 8.036615 1.252573
6.092806 7.790025 -1.214306
6.066770 7.753954 1.559339
6.054075 7.734940 -0.859356
6.097440 7.790345 1.922973
6.070226 7.752786 -0.516033
6.086304 7.770526 2.278754
6.075406 7.753825 -0.171941
6.088683 7.767978 2.644613
3.499673 4.453687 -1.517715
6.096228 7.755278 0.172185
3.981145 5.062769 -1.486926
4.184050 5.318891 -1.315437
9.700402 12.327017 1.372354
4.979081 6.325013 -1.274941
6.327388 8.034905 1.255742
6.139614 7.793660 -1.218206
6.118255 7.763759 1.565596
6.100655 7.741425 -0.862319
6.141612 7.790601 1.928316
6.110854 7.748802 -0.517184
6.123046 7.761476 2.282353
6.121016 7.756118 -0.172465
6.139701 7.777004 2.654966
3.521192 4.449018 -1.520303
6.141879 7.757469 0.172709
4.000005 5.050369 -1.487376
4.205028 5.307331 -1.316200
9.698825 12.236868 1.366079
4.999904 6.306046 -1.274628
6.380066 8.043877 1.260617
6.169251 7.775290 -1.218693
6.150233 7.748542 1.566848
6.153654 7.752853 -0.865979
6.193183 7.799866 1.935948
6.155258 7.749318 -0.518649
6.167075 7.761413 2.288652
6.160493 7.750360 -0.172814
6.183646 7.776693 2.662213
3.523455 4.420082 -1.514609
6.183883 7.754742 0.173128
4.012747 5.030282 -1.485577
4.219856 5.288016 -1.315056
9.714131 12.168685 1.362244
5.020651 6.287012 -1.274315
6.426692 8.044819 1.264273
6.203788 7.763013 -1.220156
6.199443 7.754800 1.572479
6.190630 7.743777 -0.867374
6.244898 7.808865 1.943581
6.199736 7.749619 -0.520115
6.219699 7.771792 2.298100
6.198759 7.742856 -0.173128
6.225243 7.773157 2.668424
3.537652 4.406250 -1.514091
6.230948 7.758056 0.173686
4.027842 5.013206 -1.484677
4.240748 5.276315 -1.315819
9.724088 12.094332 1.357712
5.032663 6.257132 -1.271812
6.475893 8.048629 1.268416
6.225868 7.735127 -1.219181
6.251253 7.763883 1.578737
6.233870 7.742293 -0.869640
6.288129 7.806893 1.948542
6.245544 7.751260 -0.521685
6.261467 7.768239 2.303499
6.243324 7.742963 -0.173617
6.264466 7.766418 2.673601
3.553013 4.393874 -1.514091
6.273085 7.754914 0.174105
4.041636 4.994573 -1.483327
4.254200 5.255375 -1.314292
13.924020 17.194733 1.935729
5.049497 6.233391 -1.270561
6.512695 8.036772 1.270122
6.250333 7.710261 -1.218693
6.295731 7.763500 1.583117
6.275911 7.739060 -0.871732
6.330182 7.803192 1.953121
6.286410 7.746470 -0.522836
6.306966 7.769031 2.310247
6.295525 7.752171 -0.174315
6.319556 7.778987 2.685507
3.564670 4.376950 -1.512539
6.319060 7.756225 0.174629
4.055353 4.975902 -1.481978
26.883066 32.973629 2.229617
4.277483 5.246578 -1.315819
5.066231 6.209603 -1.269309
6.555773 8.032442 1.273047
6.267164 7.676096 -1.216744
6.336539 7.758304 1.586558
6.321794 7.740251 -0.874346
6.382227 7.811453 1.960753
6.334897 7.750770 -0.524616
6.345147 7.760547 2.314296
6.345336 7.758007 -0.174943
6.365019 7.779309 2.693271
3.586049 4.371951 -1.515127
6.371468 7.765036 0.175327
4.070226 4.958702 -1.481078
26.987839 32.867256 2.228779
4.290783 5.225549 -1.314292
5.087877 6.191879 -1.269309
6.608976 8.040183 1.277922
6.251055 7.602040 -1.208457
6.378643 7.754443 1.590313
6.374090 7.748909 -0.877833
6.425667 7.808839 1.965714
6.384764 7.756365 -0.526500
6.394497 7.765428 2.322395
6.388901 7.755880 -0.175397
6.416708 7.786860 2.703624
3.590217 4.346002 -1.510468
6.410000 7.756619 0.175641
4.088751 4.945967 -1.481528
4.306497 5.207512 -1.313529
14.992319 18.122589 2.057747
5.113236 6.178648 -1.270248
6.657258 8.041529 1.281822
6.290216 7.595461 -1.210894
6.425834 7.756471 1.595319
6.413809 7.741955 -0.879576
6.476690 7.815081 1.972965
6.433472 7.760168 -0.528279
6.451420 7.779061 2.333192
6.428707 7.748920 -0.175746
6.453723 7.776305 2.707765
3.600422 4.327503 -1.508397
6.456221 7.757257 0.176165
4.110980 4.937654 -1.483327
27.246733 32.725758 2.231710
4.324647 5.192449 -1.313529
14.984056 17.984436 2.047986
5.122128 6.145586 -1.267119
6.708172 8.045684 1.286209
6.319229 7.576510 -1.211381
6.475558 7.763942 1.601263
6.457389 7.739406 -0.881842
6.505191 7.793932 1.973347
6.473316 7.752999 -0.529326
6.509767 7.793883 2.344440
6.474879 7.752113 -0.176304
6.493098 7.771169 2.713459
3.621711 4.322312 -1.510986
6.496038 7.752664 0.176549
4.119819 4.915034 -1.480628
22.042885 26.288324 1.797950
4.340224 5.174312 -1.312766
14.964782 17.834335 2.036830
5.136128 6.121001 -1.265555
6.755233 8.047723 1.290109
6.313684 7.519027 -1.205532
6.520410 7.762466 1.605644
6.509999 7.747327 -0.885328
6.561311 7.808391 1.982506
6.515699 7.751363 -0.530687
6.551881 7.791645 2.350289
6.523786 7.755478 -0.176898
6.536353 7.767674 2.720188
3.631041 4.304372 -1.508915
6.551435 7.763561 0.177316
4.133178 4.896157 -1.479278
