# This PCD file was generated using the MATLAB® pcwrite function
# from Computer Vision Toolbox®.
# .PCD v.7 - Point Cloud Data file format
VERSION .7
FIELDS x y z
SIZE 4 4 4
TYPE F F F
COUNT 1 1 1
WIDTH 1573
HEIGHT 1
VIEWPOINT 0 0 0 1 0 0 0
POINTS 1573
DATA ascii
-11.449141 -7.731270 -0.724016
-11.301542 -7.628729 3.147965
-11.449233 -7.725514 -0.241088
-11.318350 -7.634322 3.658149
-0.997001 -0.670715 -0.321971
-11.481266 -7.720909 0.241506
-6.528994 -4.388956 -1.816255
-11.456705 -7.698590 0.723388
-7.748391 -5.206706 -1.814594
-11.474770 -7.707819 1.209373
-9.508554 -6.384667 -1.814014
-11.394216 -7.647943 1.684966
-11.585120 -7.773144 -1.712996
-11.393604 -7.641761 2.172875
-11.526480 -7.730881 -1.214254
-11.403284 -7.645365 2.668655
-11.522513 -7.722391 -0.726946
-11.402576 -7.639127 3.168660
-11.516007 -7.712204 -0.241925
-11.370614 -7.611964 3.666431
-0.996123 -0.665085 -0.320936
-11.539750 -7.701877 0.242170
-6.557242 -4.374792 -1.819854
-11.540006 -7.696227 0.726946
-7.777953 -5.187250 -1.817265
-11.549682 -7.699768 1.214428
-9.568588 -6.376634 -1.821210
-11.463798 -7.636734 1.691303
-11.712973 -7.799773 -1.727864
-11.482695 -7.643540 2.184764
-11.586564 -7.712682 -1.217740
-11.469128 -7.631618 2.677814
-11.595963 -7.713096 -0.729877
-11.477854 -7.631649 3.182158
-11.572834 -7.691885 -0.242554
-11.458261 -7.612852 3.686101
-0.998439 -0.661604 -0.320936
-11.608241 -7.689158 0.243042
-6.582222 -4.358332 -1.822553
-11.610103 -7.684558 0.729668
-7.800925 -5.163319 -1.818410
-11.626334 -7.692389 1.219657
-9.589144 -6.342103 -1.820897
-11.559935 -7.642652 1.701540
-11.768280 -7.777449 -1.732007
-11.555456 -7.633896 2.193524
-11.661627 -7.704036 -1.222795
-11.554675 -7.630483 2.691552
-11.682820 -7.712184 -0.733645
-11.540210 -7.615148 3.192055
-11.663046 -7.693283 -0.243880
-11.539600 -7.608965 3.703701
-1.005584 -0.661300 -0.322489
-11.695167 -7.688136 0.244299
-6.590883 -4.331047 -1.820754
-11.683597 -7.674691 0.732599
-7.846795 -5.154382 -1.824897
-11.693087 -7.678004 1.223841
-9.649206 -6.333522 -1.828093
-11.619735 -7.624036 1.706415
-11.845154 -7.768982 -1.739319
-11.618378 -7.617341 2.200408
-11.746765 -7.701516 -1.228896
-11.614079 -7.611629 2.699184
-11.746427 -7.695433 -0.735948
-11.631931 -7.617523 3.210052
-11.746714 -7.689763 -0.245067
-11.595186 -7.587678 3.713018
-1.012740 -0.660953 -0.324041
-11.772176 -7.680043 0.245346
-6.615754 -4.314402 -1.823453
-11.755490 -7.663310 0.735425
-7.868029 -5.129105 -1.825661
-11.769896 -7.669770 1.229070
-9.706014 -6.322445 -1.834664
-11.696182 -7.615924 1.713727
-11.950397 -7.778481 -1.750775
-11.691257 -7.606904 2.209168
-11.825348 -7.694149 -1.234300
-11.693243 -7.605295 2.711396
-11.816753 -7.682688 -0.738670
-11.697667 -7.602360 3.220849
-11.820436 -7.679218 -0.246044
-11.670209 -7.578722 3.728547
-1.028013 -0.665815 -0.328183
-11.842556 -7.667160 0.246253
-6.637317 -4.295517 -1.825253
-11.835831 -7.656943 0.738774
-7.879292 -5.097343 -1.824134
-11.851805 -7.664344 1.234823
-9.791063 -6.329278 -1.846553
-11.766046 -7.603062 1.720064
-12.030835 -7.771185 -1.758575
-11.770843 -7.600339 2.219180
-11.893976 -7.679846 -1.238657
-11.769206 -7.596369 2.722844
-11.897204 -7.676043 -0.742019
-11.756886 -7.582608 3.229847
-11.884146 -7.661745 -0.246812
-11.751803 -7.573520 3.746147
-1.022205 -0.657000 -0.325594
-11.938226 -7.670092 0.247685
-6.662109 -4.278641 -1.827952
-11.914589 -7.649030 0.742019
-7.913558 -5.080414 -1.827950
-11.925437 -7.653057 1.239703
-9.844687 -6.315327 -1.852497
-11.866041 -7.609090 1.730789
-12.039503 -7.717361 -1.755894
-11.850524 -7.593307 2.229192
-11.957618 -7.661929 -1.242492
-11.868393 -7.601831 2.739636
-11.972704 -7.665701 -0.745055
-11.845653 -7.581441 3.246943
-11.968091 -7.656855 -0.247999
-11.826990 -7.563679 3.761676
-1.035894 -0.660700 -0.329218
-11.988533 -7.643422 0.248173
-6.683577 -4.259551 -1.829752
-11.990067 -7.638515 0.745055
-7.977605 -5.082295 -1.838636
-12.005857 -7.645630 1.245281
-9.908334 -6.307441 -1.860319
-11.909277 -7.578284 1.733226
-12.093168 -7.692335 -1.759793
-11.916965 -7.577330 2.236700
-12.053226 -7.663970 -1.249639
-11.954502 -7.598271 2.753374
-12.056705 -7.660278 -0.748614
-11.927978 -7.575564 3.262240
-12.052143 -7.651475 -0.249185
-11.898993 -7.551333 3.776170
-1.033296 -0.653980 -0.327665
-12.072596 -7.637882 0.249360
-6.698406 -4.236193 -1.829752
-12.070680 -7.630767 0.748404
-8.128055 -5.138343 -1.869165
-12.088052 -7.638801 1.251034
-9.930289 -6.272819 -1.860319
-11.996081 -7.574821 1.742001
-12.265989 -7.742257 -1.780999
-12.003485 -7.573636 2.247964
-12.128768 -7.652684 -1.254694
-11.990915 -7.562779 2.755664
-12.128990 -7.646902 -0.751440
-11.993915 -7.558821 3.273038
-12.126152 -7.639204 -0.250163
-11.971054 -7.538573 3.790664
-1.048661 -0.658589 -0.331806
-12.155073 -7.630780 0.250512
-6.719755 -4.216928 -1.831551
-12.149690 -7.621490 0.751649
-8.225770 -5.160018 -1.887483
-12.161907 -7.626193 1.255914
-9.948778 -6.236018 -1.859693
-12.083008 -7.570844 1.750775
-12.316494 -7.714146 -1.784411
-12.083426 -7.565233 2.257975
-12.206069 -7.642018 -1.259923
-12.077153 -7.558372 2.769402
-12.199632 -7.632061 -0.754161
-12.073098 -7.549972 3.287435
-12.210396 -7.632867 -0.251350
-12.059549 -7.535644 3.810334
-1.060791 -0.661055 -0.334912
-12.244437 -7.627421 0.251803
-6.742704 -4.198598 -1.833801
-12.225394 -7.609641 0.754685
-8.253732 -5.137498 -1.889772
-12.245971 -7.619480 1.261841
-9.948678 -6.187689 -1.855626
-12.159935 -7.560066 1.758087
-12.375380 -7.691014 -1.789042
-12.170166 -7.560534 2.269239
-12.303752 -7.643522 -1.267244
-12.186855 -7.567955 2.788483
-12.287286 -7.627350 -0.757929
-12.155680 -7.542717 3.302732
-12.281149 -7.617603 -0.252257
-12.131752 -7.522006 3.824828
-1.064735 -0.658364 -0.335429
-12.318616 -7.614072 0.252781
-6.763951 -4.179133 -1.835601
-12.299835 -7.599501 0.757720
-8.313375 -5.134444 -1.899313
-12.321658 -7.607039 1.266896
-10.010562 -6.177825 -1.863135
-12.247075 -7.555091 1.766862
-12.446083 -7.674859 -1.795379
-12.228799 -7.540871 2.275496
-12.362581 -7.620394 -1.270556
-12.216541 -7.527428 2.789246
-12.364853 -7.615836 -0.761070
-12.221759 -7.524763 3.313529
-12.354020 -7.606194 -0.253234
-12.189534 -7.501985 3.835181
-1.070320 -0.656664 -0.336465
-12.377888 -7.594094 0.253479
-6.794384 -4.166868 -1.840100
-12.394398 -7.598275 0.761907
-8.337944 -5.109498 -1.900839
-12.400803 -7.596248 1.272300
-10.108479 -6.192059 -1.877527
-12.319463 -7.543461 1.773687
-12.518874 -7.662561 -1.802204
-12.308966 -7.531131 2.285508
-12.446898 -7.612535 -1.276483
-12.315128 -7.531945 2.806037
-12.458202 -7.616461 -0.765256
-12.289878 -7.510613 3.325227
-12.445343 -7.602634 -0.254561
-12.268407 -7.491607 3.851745
-1.088991 -0.663159 -0.341641
-12.474351 -7.593474 0.254910
-6.798899 -4.137047 -1.837400
-12.473745 -7.587136 0.765152
-8.385033 -5.100183 -1.907708
-12.480402 -7.588205 1.277877
-10.119903 -6.150580 -1.875649
-12.383043 -7.523087 1.779049
-12.633773 -7.672399 -1.814878
-12.406100 -7.531171 2.298648
-12.536417 -7.607283 -1.282933
-12.411839 -7.531688 2.822065
-12.532525 -7.601933 -0.768187
-12.389342 -7.512121 3.345022
-12.538500 -7.599568 -0.255922
-12.360572 -7.488780 3.872451
-1.093068 -0.660162 -0.342159
-12.557268 -7.584000 0.256062
-6.814966 -4.114298 -1.837850
-12.549743 -7.573477 0.768187
-8.398626 -5.066376 -1.906564
-12.572968 -7.581505 1.284501
-10.247270 -6.176672 -1.895047
-12.467031 -7.514661 1.787336
-12.704684 -7.654888 -1.821216
-12.489849 -7.522469 2.309286
-12.622636 -7.599447 -1.289033
-12.483094 -7.512469 2.831987
-12.613360 -7.587862 -0.771432
-12.463552 -7.494783 3.357620
-12.619788 -7.588734 -0.257039
-12.459491 -7.489380 3.895227
-1.103652 -0.661307 -0.344747
-12.653602 -7.579025 0.257458
-6.841704 -4.096298 -1.840999
-12.633970 -7.561276 0.771641
-8.396045 -5.024930 -1.901984
-12.643808 -7.564168 1.289033
-10.453562 -6.251374 -1.929150
-12.562645 -7.509658 1.797085
-12.739472 -7.612345 -1.822191
-12.544469 -7.492851 2.314292
-12.700401 -7.585989 -1.294263
-12.566556 -7.503065 2.844962
-12.698080 -7.578591 -0.774991
-12.573315 -7.501153 3.380115
-12.695609 -7.571103 -0.258016
-12.543276 -7.477296 3.912827
-1.107614 -0.658438 -0.345265
-12.733272 -7.566477 0.258540
-6.860988 -4.075377 -1.842349
-12.722112 -7.553838 0.775410
-8.411846 -4.994589 -1.901603
-12.728390 -7.554560 1.294960
-10.480415 -6.217869 -1.930089
-12.633175 -7.492087 1.803423
-12.851347 -7.618443 -1.834378
-12.621530 -7.479228 2.323678
-12.781652 -7.574113 -1.299841
-12.677127 -7.509184 2.864043
-12.781170 -7.567800 -0.778445
-12.622901 -7.471113 3.386413
-12.775311 -7.558310 -0.259098
-12.609208 -7.457067 3.925250
-1.104913 -0.651623 -0.343712
-12.802672 -7.547370 0.259413
-6.896997 -4.064265 -1.848198
-12.817240 -7.549931 0.779597
-8.435996 -4.969182 -1.903129
-12.823358 -7.550521 1.301932
-10.508866 -6.185256 -1.931340
-12.707157 -7.476129 1.810247
-12.898396 -7.585612 -1.837302
-12.732706 -7.485179 2.339321
-12.861259 -7.560751 -1.305244
-12.733728 -7.482790 2.870912
-12.883283 -7.567649 -0.783051
-12.716122 -7.466474 3.404409
-12.874049 -7.556182 -0.260564
-12.711808 -7.457975 3.949061
-1.123856 -0.657518 -0.348888
-12.904889 -7.547055 0.260948
-6.907779 -4.038197 -1.847298
-12.893523 -7.534366 0.782632
-8.426168 -4.923855 -1.897023
-12.894364 -7.531843 1.306465
-10.453629 -6.103714 -1.917261
-12.801755 -7.471752 1.819997
-13.127118 -7.658584 -1.866063
-12.816775 -7.474523 2.349959
-12.786910 -7.454115 2.877018
-15.922612 -9.278347 -0.965808
-12.822935 -7.469121 3.426004
-12.938366 -7.533333 -0.261332
-12.771159 -7.432990 3.959414
-1.134498 -0.658440 -0.351476
-13.008991 -7.547119 0.262519
-6.930261 -4.018947 -1.849548
-12.963359 -7.517618 0.785353
-8.433112 -4.888506 -1.894733
-12.999878 -7.532734 1.314483
-10.459487 -6.058275 -1.914445
-12.886165 -7.460841 1.828284
-13.181264 -7.628621 -1.869963
-12.868847 -7.447811 2.354965
-12.911423 -7.466441 2.899152
-16.006777 -9.252696 -0.968948
-12.886050 -7.445764 3.435903
-32.054111 -18.521374 -0.646193
-12.872687 -7.435050 3.983225
-1.138464 -0.655439 -0.351994
-6.953685 -4.001776 -1.852247
-32.157848 -18.499058 1.944281
-8.438212 -4.852189 -1.892062
-32.220623 -18.520195 3.251432
-10.541174 -6.058995 -1.925708
-12.972799 -7.453669 1.837059
-13.234029 -7.600689 -1.873863
-12.980422 -7.452020 2.370608
-20.593313 -11.817785 -2.077270
-12.994007 -7.456808 2.912127
-12.978292 -7.441765 3.453899
-42.573189 -24.401648 -0.856529
-12.965612 -7.428482 4.003931
-1.127212 -0.643994 -0.347853
-32.317616 -18.456081 0.649613
-6.977765 -3.983276 -1.854946
-32.308960 -18.436184 1.949515
-8.467898 -4.831964 -1.895115
-10.587998 -6.036840 -1.930401
-13.060826 -7.443725 1.845833
-13.270831 -7.560340 -1.875326
-13.061284 -7.437947 2.380620
-13.067730 -7.438598 2.922812
-13.078720 -7.438811 3.473694
-13.048570 -7.415632 4.021531
-1.132814 -0.641960 -0.348888
-7.011976 -3.970417 -1.860345
-8.489839 -4.805277 -1.896260
-32.564430 -18.424072 3.273395
-10.636518 -6.015404 -1.935407
-13.155853 -7.437165 1.855583
-13.338617 -7.537412 -1.881175
-13.145646 -7.425341 2.391258
-13.158582 -7.429615 2.937314
-13.148736 -7.418008 3.485392
-15.873203 -8.951390 -0.318088
-13.124862 -7.398497 4.037060
-1.141785 -0.641788 -0.350959
-7.015598 -3.940191 -1.857646
-8.498001 -4.770807 -1.894352
-10.645391 -5.971473 -1.933217
-13.240604 -7.424206 1.863870
-13.420260 -7.521863 -1.888975
-13.257653 -7.427684 2.406901
-13.222120 -7.404741 2.945709
-13.252776 -7.415838 3.506087
-13.309109 -7.441261 4.085718
-6.000188 -3.345151 -1.840721
-7.034416 -3.918525 -1.858995
-8.494020 -4.729652 -1.889772
-10.707600 -5.957326 -1.940726
-13.311545 -7.403028 1.870207
-13.515836 -7.513552 -1.898725
-13.331849 -7.408223 2.415661
-13.350861 -7.415743 2.968606
-13.312662 -7.388442 3.515085
-6.020282 -3.328860 -1.843309
-7.063404 -3.902426 -1.863045
-8.481261 -4.683839 -1.883285
-10.783674 -5.950453 -1.950738
-13.406835 -7.394866 1.879957
-13.653235 -7.527671 -1.914324
-13.416448 -7.394062 2.426299
-13.448890 -7.408881 2.984635
-13.416903 -7.385157 3.535781
-42.291771 -23.269333 -0.842567
-6.026783 -3.305039 -1.841756
-7.083818 -3.881491 -1.864844
-8.497559 -4.654208 -1.883285
-10.818244 -5.920362 -1.953241
-13.505710 -7.388038 1.890194
-13.749099 -7.518058 -1.924073
-13.497643 -7.377501 2.436311
-13.529799 -7.392015 2.996846
-13.500755 -7.370025 3.551077
-6.041677 -3.285827 -1.842792
-7.107597 -3.862325 -1.867544
-8.517203 -4.626391 -1.884048
-10.849259 -5.888218 -1.955118
-13.601212 -7.378713 1.899943
-13.838078 -7.504085 -1.932848
-13.613620 -7.379291 2.452580
-13.617664 -7.378409 3.010585
-21.308249 -11.540559 -1.269984
-13.591521 -7.358108 3.568174
-6.066713 -3.272053 -1.846933
-7.121035 -3.837491 -1.867544
-8.559228 -4.610596 -1.889772
-14.014732 -7.546159 1.392574
-10.890619 -5.861546 -1.958873
-13.700310 -7.370687 1.910180
-13.930626 -7.491462 -1.942110
-13.698450 -7.363528 2.463217
-13.684842 -7.353131 3.019743
-21.404707 -11.496350 -1.273334
-13.713270 -7.362243 3.593368
-6.076394 -3.249946 -1.846415
-7.141263 -3.816284 -1.869343
-8.604708 -4.596417 -1.896260
-14.062079 -7.508453 1.394666
-10.883133 -5.808609 -1.953867
-13.746971 -7.334032 1.913105
-14.009235 -7.470815 -1.949422
-13.762424 -7.336106 2.470101
-13.779733 -7.342245 3.035008
-21.529318 -11.466634 -1.278358
-13.766411 -7.328978 3.600567
-6.099648 -3.235052 -1.850039
-7.159707 -3.794069 -1.870693
-8.608556 -4.559921 -1.893589
-14.126941 -7.479832 1.398501
-10.913818 -5.776129 -1.955744
-13.870749 -7.337988 1.926754
-14.094894 -7.453419 -1.957709
-13.882255 -7.337869 2.486995
-13.912899 -7.350966 3.058668
-13.860843 -7.317270 3.618563
-6.102354 -3.209244 -1.847450
-7.181531 -3.773587 -1.872942
-8.624420 -4.529843 -1.893589
-14.163550 -7.436028 1.399547
-10.968896 -5.756359 -1.962001
-13.991207 -7.339321 1.939916
-14.163022 -7.426293 -1.963559
-13.988264 -7.331552 2.501387
-13.980211 -7.324222 3.067827
-13.965719 -7.310418 3.639258
-6.122083 -3.192391 -1.850039
-7.198117 -3.750297 -1.873842
-8.638438 -4.498806 -1.893207
-14.185885 -7.384706 1.399198
-10.990675 -5.718946 -1.962314
-14.094229 -7.330740 1.950641
-14.336803 -7.453731 -1.984033
-14.073366 -7.313650 2.512025
-14.488046 -7.529150 -1.428483
-14.089322 -7.318814 3.086145
-14.543815 -7.551686 -0.858833
-14.081095 -7.308305 3.662653
-14.539345 -7.542919 -0.285905
-6.141771 -3.175436 -1.852627
-14.597363 -7.543943 0.286813
-7.216358 -3.727833 -1.875192
-8.620947 -4.451508 -1.885956
-14.261149 -7.360729 1.404079
-11.028126 -5.689603 -1.965443
-14.144432 -7.294235 1.954053
-14.443901 -7.445479 -1.995245
-14.197145 -7.315147 2.529546
-14.469961 -7.455717 -1.424125
-14.195067 -7.310942 3.103699
-14.488401 -7.458820 -0.854018
-14.175830 -7.294774 3.680649
-14.519350 -7.468342 -0.284998
-6.157975 -3.156621 -1.854180
-14.538186 -7.449173 0.285137
-7.234529 -3.705285 -1.876542
-14.594180 -7.471434 0.859252
-8.629442 -4.417809 -1.884430
-14.400270 -7.368990 1.415235
-11.112989 -5.684357 -1.977019
-14.265252 -7.293616 1.967215
-14.473337 -7.396821 -1.995733
-14.271850 -7.290707 2.538306
-14.478157 -7.396099 -1.422382
-14.262466 -7.282775 3.112858
-14.494782 -7.398213 -0.852867
-14.235924 -7.262959 3.689647
-14.536427 -7.413073 -0.284823
-6.175845 -3.138608 -1.856250
-14.560532 -7.396572 0.285068
-7.256109 -3.684419 -1.878791
-14.586332 -7.403269 0.857263
-8.630805 -4.380551 -1.881377
-14.468546 -7.340316 1.419418
-11.185619 -5.672333 -1.986405
-14.361449 -7.279676 1.976965
-14.566357 -7.380352 -2.004995
-14.353605 -7.269405 2.548318
-14.546543 -7.367118 -1.426565
-14.392896 -7.286147 3.135755
-14.529430 -7.352080 -0.853390
-14.386397 -7.276550 3.722040
-14.533660 -7.347850 -0.284265
-6.181587 -3.114425 -1.854697
-14.575546 -7.340303 0.284858
-7.279369 -3.664325 -1.881491
-14.597812 -7.345130 0.856426
-8.637275 -4.345987 -1.879469
-14.600879 -7.343476 1.429877
-11.226530 -5.643901 -1.990160
-14.489649 -7.281201 1.991102
-14.691369 -7.379353 -2.018644
-14.477754 -7.268891 2.565838
-14.623808 -7.342221 -1.431620
-14.477901 -7.265806 3.148730
-14.629984 -7.338930 -0.857786
-14.436096 -7.238515 3.728339
-14.618213 -7.326644 -0.285417
-6.202790 -3.098007 -1.857803
-14.672645 -7.325104 0.286254
-7.306064 -3.645855 -1.885090
-14.655533 -7.310176 0.858310
-8.643607 -4.311429 -1.877560
-14.679916 -7.319135 1.435107
-11.265608 -5.614373 -1.993601
-14.575388 -7.260672 1.999389
-14.752578 -7.345721 -2.023519
-14.584386 -7.258801 2.580230
-14.742098 -7.337296 -1.440684
-14.587548 -7.257195 3.167048
-14.743141 -7.331392 -0.862915
-14.569467 -7.241861 3.756233
-14.740407 -7.323616 -0.287302
-6.227417 -3.083192 -1.861944
-14.768023 -7.308436 0.287616
-7.322241 -3.622059 -1.885990
-14.752579 -7.294380 0.862497
-8.637488 -4.270787 -1.872981
-14.794682 -7.311989 1.443822
-11.309932 -5.587263 -1.997981
-14.682522 -7.250176 2.010601
-14.863572 -7.336357 -2.035218
-14.680494 -7.242807 2.592745
-14.831944 -7.317527 -1.446960
-14.669137 -7.234017 3.179260
-14.838508 -7.314326 -0.866997
-14.654092 -7.220244 3.771529
-14.848402 -7.312758 -0.288907
-6.241611 -3.063139 -1.862980
-14.868846 -7.293830 0.289082
-7.338338 -3.598192 -1.886889
-14.853272 -7.279760 0.866893
-8.664682 -4.246660 -1.875653
-14.873792 -7.286597 1.449051
-11.363076 -5.564253 -2.003926
-14.768359 -7.228556 2.018888
-14.953284 -7.315835 -2.043993
-14.801516 -7.238377 2.609640
-14.955839 -7.313846 -1.456547
-14.771904 -7.220706 3.196051
-14.948290 -7.303694 -0.871917
-14.791276 -7.223776 3.800323
-14.970875 -7.308258 -0.290792
-6.255739 -3.043023 -1.864015
-14.976942 -7.282106 0.290687
-7.370134 -3.581925 -1.891838
-14.963029 -7.268886 0.871812
-8.631772 -4.193226 -1.865349
-14.924228 -7.246817 1.451492
-11.400200 -5.533182 -2.007055
-14.875659 -7.216818 2.030100
-15.064463 -7.305168 -2.055692
-14.883572 -7.214240 2.619652
-15.052993 -7.296360 -1.463519
-14.913629 -7.225594 3.221237
-15.042005 -7.284547 -0.875895
-14.862006 -7.194180 3.812021
-15.046696 -7.280340 -0.291769
-6.264583 -3.020329 -1.863497
-15.095942 -7.274929 0.292502
-7.393126 -3.561250 -1.894538
-15.078818 -7.263429 0.877151
-8.665815 -4.172439 -1.869547
-14.978158 -7.208501 1.454281
-11.467508 -5.516475 -2.015502
-15.008100 -7.216461 2.044724
-15.172175 -7.292094 -2.066904
-14.996435 -7.207630 2.635295
-15.150206 -7.278281 -1.470492
-14.970618 -7.188790 3.228107
-15.168173 -7.280397 -0.881756
-15.006504 -7.199577 3.842614
-15.157299 -7.271924 -0.293445
-6.285545 -3.003441 -1.866603
-15.190353 -7.258453 0.293864
-7.418962 -3.543433 -1.898137
-15.181585 -7.247751 0.881652
-8.650205 -4.127792 -1.863059
-15.114724 -7.209354 1.465088
-11.494653 -5.482668 -2.017066
-15.103623 -7.200824 2.054474
-15.239280 -7.262240 -2.072754
-15.121373 -7.202809 2.652816
-15.252872 -7.262181 -1.477987
-15.118455 -7.198183 3.254820
-15.264373 -7.264384 -0.885943
-15.104206 -7.184932 3.861510
-15.256632 -7.254175 -0.294876
-6.298963 -2.984235 -1.867638
-15.287889 -7.239614 0.295260
-7.431286 -3.517514 -1.898137
-15.291643 -7.234862 0.886571
-8.642550 -4.089008 -1.858480
-15.181776 -7.179634 1.469272
-11.501220 -5.436602 -2.014876
-15.189691 -7.176895 2.062761
-15.361467 -7.254773 -2.085916
-15.203588 -7.176966 2.662828
-15.365155 -7.253235 -1.486528
-15.200306 -7.172178 3.267032
-15.372730 -7.250251 -0.890758
-15.220855 -7.175375 3.884905
-15.379542 -7.246907 -0.296761
-6.312839 -2.963871 -1.868674
-15.412631 -7.232928 0.297180
-7.447048 -3.493210 -1.899037
-15.390948 -7.216203 0.890863
-8.662103 -4.061315 -1.859625
-15.336639 -7.187470 1.481822
-11.548747 -5.409832 -2.019882
-15.304541 -7.165913 2.074948
-15.411870 -7.212888 -2.089328
-15.335900 -7.174076 2.681600
-15.489636 -7.245993 -1.496115
-15.339070 -7.172291 3.291455
-15.466702 -7.228681 -0.894736
-15.298775 -7.146948 3.898401
-15.482657 -7.229554 -0.298262
-6.340662 -2.949965 -1.873850
-15.528444 -7.221248 0.298925
-7.468032 -3.471300 -1.901286
-15.499365 -7.201141 0.895678
-8.704717 -4.044288 -1.865731
-15.444756 -7.172497 1.489840
-11.592646 -5.381130 -2.024262
-15.415896 -7.152550 2.086647
-15.289283 -7.090567 -2.069342
-15.418200 -7.147084 2.691612
-15.601601 -7.232099 -1.504482
-15.413891 -7.141814 3.302141
-15.604203 -7.226690 -0.901225
-15.412053 -7.134429 3.920897
-15.607616 -7.221651 -0.300181
-15.568515 -7.200260 4.596109
-6.343903 -2.924580 -1.871779
-15.644365 -7.208843 0.300670
-7.497804 -3.453363 -1.905785
-15.611489 -7.187088 0.900702
-8.761580 -4.033583 -1.874889
-15.545719 -7.153522 1.497161
-11.618539 -5.343929 -2.025514
-15.527341 -7.138499 2.098346
-15.429379 -7.090200 -2.084941
-15.539990 -7.137741 2.708507
-15.704607 -7.213351 -1.511978
-15.556485 -7.142029 3.327327
-15.705576 -7.207163 -0.905621
-15.525428 -7.121210 3.943392
-15.703621 -7.199626 -0.301543
-6.364616 -2.907233 -1.874885
-15.736740 -7.184919 0.301962
-7.518677 -3.431215 -1.908035
-15.736426 -7.178139 0.906459
-8.893496 -4.056750 -1.900076
-15.650360 -7.135581 1.504831
-11.628133 -5.299247 -2.023949
-15.649716 -7.128691 2.111508
-15.645541 -7.123491 -2.110777
-15.676284 -7.134182 2.727905
-15.813107 -7.196449 -1.519996
-15.681394 -7.133208 3.348698
-15.828819 -7.196931 -0.911274
-15.817870 -7.185297 -0.303253
-6.380006 -2.887389 -1.876438
-15.852823 -7.171153 0.303707
-7.523505 -3.401737 -1.906235
-15.850568 -7.163469 0.911588
-8.977374 -4.057214 -1.914959
-15.809537 -7.141603 1.517730
-11.702372 -5.283824 -2.033648
-15.775830 -7.119748 2.125158
-15.764408 -7.111277 -2.123452
-15.791129 -7.120019 2.743548
-15.930763 -7.182978 -1.528886
-15.777792 -7.110692 3.363963
-15.926684 -7.174447 -0.915461
-15.930383 -7.169429 -0.304928
-6.397096 -2.868263 -1.878509
-15.969000 -7.156662 0.305452
-7.546004 -3.380234 -1.908935
-15.964794 -7.148092 0.916717
-9.025526 -4.041097 -1.922210
-15.910749 -7.120556 1.525051
-11.681074 -5.225197 -2.026765
-15.876701 -7.098663 2.135395
-15.814505 -7.067547 -2.126864
-15.906066 -7.105136 2.759191
-16.050331 -7.169579 -1.537950
-15.920836 -7.108397 3.389150
-16.053768 -7.164393 -0.921322
-16.055765 -7.158561 -0.306848
-6.421194 -2.852188 -1.882650
-16.103544 -7.149562 0.307546
-7.572007 -3.360198 -1.912534
-16.071810 -7.128759 0.921427
-9.046757 -4.012750 -1.923736
-16.026579 -7.105349 1.533767
-11.731749 -5.198799 -2.032397
-16.017542 -7.094654 2.150994
-15.831817 -7.009086 -2.125889
-15.992190 -7.076754 2.769829
-16.177292 -7.158664 -1.547712
-16.013779 -7.082961 3.403651
-16.171841 -7.149498 -0.926661
-16.164799 -7.139640 -0.308454
-6.424038 -2.826644 -1.880579
-16.223587 -7.135173 0.309361
-7.590826 -3.336883 -1.914333
-16.197165 -7.116802 0.927184
-9.049924 -3.976407 -1.921447
-16.098711 -7.070197 1.538299
-11.816751 -5.187191 -2.043973
-16.125830 -7.075387 2.162206
-15.852551 -6.952185 -2.125401
-16.125347 -7.068465 2.788601
-16.291597 -7.141340 -1.556253
-16.149897 -7.075866 3.427312
-16.310129 -7.142678 -0.933150
-16.292215 -7.128057 -0.310409
-6.435636 -2.804976 -1.881097
-16.332724 -7.115236 0.310967
-7.613149 -3.315032 -1.917033
-16.317137 -7.101670 0.932627
-9.069150 -3.947145 -1.922591
-16.284069 -7.083898 1.553638
-11.838408 -5.147486 -2.044599
-16.226892 -7.052286 2.172443
-15.669159 -6.806646 -2.097615
-16.258640 -7.059338 2.807373
-16.407804 -7.124104 -1.564968
-16.253740 -7.053839 3.444103
-16.426577 -7.125441 -0.938384
-16.423418 -7.117260 -0.312433
-6.456029 -2.787088 -1.884203
-16.452938 -7.099373 0.312782
-7.622885 -3.287665 -1.916583
-16.444534 -7.088944 0.938488
-9.126142 -3.934116 -1.931750
-16.363592 -7.050661 1.558868
-11.878078 -5.115507 -2.048353
-16.379044 -7.050546 2.189505
-16.207045 -6.973150 -2.166350
-16.352142 -7.032197 2.819262
-16.540560 -7.113225 -1.575253
-16.422556 -7.059086 3.474632
-16.548611 -7.109844 -0.943931
-16.547388 -7.102482 -0.314318
-6.469272 -2.766054 -1.885238
-16.586111 -7.088263 0.314841
-7.628938 -3.258741 -1.915233
-16.564697 -7.072280 0.943931
-9.168707 -3.914570 -1.937856
-16.527374 -7.052930 1.572115
-11.903127 -5.077116 -2.049605
-16.476601 -7.024466 2.199255
-16.311640 -6.950774 -2.177074
-16.518345 -7.035455 2.843666
-16.671604 -7.100731 -1.585363
-16.504902 -7.026321 3.486844
-16.659702 -7.088788 -0.948851
-16.669621 -7.086137 -0.316168
-6.489563 -2.747973 -1.888344
-16.697304 -7.066959 0.316482
-7.665393 -3.242721 -1.921532
-16.690462 -7.057191 0.949688
-9.162427 -3.874129 -1.933658
-16.639984 -7.032429 1.580482
-11.949893 -5.047834 -2.054610
-16.596115 -7.007058 2.211929
-16.280935 -6.870643 -2.169762
-16.604685 -7.003853 2.854304
-16.811941 -7.091274 -1.596344
-16.659582 -7.023580 3.514320
-16.794775 -7.077129 -0.955131
-16.790091 -7.068251 -0.317983
-6.493770 -2.723064 -1.886791
-16.832527 -7.055011 0.318576
-7.683854 -3.218957 -1.923331
-16.803421 -7.035918 0.954713
-9.195812 -3.850465 -1.937856
-16.767353 -7.017375 1.590244
-11.985664 -5.013710 -2.057739
-16.770651 -7.011878 2.231915
-16.396399 -6.852041 -2.181949
-16.749334 -6.996094 2.874953
-16.921164 -7.067866 -1.604363
-16.741968 -6.989590 3.526532
-16.928125 -7.063840 -0.961307
-16.906946 -7.048075 -0.319728
-6.517509 -2.706306 -1.890932
-16.964170 -7.040669 0.320601
-7.711246 -3.198834 -1.927381
-16.957026 -7.030766 0.962040
-9.209197 -3.818341 -1.937856
-16.850645 -6.983212 1.595822
-11.995791 -4.968821 -2.056488
-16.831707 -6.968481 2.236790
-16.471577 -6.816017 -2.188774
-16.875875 -6.979869 2.892474
-17.050674 -7.052166 -1.614299
-16.896898 -6.985110 3.554009
-17.068974 -7.052753 -0.967901
-17.055290 -7.040136 -0.322067
-6.525129 -2.682805 -1.890414
-17.086676 -7.021696 0.322451
-7.765627 -3.189667 -1.938178
-17.081236 -7.012493 0.967692
-9.286036 -3.812268 -1.951213
-17.000259 -6.975781 1.607675
-12.027684 -4.932913 -2.058991
-16.980831 -6.960885 2.253365
-16.337294 -6.693753 -2.167812
-16.995195 -6.959846 2.908743
-17.183971 -7.037153 -1.624583
-17.026560 -6.969221 3.576142
-17.172976 -7.025652 -0.972402
-17.162840 -7.018009 4.280818
-17.183420 -7.022924 -0.324021
-6.545190 -2.664383 -1.893520
-17.238886 -7.014009 0.324859
-7.848920 -3.191904 -1.956174
-17.190720 -6.987423 0.972507
-9.362942 -3.805707 -1.964570
-17.142643 -6.964391 1.618831
-12.032019 -4.885696 -2.056801
-17.115387 -6.946359 2.267989
-16.393673 -6.650116 -2.172199
-17.125563 -6.943528 2.926889
-17.322906 -7.023540 -1.635390
-17.134483 -6.943663 3.593697
-12.019665 -4.868466 -0.679635
-17.307930 -7.003404 -0.325906
-6.566993 -2.646573 -1.897144
-17.359716 -6.992642 0.326674
-7.912438 -3.185595 -1.969222
-17.341003 -6.978071 0.979625
-9.374350 -3.772266 -1.964188
-17.274059 -6.947629 1.628941
-11.997680 -4.823039 -2.048040
-17.253731 -6.932458 2.283101
-16.254683 -6.527750 -2.150750
-17.278019 -6.935217 2.948790
-17.447163 -7.003110 -1.644803
-17.293449 -6.937902 3.621936
-17.451473 -6.997764 -0.985381
-17.439938 -6.986073 -0.327931
-6.567220 -2.620054 -1.894555
-17.497324 -6.977189 0.328803
-7.925320 -3.158677 -1.969671
-17.461740 -6.955930 0.985067
-9.380164 -3.736613 -1.962661
-17.401865 -6.928565 1.638702
-12.045644 -4.793543 -2.053359
-17.432768 -6.933816 2.303575
-16.576204 -6.589775 -2.190236
-17.404928 -6.915708 2.966311
-17.573341 -6.982625 -1.654390
-17.419743 -6.918074 3.643307
-17.596455 -6.984704 -0.992185
-17.586903 -6.973802 -0.330234
-6.587106 -2.601373 -1.897661
-17.629456 -6.958651 0.330828
-7.970741 -3.144580 -1.978220
-17.604826 -6.941829 0.991766
-9.396803 -3.705290 -1.963425
-17.511209 -6.901383 1.646721
-12.082521 -4.759430 -2.056801
-17.519665 -6.897651 2.311862
-16.624968 -6.542049 -2.193648
-17.553967 -6.904075 2.987586
-17.721834 -6.970099 -1.666069
-17.542450 -6.896016 3.663915
-17.747139 -6.972899 -0.999303
-17.722826 -6.956212 -0.332329
-6.597946 -2.579067 -1.898179
-17.763533 -6.940000 0.332887
-7.988929 -3.119574 -1.980019
-17.759192 -6.931164 0.999093
-9.444427 -3.686028 -1.970675
-17.702251 -6.905377 1.662409
-12.095380 -4.715793 -2.056175
-17.669409 -6.885465 2.328436
-16.710594 -6.508468 -2.201936
-17.670000 -6.878592 3.003229
-17.861170 -6.953012 -1.676877
-17.683514 -6.880299 3.688338
-17.871891 -6.949997 -1.004955
-15.260444 -5.928334 -0.285766
-6.612313 -2.558111 -1.899732
-12.121413 -4.686990 0.226846
-7.988863 -3.087453 -1.977320
-17.891338 -6.910871 1.005165
-9.473720 -3.659405 -1.974110
-17.819181 -6.879425 1.671124
-12.058322 -4.652921 -2.047102
-17.830397 -6.876600 2.346473
-16.807299 -6.478661 -2.211685
-17.852427 -6.877944 3.030136
-18.006178 -6.937180 -1.688207
-17.806356 -6.856621 3.708946
-14.417859 -5.548941 -0.809637
-18.039736 -6.935644 -0.337355
-6.632027 -2.539159 -1.902838
-18.076752 -6.917305 0.337844
-8.010513 -3.063725 -1.980019
-18.038483 -6.895443 1.012073
-9.488271 -3.627014 -1.974492
-17.954756 -6.859847 1.681583
-12.081873 -4.613620 -2.048353
-17.935892 -6.845467 2.357197
-16.929968 -6.458158 -2.224847
-17.961233 -6.847957 3.044528
-18.160599 -6.923968 -1.700408
-17.984283 -6.853151 3.741001
-18.179411 -6.923874 -1.019505
-18.175974 -6.915295 -0.339449
-6.630011 -2.511887 -1.899732
-18.194292 -6.889570 0.339589
-8.043030 -3.044024 -1.985418
-18.189470 -6.880486 1.019191
-9.530252 -3.604985 -1.980597
-18.090412 -6.839406 1.692042
-12.090511 -4.568624 -2.047102
-18.097101 -6.834717 2.375234
-16.956121 -6.400423 -2.225334
-18.095921 -6.827049 3.063300
-18.298374 -6.903430 -1.711042
-18.107294 -6.827736 3.761609
-18.308130 -6.899817 -1.025366
-18.293573 -6.887039 -0.341195
-6.647783 -2.492119 -1.902320
-12.289675 -4.604706 0.229080
-8.070032 -3.022079 -1.989467
-18.329351 -6.860357 1.025680
-9.563004 -3.579266 -1.984795
-18.319443 -6.853009 1.711216
-12.108235 -4.527084 -2.047415
-18.224981 -6.810416 2.388883
-17.030430 -6.360647 -2.232159
-18.249186 -6.812203 3.085201
-18.453020 -6.888292 -1.723243
-18.237703 -6.804291 3.783743
-18.468718 -6.886803 -1.033007
-18.471163 -6.880377 -0.344057
-6.667310 -2.472931 -1.905426
-18.504450 -6.859693 0.344476
-8.086014 -2.995921 -1.990817
-18.480547 -6.843501 1.032798
-9.595691 -3.553365 -1.988993
-18.403048 -6.811146 1.716794
-12.127669 -4.486161 -2.048040
-18.378973 -6.794948 2.405945
-16.888670 -6.240608 -2.210710
-18.413685 -6.800470 3.108979
-18.596567 -6.868012 -1.734399
-18.593828 -6.859626 -1.038659
-18.603897 -6.855965 -0.346081
-6.683156 -2.452304 -1.907496
-11.788335 -4.323252 0.219167
-8.107399 -2.971703 -1.993516
-18.631847 -6.825668 1.039916
-18.550194 -6.792077 1.728298
-8.798573 -3.219823 -1.483938
-18.559185 -6.788024 2.426419
-8.878401 -3.245519 -1.160684
-18.552345 -6.778187 3.128377
-8.879791 -3.244274 -0.827108
-18.786369 -6.859968 3.887542
-18.745241 -6.841241 -1.045777
-12.882525 -4.696496 -0.239342
-6.695307 -2.430277 -1.908532
-11.871027 -4.306630 0.220424
-8.139708 -2.951356 -1.998915
-18.768229 -6.801414 1.046196
-8.802579 -3.189964 -1.819936
-18.738636 -6.786995 1.743638
-8.828333 -3.195814 -1.487066
-18.664900 -6.752914 2.437143
-8.822472 -3.190207 -1.151909
-18.694792 -6.756355 3.148401
-8.834848 -3.192942 -0.821879
-8.850045 -3.194939 -0.493109
-8.858194 -3.194387 -0.164367
-6.696476 -2.404281 -1.906461
-8.818029 -3.164260 0.163529
-8.166470 -2.928846 -2.002964
-8.935677 -3.204716 0.497506
-8.809965 -3.157895 -1.819173
-8.952519 -3.207230 0.831989
-8.831996 -3.162312 -1.485815
-8.950750 -3.203069 1.167265
-8.841028 -3.162067 -1.152884
-8.840313 -3.160069 -0.821356
-8.855500 -3.162014 -0.492795
-6.712110 -2.383477 -1.908532
-8.190829 -2.906962 -2.006563
-8.909163 -3.160150 0.495412
-8.865344 -3.142867 -1.828332
-8.918589 -3.159991 0.827805
-8.870363 -3.142904 -1.490508
-8.935126 -3.164093 1.163852
-8.873922 -3.140679 -1.155809
-8.940912 -3.162633 1.502084
-8.871952 -3.136495 -0.823273
-8.942124 -3.161303 1.843597
-8.897951 -3.143942 -0.494575
-8.983686 -3.172469 2.199572
-8.987087 -3.170145 2.553509
-6.734558 -2.366329 -1.912673
-8.206443 -2.880287 -2.007913
-8.930902 -3.134557 0.496040
-9.694558 -3.400686 -1.997007
-8.936539 -3.133035 0.828502
-12.261163 -4.296199 -2.057739
-8.949863 -3.134199 1.164340
-17.331230 -6.065917 -2.254583
-8.951350 -3.132966 1.502084
-8.975343 -3.137847 1.848176
-14.346581 -5.012863 -0.796449
-8.983666 -3.137236 2.196872
-8.970191 -3.130776 2.545744
-6.744602 -2.343441 -1.913190
-8.232517 -2.858815 -2.011962
-8.987072 -3.119081 0.498552
-9.711934 -3.368755 -1.998152
-12.146559 -4.210876 -2.036151
-9.016478 -3.123999 1.171652
-17.362507 -6.012308 -2.256046
-9.063037 -3.136585 1.518979
-14.824336 -5.127594 -1.372354
-9.052493 -3.131169 1.861914
-12.347116 -4.268335 -0.684659
-8.997705 -3.108700 2.197772
-8.976466 -3.099611 -0.165763
-8.990196 -3.102596 2.548332
-6.754163 -2.321690 -1.913708
-8.257192 -2.835121 -2.015561
-9.734194 -3.340353 -2.000442
-19.575674 -6.713710 1.810573
-12.258354 -4.201754 -2.052420
-12.171023 -4.169447 1.579671
-17.409679 -5.960666 -2.259458
-19.501711 -6.676929 3.264788
-14.895926 -5.097112 -1.377409
-9.039681 -3.087927 -0.166740
-6.773200 -2.301830 -1.916814
-9.057774 -3.078228 0.166985
-8.286844 -2.814619 -2.020510
-15.143357 -5.140477 0.838108
-9.768105 -3.313923 -2.005021
-11.647692 -3.949328 1.076025
-12.354533 -4.188993 -2.066187
-12.192303 -4.131611 1.580645
-17.436871 -5.905447 -2.260433
-19.629679 -6.644280 3.282308
-14.613544 -4.943570 -1.349694
-6.778326 -2.274575 -1.915779
-8.325791 -2.790619 -2.027259
-11.659609 -3.908040 0.644465
-9.806820 -3.285122 -2.010364
-11.719449 -3.923550 1.081254
-12.373124 -4.139989 -2.066499
-19.852228 -6.638610 2.570225
-17.470715 -5.842229 -2.261895
-19.842398 -6.631478 3.313595
-6.804167 -2.258170 -1.920955
-8.338701 -2.764221 -2.028159
-9.830705 -3.256905 -2.013035
-12.478678 -4.129344 -2.081830
-12.184568 -4.029660 1.575771
-17.501299 -5.788000 -2.263358
-20.029331 -6.620195 3.341128
-12.038451 -3.969686 -0.221262
-20.114731 -6.628952 5.674867
-6.811618 -2.235594 -1.920955
-8.345968 -2.735948 -2.027709
-11.712513 -3.837290 0.645930
-9.848915 -3.226732 -2.014561
-20.235548 -6.625729 1.862867
-12.524219 -4.098387 -2.087149
-12.409180 -4.058342 1.603069
-17.540264 -5.733046 -2.265795
-20.164984 -6.587037 3.359900
-14.600950 -4.766685 -1.343767
-15.746339 -5.137577 -0.868044
-11.268907 -3.672365 -0.206881
-6.830792 -2.214189 -1.924061
-15.082975 -4.889118 0.276760
-8.375861 -2.713402 -2.032658
-9.841994 -3.184571 -2.010745
-12.591785 -4.069465 -2.095909
-20.299967 -6.560627 2.619460
-17.507278 -5.654699 -2.258970
-20.330725 -6.562725 3.383678
-14.864000 -4.795215 -1.366428
-12.027681 -3.875564 -0.662259
-15.301710 -4.927579 -0.280600
-6.867916 -2.199759 -1.932343
-15.371232 -4.920371 0.281717
-8.391318 -2.684468 -2.034008
-11.431482 -3.654849 0.628974
-9.899801 -3.165143 -2.020286
-11.863529 -3.790700 1.089621
-12.551343 -4.008060 -2.086836
-20.524338 -6.550149 2.645296
-17.508972 -5.584461 -2.256533
-20.527790 -6.543362 3.412462
-15.275490 -4.869158 -1.402684
-12.349444 -3.931715 -0.679216
-11.233916 -3.572242 -0.205764
-20.482426 -6.509218 5.758724
-6.952909 -2.200252 -1.954084
-11.674221 -3.692072 0.213722
-8.415503 -2.659859 -2.037607
-11.185158 -3.533108 0.614738
-9.935126 -3.138254 -2.025247
-11.850091 -3.740868 1.087181
-12.591631 -3.972543 -2.091216
-12.114691 -3.819748 1.559684
-17.520786 -5.520923 -2.255558
-20.701239 -6.519135 3.437491
-20.925137 -6.589643 -1.919344
-15.171414 -4.771889 -0.833503
-13.012914 -4.087981 -0.238086
-7.037990 -2.200177 -1.975825
-11.362557 -3.549923 0.207788
-8.428455 -2.631628 -2.038507
-11.444657 -3.573381 0.628346
-9.953518 -3.105894 -2.026773
-11.908725 -3.713716 1.091364
-12.656341 -3.944435 -2.099664
-20.861441 -6.497616 2.682832
-17.684002 -5.504569 -2.274082
-20.866087 -6.495070 3.461269
-11.804777 -3.672260 -1.081603
-12.155342 -3.776662 -0.667074
-12.220483 -3.794563 -0.223356
-7.130536 -2.201816 -1.999636
-21.195154 -6.544785 0.387199
-8.424102 -2.599643 -2.035357
-11.266206 -3.474549 0.617878
-9.983060 -3.076913 -2.030589
-11.826411 -3.642802 1.082649
-12.661798 -3.900120 -2.098412
-21.015678 -6.469283 2.699894
-17.793230 -5.473913 -2.285782
-21.126539 -6.495337 3.500691
-12.255563 -3.765622 -1.121694
-15.791601 -4.849082 -0.865742
-11.618052 -3.563086 -0.212117
-7.233881 -2.207478 -2.026553
-21.367062 -6.516263 0.389922
-8.461086 -2.578742 -2.042106
-11.872461 -3.616184 0.650431
-9.976306 -3.038642 -2.027155
-11.556331 -3.517695 1.056851
-12.677227 -3.856470 -2.098725
-21.182478 -6.439767 2.718418
-15.312666 -4.652348 -1.965021
-21.220911 -6.443361 3.512580
-12.092589 -3.671705 -1.105658
-21.523241 -6.526959 -1.178711
-12.001705 -3.634960 -0.218888
-7.339575 -2.211757 -2.053988
-12.725431 -3.832345 0.231977
-8.470037 -2.549191 -2.042106
-11.068322 -3.329082 0.605736
-10.026332 -3.015677 -2.035169
-11.759345 -3.534688 1.074282
-12.734124 -3.825266 -2.105921
-21.463396 -6.443416 2.751566
-15.444797 -4.633660 -1.979890
-21.470333 -6.437324 3.550124
-12.086247 -3.623749 -1.103915
-12.136189 -3.634106 -0.663934
-11.527693 -3.447514 -0.210022
-7.423168 -2.208712 -2.075211
-11.272417 -3.351885 0.205275
-8.490091 -2.522942 -2.044805
-12.236303 -3.633854 0.668958
-10.078203 -2.992956 -2.043564
-11.878575 -3.525360 1.084043
-12.764442 -3.785850 -2.108737
-12.049459 -3.571502 1.543110
-15.438037 -4.572954 -1.976965
-21.632835 -6.403836 3.573277
-12.096912 -3.580975 -1.103740
-12.428435 -3.674392 -0.679216
-11.443766 -3.378938 -0.208277
-7.517949 -2.208377 -2.099540
-11.364635 -3.336176 0.206741
-8.491366 -2.491096 -2.043005
-11.075962 -3.247232 0.604899
-10.109313 -2.963831 -2.047762
-11.875512 -3.479395 1.082649
-12.794642 -3.746266 -2.111553
-12.035179 -3.521612 1.539697
-15.503443 -4.533526 -1.983302
-21.783991 -6.365962 3.594552
-15.423534 -4.507238 -1.405822
-11.670441 -3.406046 -0.637138
-12.281008 -3.579587 -0.223286
-7.573853 -2.196108 -2.112999
-11.232159 -3.254743 0.204123
-8.501883 -2.461982 -2.043455
-11.094904 -3.210773 0.605318
-10.157313 -2.939442 -2.055395
-12.205302 -3.529805 1.111584
-12.839902 -3.710905 -2.116871
-11.990184 -3.463057 1.532385
-18.160696 -5.241818 -2.320880
-22.011065 -6.349003 3.628341
-15.133641 -4.362378 -1.377932
-11.680341 -3.364735 -0.637033
-12.266524 -3.528956 -0.222797
-21.954802 -6.312034 6.121071
-7.602283 -2.174177 -2.118693
-11.337661 -3.242458 0.205834
-8.510424 -2.432290 -2.043455
-12.776848 -3.649227 0.696382
-10.175571 -2.904350 -2.056921
-12.233485 -3.489418 1.112979
-12.857216 -3.664902 -2.117497
-11.952564 -3.407034 1.526048
-18.239975 -5.195796 -2.328680
-12.362397 -3.516858 -1.124483
-11.713727 -3.327903 -0.638185
-11.590094 -3.290595 -0.210301
-7.606106 -2.146579 -2.117657
-11.609292 -3.274159 0.210546
-8.404867 -2.368834 -2.016011
-13.163094 -3.707421 0.716689
-10.170528 -2.864557 -2.053868
-11.727766 -3.300945 1.065915
-12.854718 -3.615720 -2.114994
-11.257891 -3.164448 1.435865
-18.285652 -5.136423 -2.332092
-12.336233 -3.462914 -1.120997
-12.484905 -3.499947 -0.679530
-11.421066 -3.197414 -0.207020
-7.617276 -2.121050 -2.118693
-15.421637 -4.291295 0.279413
-8.394308 -2.334262 -2.011512
-12.490891 -3.471075 0.679425
-10.218298 -2.839548 -2.061501
-12.303622 -3.416722 1.117162
-12.465634 -3.459373 -2.048979
-12.825964 -3.556955 1.634268
-18.334076 -5.081045 -2.335992
-12.594021 -3.487902 -1.143309
-15.790708 -4.367283 -0.858624
-11.513112 -3.179890 -0.208486
-7.639536 -2.098541 -2.122834
-11.996326 -3.293081 0.217143
-8.383614 -2.299789 -2.007013
-12.171625 -3.336631 0.661422
-10.258442 -2.812166 -2.067606
-12.180961 -3.336908 1.104960
-12.441434 -3.405925 -2.043034
-12.651261 -3.458621 -1.610382
-12.437500 -3.397850 2.042096
-12.461972 -3.404535 -1.130236
-11.543690 -3.149336 -0.627090
-12.149260 -3.309991 -0.219796
-7.624438 -2.065801 -2.116622
-12.447833 -3.370342 0.225101
-8.391590 -2.270510 -2.007013
-12.082940 -3.267018 0.655979
-10.287148 -2.781467 -2.071423
-11.623203 -3.140537 1.053364
-12.830850 -3.464431 -2.104982
-12.578333 -3.393895 1.599657
-12.508009 -3.372578 -1.590639
-12.273808 -3.307132 2.013312
-12.483399 -3.363605 -1.131107
-12.426368 -3.343587 -0.674401
-12.489044 -3.355777 -0.225729
-7.646534 -2.043163 -2.120763
-12.521347 -3.343375 0.226218
-8.410761 -2.244218 -2.009713
-12.502814 -3.336089 0.678169
-10.310072 -2.749082 -2.074094
-11.614844 -3.094812 1.051621
-13.077656 -3.482139 -2.143465
-12.333045 -3.281572 1.566996
-18.416975 -4.896935 -2.339892
-12.582519 -3.345597 2.062119
-12.591344 -3.345591 -1.139823
-12.210169 -3.239749 -0.662050
-12.422787 -3.293842 -0.224333
-7.661092 -2.018428 -2.122834
-12.555569 -3.307950 0.226637
-8.429464 -2.219292 -2.012412
-11.770743 -3.096783 0.637871
-10.368973 -2.726054 -2.084016
-12.334711 -3.240552 1.115768
-13.081490 -3.436744 -2.142214
-11.483686 -3.014833 1.457801
-18.529118 -4.861022 -2.352078
-12.005593 -3.147368 1.965756
-18.824430 -4.931478 -1.702500
-11.784180 -3.084928 -0.638394
-23.609591 -6.176246 5.634124
-15.049899 -3.934237 -0.271525
-7.673353 -1.994470 -2.124387
-12.919296 -3.355593 0.232990
-8.531471 -2.214334 -2.034907
-13.167652 -3.415197 0.712920
-10.412163 -2.700526 -2.090885
-11.600925 -3.006683 1.048484
-13.104879 -3.394035 -2.144091
-12.727920 -3.294036 1.614281
-18.569035 -4.802278 -2.355003
-12.368413 -3.196388 2.023324
-12.253651 -3.164448 -1.107226
-12.057887 -3.111646 -0.652629
-23.819706 -6.142461 5.679114
-12.131776 -3.126198 -0.218679
-7.688097 -1.968248 -2.126457
-12.380761 -3.169628 0.223077
-8.631658 -2.208206 -2.056952
-15.470571 -3.954901 0.836852
-10.454328 -2.670606 -2.097373
-11.766305 -3.003569 1.062428
-11.534283 -2.942194 -1.885348
-11.552543 -2.946852 1.463895
-18.662630 -4.757047 -2.364753
-12.352695 -3.146369 2.018943
-12.266553 -3.122144 -1.107401
-16.354893 -4.156655 -0.884373
-12.032139 -3.055773 -0.216689
-7.696794 -1.941872 -2.126975
-11.897842 -2.999575 0.214176
-8.771972 -2.209879 -2.088446
-11.661658 -2.935699 0.630230
-10.486432 -2.639848 -2.101952
-11.966072 -3.010112 1.079511
-11.590461 -2.913474 -1.892857
-18.664536 -4.684741 -2.362803
-12.502099 -3.135673 2.041470
-12.486637 -3.129478 -1.126227
-11.541241 -2.890394 -0.623531
-12.567046 -3.142639 -0.226113
-7.716984 -1.916909 -2.130599
-12.352667 -3.068418 0.222169
-8.921483 -2.214455 -2.122188
-11.708666 -2.904109 0.632218
-10.534150 -2.610842 -2.109584
-12.255515 -3.035204 1.104612
-11.748712 -2.907513 -1.916948
-12.423123 -3.074413 1.571383
-18.680775 -4.619565 -2.362803
-15.945962 -3.931464 -0.860717
-15.876784 -3.911465 -0.285417
-7.717669 -1.889931 -2.129046
-12.009787 -2.938776 0.215816
-9.057881 -2.214774 -2.152782
-12.007307 -2.935948 0.647815
-10.569449 -2.582420 -2.114927
-11.928729 -2.912323 1.074282
-13.358813 -3.258998 -2.177881
-12.445351 -3.033850 1.572846
-18.750790 -4.567483 -2.369628
-12.335067 -3.004685 2.010809
-11.712518 -2.846544 -0.631695
-15.788621 -3.834259 -0.283602
-7.735487 -1.865695 -2.132151
-12.186647 -2.939255 0.218818
-9.186424 -2.213946 -2.181576
-12.479619 -3.005310 0.672726
-10.597486 -2.550101 -2.118743
-12.225526 -2.939603 1.100080
-13.388753 -3.219298 -2.181010
-12.358834 -2.969378 1.560659
-18.781275 -4.508986 -2.371578
-12.422315 -2.980041 2.023324
-12.098405 -2.900108 2.418313
-16.196995 -3.879586 -0.872859
-12.305068 -2.942832 -0.220843
-7.734113 -1.838248 -2.130081
-12.817472 -3.044097 0.229953
-9.269939 -2.199866 -2.199572
-12.299584 -2.916566 0.662469
-10.634541 -2.521739 -2.124468
-12.840084 -3.042366 1.154465
-13.403752 -3.173456 -2.181635
-12.328557 -2.916619 1.555540
-18.881901 -4.463492 -2.382302
-12.471090 -2.945746 2.029581
-25.718431 -6.070102 -2.311893
-12.173421 -2.873188 2.431288
-18.527603 -4.369498 -0.997628
-12.544949 -2.953944 -0.224962
-7.755847 -1.813407 -2.134222
-14.971864 -3.500595 0.268383
-9.292743 -2.171041 -2.203171
-12.091854 -2.822762 0.650745
-10.683861 -2.492112 -2.132482
-12.001261 -2.797199 1.078117
-13.415295 -3.124305 -2.181635
-12.518466 -2.915441 1.578208
-18.982437 -4.417356 -2.393027
-12.281197 -2.855664 1.997043
-26.015043 -6.044317 -2.336645
-12.264191 -2.847201 2.447316
-17.874208 -4.146307 -0.961621
-12.504534 -2.898395 -0.224054
-7.758365 -1.785457 -2.133187
-14.809200 -3.405362 0.265242
-9.310134 -2.139148 -2.205420
-11.152167 -2.560335 0.599665
-10.702063 -2.456999 -2.134390
-11.983766 -2.749050 1.075676
-13.439597 -3.080550 -2.183825
-11.731850 -2.686954 1.477788
-12.554724 -2.873109 -1.581377
-12.330094 -2.819442 2.003300
-26.335093 -6.021872 -2.363489
-12.070454 -2.755635 -0.648861
-12.635954 -2.880096 -0.226218
-7.757014 -1.756657 -2.131116
-12.585851 -2.847888 0.225241
-9.336552 -2.110934 -2.209919
-11.149348 -2.518750 0.599037
-10.666529 -2.409676 -2.125612
-11.795052 -2.662458 1.057896
-13.504223 -3.045787 -2.192586
-12.666819 -2.854589 1.594295
-12.688619 -2.857179 -1.596976
-26.655294 -5.997258 -2.390333
-12.200818 -2.740626 -0.655351
-15.666436 -3.513348 -0.280251
-7.761213 -1.729149 -2.130599
-12.544967 -2.792640 0.224333
-9.351473 -2.080023 -2.211719
-12.397593 -2.757563 0.665609
-10.628880 -2.362206 -2.116454
-12.037674 -2.673098 1.078814
-13.420277 -2.977663 -2.177255
-11.789083 -2.613578 1.482663
-12.868570 -2.852895 -1.618425
-26.960083 -5.967037 -2.415783
-12.442856 -2.751682 2.477082
-27.008562 -5.967879 -1.449602
-18.485943 -4.081312 -0.330444
-7.768791 -1.703817 -2.131116
-12.288503 -2.692811 0.219586
-9.356415 -2.048584 -2.211269
-12.964668 -2.838609 0.695545
-10.648161 -2.329463 -2.118743
-11.882974 -2.597426 1.064172
-13.555520 -2.960539 -2.197592
-12.449341 -2.716672 1.564559
-19.115238 -4.171292 -2.402289
-27.291199 -5.945457 -2.443673
-12.484612 -2.715240 -0.669586
-11.671782 -2.536327 -0.208486
-7.774398 -1.678046 -2.131116
-12.406831 -2.675652 0.221541
-9.359347 -2.016724 -2.210369
-12.080243 -2.600811 0.647605
-10.632796 -2.289184 -2.114164
-11.794129 -2.537056 1.055456
-13.617408 -2.926778 -2.206039
-15.997041 -3.432390 -2.008894
-16.019432 -3.434270 -1.433363
-12.453154 -2.667449 2.475556
-12.138167 -2.593334 -0.216654
-7.772650 -1.649294 -2.129046
-12.772127 -2.707810 0.227894
-9.373956 -1.985659 -2.212169
-12.075571 -2.555729 0.646872
-10.648405 -2.253678 -2.115690
-13.708714 -2.896380 -2.219180
-11.387633 -2.403903 1.429040
-15.993387 -3.373251 -2.006944
-16.019625 -3.375869 -1.432317
-13.057939 -2.749360 2.593858
-16.028688 -3.371932 -0.858414
-16.104214 -3.381951 -0.287232
-7.774577 -1.621361 -2.128010
-12.014101 -2.503314 0.214211
-9.394184 -1.955706 -2.215318
-12.684730 -2.638427 0.679007
-10.733092 -2.232486 -2.130955
-11.811554 -2.454659 1.055456
-13.799974 -2.865377 -2.232320
-13.647262 -2.828699 -1.711290
-28.568396 -5.916230 -2.552443
-12.959794 -2.681486 2.572487
-20.844055 -4.309014 -1.115489
-12.187311 -2.514999 -0.217213
-7.768834 -1.591888 -2.124904
-11.975749 -2.451736 0.213373
-9.410501 -1.924852 -2.217567
-12.793658 -2.614530 0.684345
-10.960098 -2.239821 -2.174459
-16.239635 -3.315802 1.450097
-13.879572 -2.831399 -2.243583
-16.251333 -3.312282 2.036437
-13.674559 -2.784609 -1.713483
-16.358774 -3.328229 2.644056
-28.846588 -5.868904 -2.575452
-20.490997 -4.161498 -1.095810
-16.231302 -3.290497 -0.289082
-7.789495 -1.567809 -2.129046
-13.399679 -2.694550 0.238574
-9.401876 -1.888922 -2.213968
-11.950890 -2.398872 0.638813
-11.183826 -2.242869 -2.217201
-11.922171 -2.390940 1.063823
-13.993961 -2.803892 -2.260478
-12.046732 -2.411550 1.508499
-13.501221 -2.700260 -1.690572
-16.319927 -3.261042 2.635921
-29.203964 -5.830233 -2.605434
-20.090860 -4.003611 -1.073620
-12.330088 -2.454847 -0.219447
-7.780026 -1.536254 -2.124904
-12.114623 -2.389973 0.215537
-9.420208 -1.856711 -2.216668
-12.343689 -2.430687 0.659328
-11.434689 -2.249616 -2.265285
-12.118525 -2.384152 1.080557
-13.643622 -2.681720 -2.202285
-12.573629 -2.469126 1.573333
-19.265289 -3.779702 -2.410576
-19.828201 -3.882950 -1.767693
-19.968187 -3.903127 -1.066293
-29.661104 -5.792400 -0.527516
-7.793191 -1.509198 -2.126975
-12.040844 -2.329598 0.214071
-9.430778 -1.822911 -2.217567
-12.493710 -2.412695 0.666865
-11.621742 -2.244307 -2.300775
-13.624265 -2.626088 -2.197592
-12.009506 -2.312668 1.501674
-19.302408 -3.713562 -2.413501
-12.568408 -2.415746 2.027078
-30.113655 -5.788080 -2.682828
-30.142204 -5.782651 -1.608493
-30.118145 -5.767137 -0.535265
-7.794616 -1.481266 -2.125940
-12.117662 -2.300611 0.215293
-9.437083 -1.789980 -2.217567
-13.365482 -2.532687 0.712920
-11.670012 -2.211405 -2.308789
-13.646935 -2.581083 -2.199782
-12.828946 -2.424052 1.603069
