# This PCD file was generated using the MATLAB® pcwrite function
# from Computer Vision Toolbox®.
# .PCD v.7 - Point Cloud Data file format
VERSION .7
FIELDS x y z
SIZE 4 4 4
TYPE F F F
COUNT 1 1 1
WIDTH 1638
HEIGHT 1
VIEWPOINT 0 0 0 1 0 0 0
POINTS 1638
DATA ascii
-8.495117 4.002933 -2.168078
-16.083984 7.582263 0.931894
-7.168993 3.379585 -1.540592
-16.093904 7.590377 1.556776
-7.040568 3.322049 -1.233017
-16.096943 7.598676 2.185605
-7.172754 3.387482 -0.973980
-18.571360 8.774675 3.253211
-7.025589 3.319480 -0.679815
-16.011774 7.568725 3.442576
-7.047016 3.332613 -0.408534
-16.044027 7.590828 4.097709
-30.670481 14.517527 -0.592300
-16.071716 7.610795 4.764859
-7.051405 3.349760 -2.091776
-16.296404 7.745074 0.314946
-8.488133 4.035908 -2.169878
-15.934772 7.580024 0.924776
-7.162470 3.407121 -1.541737
-15.941377 7.586577 1.544574
-7.093137 3.377174 -1.244280
-15.944869 7.595067 2.168543
-7.189558 3.426163 -0.977880
-18.497826 8.819041 3.245703
-7.075108 3.373135 -0.685741
-15.877161 7.573016 3.419297
-7.035340 3.357192 -0.408534
-15.892572 7.587173 4.065765
-30.673758 14.650348 -0.593347
-15.940467 7.616875 4.733800
-7.030958 3.370180 -2.089187
-16.269272 7.801909 0.314946
-8.470479 4.063827 -2.168978
-15.794304 7.577530 0.918077
-7.129294 3.421908 -1.537157
-15.799852 7.586977 1.533418
-7.134722 3.427575 -1.253666
-15.800174 7.593924 2.152457
-7.152509 3.439193 -0.974467
-18.479156 8.885469 3.247580
-15.647322 7.527184 -1.519125
-15.795790 7.602000 3.407467
-7.028976 3.384329 -0.408849
-15.758896 7.591019 4.038321
-30.650230 14.764136 -0.593836
-15.807220 7.617697 4.701707
-7.010456 3.390496 -2.086599
-16.254110 7.861042 0.315156
-8.467482 4.096986 -2.171677
-15.656296 7.578667 0.911588
-7.120841 3.448483 -1.537921
-15.680034 7.596909 1.524354
-7.158871 3.468442 -1.259923
-15.682016 7.601254 2.139782
-6.880286 3.336435 -0.938882
-18.497795 8.974063 3.256340
-15.484727 7.515640 -1.505877
-15.749299 7.644052 3.402888
-7.051851 3.424195 -0.410837
-15.619699 7.587883 4.009078
-30.659655 14.900756 -0.595022
-15.648493 7.608628 4.662366
-6.987020 3.407796 -2.082976
-16.222979 7.915978 0.315086
-8.449627 4.124809 -2.170778
-15.550781 7.594702 0.906982
-7.112894 3.473800 -1.538684
-15.525866 7.585890 1.511804
-12.619897 6.168771 -2.224811
-15.544825 7.601876 2.124670
-15.338439 7.504264 -2.096640
-18.491194 9.050740 3.260720
-15.352827 7.517951 -1.495593
-15.722520 7.698981 3.402888
-15.363925 7.526705 -0.896620
-15.496873 7.595195 3.984333
-30.690044 15.048184 -0.596628
-15.503901 7.605346 4.627167
-6.983149 3.437648 -2.085564
-16.875206 8.307287 0.328315
-7.092541 3.493038 -1.825253
-15.431015 7.603037 0.901539
-7.119484 3.509396 -1.542882
-15.390740 7.589875 1.501345
-12.586573 6.209740 -2.222934
-15.390019 7.592855 2.107121
-15.219588 7.512073 -2.083966
-18.491369 9.130975 3.266352
-15.238962 7.528252 -1.487051
-15.704759 7.761772 3.405178
-15.216279 7.523660 -0.889607
-15.409544 7.622561 3.969036
-30.683937 15.178268 -0.597535
-15.383758 7.613152 4.599215
-6.964186 3.458565 -2.083493
-16.907322 8.400224 0.329536
-7.079690 3.519010 -1.825253
-15.314954 7.612405 0.896306
-7.128285 3.544718 -1.547461
-15.257124 7.590302 1.490886
-12.568357 6.255398 -2.223560
-15.255466 7.596126 2.092497
-15.099556 7.521779 -2.071291
-18.498283 9.214840 3.273235
-15.105598 7.528080 -1.476593
-15.688108 7.821805 3.407467
-15.093415 7.528585 -0.883954
-15.297402 7.633668 3.946991
-15.625824 7.797556 -0.304824
-15.262029 7.619348 4.570745
-6.950343 3.481990 -2.082976
-16.913343 8.473263 0.330200
-7.055787 3.536356 -1.822104
-15.202591 7.622844 0.891281
-7.115869 3.569577 -1.547461
-15.152184 7.604194 1.483217
-12.552840 6.299701 -2.224498
-15.130849 7.596787 2.078847
-14.968097 7.518350 -2.056667
-18.487186 9.289999 3.276990
-14.986661 7.534231 -1.467528
-15.655066 7.870258 3.405941
-14.968443 7.528340 -0.878093
-15.172778 7.634429 3.921347
-15.466332 7.785522 -0.302241
-15.136992 7.623044 4.541239
-6.930137 3.500662 -2.080388
-16.922928 8.552094 0.330967
-7.048618 3.563600 -1.823453
-15.088108 7.628159 0.886048
-10.050704 5.083583 -2.189342
-15.002440 7.591428 1.471014
-12.529013 6.342585 -2.224185
-15.006836 7.600233 2.065442
-14.839056 7.518515 -2.042530
-18.484470 9.365540 3.281996
-14.856747 7.530737 -1.457244
-15.638007 7.930180 3.408231
-14.845891 7.531749 -0.872440
-15.066100 7.646773 3.900651
-15.329875 7.780652 -0.300077
-14.991051 7.611973 4.505004
-6.921318 3.526588 -2.081423
-16.894476 8.608166 0.330967
-7.048915 3.593150 -1.826603
-14.947515 7.622709 0.879349
-9.978684 5.090977 -2.177512
-14.876473 7.593029 1.461253
-6.821377 3.481666 -1.212993
-14.903763 7.610231 2.054717
-14.723886 7.521626 -2.030100
-18.497398 9.453379 3.290130
-14.727477 7.529944 -1.447134
-15.601135 7.976633 3.405941
-14.717701 7.528186 -0.866369
-14.945247 7.647868 3.875907
-15.199382 7.781263 -0.298052
-14.861223 7.611418 4.473946
-6.917556 3.555140 -2.084011
-7.059958 3.631442 -1.832901
-14.832457 7.632668 0.874220
-9.887534 5.088049 -2.161484
-14.754223 7.595662 1.451840
-6.833156 3.519307 -1.217373
-14.778714 7.614801 2.041312
-14.607997 7.530062 -2.017913
-18.492472 9.536504 3.295449
-14.607250 7.532908 -1.437895
-15.728820 8.114773 3.440286
-14.592397 7.531693 -0.860613
-14.811493 7.648055 3.848463
-15.092588 7.796537 -0.296516
-14.733685 7.614392 4.443923
-6.893099 3.573042 -2.080388
-16.063786 8.330230 0.315854
-8.311729 4.312074 -2.161780
-14.701133 7.630108 0.868044
-9.820923 5.097207 -2.150799
-14.646277 7.604887 1.443822
-12.447883 6.466158 -2.221683
-14.621698 7.598601 2.023275
-14.461854 7.518744 -2.001338
-18.501131 9.622872 3.302958
-14.487185 7.535125 -1.428657
-15.736975 8.188655 3.448300
-14.461492 7.528176 -0.854437
-14.687914 7.649302 3.823268
-14.973065 7.801124 -0.294701
-14.607656 7.613988 4.413900
-6.884009 3.598872 -2.081423
-16.020430 8.378841 0.315574
-8.310441 4.348286 -2.165379
-14.570009 7.626731 0.861869
-9.721320 5.088665 -2.132863
-14.513741 7.600509 1.433363
-12.416487 6.504983 -2.220118
-14.514204 7.607203 2.012063
-14.347617 7.523088 -1.989152
-18.479675 9.693814 3.305148
-14.370812 7.538444 -1.419767
-15.758707 8.269999 3.459367
-14.362624 7.540546 -0.850145
-14.466174 7.598128 3.772429
-14.846609 7.801256 -0.292747
-14.504040 7.624481 4.390606
-6.864569 3.619274 -2.079352
-16.924976 8.927300 0.334004
-8.298658 4.379088 -2.166279
-14.456751 7.631859 0.856740
-9.640995 5.089575 -2.119125
-14.384941 7.597156 1.423253
-12.395452 6.549208 -2.220431
-14.392790 7.607731 1.998901
-14.230021 7.524868 -1.976477
-18.517315 9.796135 3.317975
-14.236983 7.531730 -1.409134
-14.237370 7.538296 -0.844284
-14.343127 7.597497 3.747235
-14.734474 7.808089 -0.291071
-14.400531 7.634341 4.367313
-6.851892 3.643215 -2.079352
-15.958016 8.488600 0.315505
-8.276441 4.404367 -2.164479
-14.336586 7.632527 0.851192
-9.571182 5.095517 -2.107676
-14.270408 7.600492 1.414538
-12.358567 6.585006 -2.217928
-14.271555 7.607499 1.985739
-14.119591 7.529659 -1.964778
-18.507404 9.873735 3.322356
-14.124468 7.535430 -1.400593
-15.752548 8.407541 3.470816
-14.129926 7.544675 -0.839469
-14.246043 7.609875 3.728789
-14.633057 7.819887 -0.289605
-14.247725 7.617162 4.329008
-6.832324 3.663459 -2.077282
-15.836655 8.495098 0.313690
-8.255864 4.430466 -2.163129
-14.225391 7.637179 0.846168
-9.487608 5.093607 -2.093175
-14.141986 7.595581 1.404428
-12.328547 6.624366 -2.216677
-14.153991 7.608396 1.973065
-14.002307 7.530009 -1.952103
-18.504141 9.955120 3.327987
-14.024386 7.545039 -1.393272
-15.733478 8.468060 3.473106
-14.001508 7.539033 -0.833398
-14.119885 7.605951 3.702694
-29.410263 15.849034 -0.583155
-14.127521 7.616432 4.300538
-6.819494 3.687286 -2.077282
-15.866708 8.582671 0.314876
-8.233494 4.455549 -2.161330
-14.093261 7.629737 0.839887
-9.414521 5.096785 -2.080963
-14.041804 7.605048 1.397107
-12.286242 6.657009 -2.213235
-14.040086 7.610457 1.960878
-13.881705 7.527741 -1.938941
-18.490114 10.030955 3.331742
-13.903396 7.542644 -1.383859
-15.750410 8.548214 3.483409
-13.894365 7.544023 -0.828583
-14.011053 7.610546 3.681099
-29.389900 15.970695 -0.583853
-14.022775 7.623252 4.276726
-6.815063 3.715691 -2.079870
-15.801539 8.618857 0.314178
-8.224733 4.487995 -2.163129
-13.994669 7.639645 0.835596
-9.334640 5.095750 -2.067225
-13.924244 7.604359 1.388042
-12.273332 6.705538 -2.215112
-13.926343 7.611813 1.948691
-13.775225 7.532342 -1.927729
-18.496580 10.118189 3.339250
-13.803568 7.550970 -1.376538
-15.744587 8.616338 3.488752
-13.780353 7.544521 -0.823349
-13.881852 7.603240 3.654105
-29.376060 16.096260 -0.584691
-13.904602 7.622011 4.248774
-6.796973 3.736665 -2.078317
-15.683748 8.625779 0.312433
-8.202189 4.512918 -2.161330
-13.878264 7.635946 0.830153
-9.272075 5.103691 -2.057303
-13.810351 7.604865 1.379327
-12.225628 6.734993 -2.210732
-13.809281 7.610559 1.936017
-13.672359 7.538209 -1.917005
-18.483683 10.190916 3.343005
-13.675940 7.543293 -1.366428
-15.731605 8.680729 3.492568
-13.673501 7.548177 -0.818534
-13.781877 7.611138 3.634759
-29.378544 16.224506 -0.585808
-13.791320 7.619499 4.221856
-6.766990 3.751004 -2.073141
-15.539624 8.613756 0.310129
-8.200812 4.547654 -2.164929
-13.771186 7.639775 0.825338
-9.243904 5.130310 -2.055013
-13.693143 7.602732 1.370263
-12.196319 6.771662 -2.209481
-13.698937 7.609076 1.924073
-13.567467 7.539154 -1.905793
-18.501520 10.285125 3.352704
-13.565945 7.544507 -1.358061
-15.745625 8.756704 3.502108
-13.575091 7.552696 -0.814138
-13.668016 7.607516 3.611364
-29.374140 16.356152 -0.586855
-13.673505 7.616827 4.193904
-6.761261 3.777193 -2.075211
-15.404731 8.609410 0.308035
-8.155972 4.560085 -2.157280
-13.665993 7.643928 0.820628
-9.226841 5.160935 -2.055013
-13.594831 7.607235 1.362942
-12.165712 6.810335 -2.208229
-13.594352 7.613204 1.913105
-13.457943 7.539893 -1.894094
-18.501694 10.369927 3.359274
-13.474808 7.552432 -1.351437
-15.738935 8.825057 3.507451
-13.451099 7.545314 -0.808277
-13.566603 7.613218 3.591568
-29.397076 16.503616 -0.588460
-13.584515 7.629506 4.174751
-6.737936 3.795082 -2.072105
-15.270053 8.604231 0.305941
-8.148493 4.593312 -2.159530
-13.548764 7.640566 0.815185
-9.208771 5.193110 -2.055013
-13.502253 7.617444 1.356318
-12.136703 6.849850 -2.207291
-13.476080 7.608880 1.900187
-13.338207 7.534104 -1.880932
-18.501495 10.454860 3.365844
-13.373774 7.557277 -1.343942
-15.742218 8.899261 3.515084
-13.344708 7.546995 -0.803462
-13.450049 7.609673 3.567724
-29.391495 16.635681 -0.589507
-13.480470 7.633091 4.150940
-6.724647 3.818578 -2.072105
-15.135604 8.598218 0.303846
-8.139186 4.625579 -2.161330
-13.419571 7.629573 0.809009
-9.170105 5.213579 -2.050434
-13.395915 7.619217 1.348299
-12.105852 6.888263 -2.206039
-13.373530 7.612665 1.889462
-13.239375 7.539359 -1.870695
-18.504368 10.541864 3.373040
-13.265949 7.557558 -1.335749
-15.746878 8.974574 3.523098
-13.250614 7.554953 -0.799379
-13.394629 7.640162 3.560076
-29.381882 16.765919 -0.590485
-13.363143 7.628386 4.122987
-6.704570 3.838190 -2.070035
-15.015265 8.599319 0.302031
-8.104390 4.643306 -2.156381
-13.302752 7.624724 0.803566
-9.133116 5.234818 -2.046236
-13.265532 7.606468 1.337841
-12.088588 6.934410 -2.207291
-13.265954 7.612863 1.878007
-13.140673 7.544017 -1.860458
-13.266900 7.619563 2.423170
-13.149646 7.552221 -1.326685
-15.756309 9.052959 3.532256
-13.147972 7.557367 -0.794774
-13.369569 7.687840 3.560525
-29.375177 16.898294 -0.591532
-13.282854 7.644152 4.106423
-6.687786 3.859637 -2.069000
-14.929736 8.619686 0.300914
-8.093195 4.674491 -2.157730
-13.172297 7.611156 0.797286
-9.094389 5.254878 -2.041656
-13.145754 7.598884 1.328428
-12.036948 6.960743 -2.202285
-13.170570 7.619359 1.868257
-13.031790 7.542112 -1.848758
-13.158165 7.618319 2.408153
-13.062856 7.563136 -1.320584
-15.736501 9.114796 3.534928
-13.043747 7.558153 -0.790064
-13.340965 7.733485 3.560076
-29.388664 17.042871 -0.592998
-13.199277 7.657507 4.088823
-6.687630 3.890732 -2.073141
-13.423600 7.812722 0.271106
-8.059989 4.692906 -2.153232
-13.057629 7.605824 0.791948
-9.070899 5.283629 -2.040511
-13.046847 7.602594 1.321107
-12.007459 6.999730 -2.201346
-13.063295 7.618288 1.856802
-12.945371 7.552544 -1.840227
-13.056427 7.620387 2.394386
-12.948619 7.557465 -1.311694
-15.746976 9.194416 3.544468
-12.948300 7.563343 -0.785877
-13.320619 7.783940 3.561875
-29.391150 17.181677 -0.594254
-13.117435 7.671351 4.071741
-6.674008 3.914052 -2.073141
-13.327258 7.819052 0.269709
-8.031794 4.714108 -2.150082
-12.939718 7.597761 0.786400
-9.038857 5.307308 -2.037459
-12.944643 7.603686 1.313437
-11.971029 7.034599 -2.199156
-12.954481 7.615552 1.845102
-12.829952 7.545355 -1.827553
-12.948023 7.617838 2.379369
-12.855186 7.563219 -1.304896
-15.743547 9.266257 3.550956
-12.828883 7.553773 -0.780225
-13.283293 7.824456 3.559175
-29.406794 17.328838 -0.595790
-13.024010 7.677851 4.051036
-6.647002 3.929459 -2.069000
-13.227592 7.822773 0.268243
-8.006902 4.737156 -2.147833
-12.840931 7.600153 0.782004
-9.018588 5.337825 -2.037077
-12.852874 7.610251 1.306813
-11.926004 7.064262 -2.195401
-12.864634 7.623280 1.836084
-12.735232 7.549603 -1.817803
-12.839796 7.614623 2.364351
-12.773868 7.575524 -1.299318
-15.744876 9.341190 3.558588
-12.747476 7.565887 -0.776875
-13.265953 7.876745 3.561875
-29.383951 17.453850 -0.596558
-12.917413 7.675898 4.026189
-6.626606 3.948682 -2.066929
-13.138369 7.832037 0.266987
-7.997014 4.769067 -2.149632
-12.745715 7.603999 0.777817
-8.993156 5.365251 -2.035550
-12.737265 7.601977 1.297749
-11.897881 7.103824 -2.194776
-12.762958 7.623351 1.825359
-12.644046 7.555322 -1.808541
-12.743622 7.617841 2.351523
-12.649868 7.561798 -1.289382
-15.744190 9.415236 3.565839
-12.631864 7.557020 -0.771432
-13.226671 7.915999 3.558726
-29.391478 17.597393 -0.597954
-12.814303 7.675279 4.002378
-6.601191 3.964826 -2.063306
-13.059528 7.846954 0.265940
-7.960275 4.784905 -2.144233
-12.660898 7.613449 0.774258
-8.971008 5.394587 -2.034787
-12.645776 7.607365 1.291125
-11.866242 7.141234 -2.193524
-12.669944 7.627924 1.815853
-12.559779 7.564590 -1.800254
-12.639123 7.615379 2.337131
-12.555135 7.564775 -1.282410
-12.620769 7.607328 2.864425
-12.554095 7.570127 -0.768292
-12.648309 7.629944 3.410258
-29.401775 17.743284 -0.599420
-12.709703 7.673035 3.978049
-6.602182 3.996851 -2.067964
-12.512075 7.577581 0.255329
-7.940191 4.810644 -2.143334
-12.555675 7.609981 0.769443
-8.955479 5.427906 -2.035550
-12.544183 7.606005 1.283455
-11.817597 7.168271 -2.189144
-12.548202 7.614437 1.802204
-12.462029 7.565119 -1.790017
-12.549994 7.621515 2.325555
-12.463941 7.569256 -1.275786
-12.532055 7.613620 2.850305
-12.452498 7.568259 -0.763686
-12.548333 7.629503 3.390462
-12.463334 7.580806 -0.254631
-12.618481 7.678187 3.957861
-6.591490 4.021883 -2.069000
-12.437757 7.592037 0.254351
-7.916698 4.834267 -2.141534
-12.447225 7.603782 0.764419
-8.936479 5.459131 -2.035550
-12.452954 7.610267 1.276832
-11.795873 7.211542 -2.189770
-12.448729 7.613653 1.791723
-12.354269 7.558845 -1.778318
-12.457602 7.625061 2.313353
-12.374565 7.574236 -1.269336
-12.445130 7.620408 2.836567
-12.340848 7.559516 -0.758453
-12.448514 7.628460 3.370667
-12.373718 7.585592 -0.253339
-12.491146 7.660579 3.926285
-6.564246 4.036771 -2.064858
-12.337943 7.590349 0.252850
-7.906413 4.865960 -2.143334
-12.345774 7.601111 0.759813
-8.907337 5.484117 -2.033261
-12.358456 7.611895 1.269859
-11.758857 7.245417 -2.187580
-12.369690 7.624771 1.784167
-12.270359 7.566498 -1.770030
-12.348532 7.617678 2.298023
-12.276834 7.573448 -1.262015
-12.346612 7.619469 2.820157
-12.263399 7.571075 -0.755313
-12.348859 7.626808 3.350871
-12.279117 7.586695 -0.251943
-12.364086 7.642180 3.894709
-6.550116 4.059659 -2.064858
-12.253589 7.597543 0.251664
-7.872818 4.883256 -2.138835
-12.264859 7.610463 0.756464
-8.881468 5.511036 -2.031734
-12.264100 7.612956 1.262887
-11.723425 7.280167 -2.185703
-12.289041 7.634382 1.776368
-12.186547 7.573657 -1.761743
-12.276570 7.632575 2.289575
-12.175873 7.569970 -1.254345
-12.253255 7.621045 2.804892
-12.199591 7.590621 -0.753010
-12.272527 7.638974 3.337374
-12.176171 7.581946 -0.250372
-12.256990 7.635240 3.869345
-6.526784 4.075221 -2.061753
-12.158789 7.594701 0.250233
-7.859887 4.911402 -2.139734
-12.186687 7.615088 0.753114
-8.863143 5.540458 -2.031734
-12.164460 7.607100 1.255217
-11.674098 7.303288 -2.181010
-12.182885 7.624542 1.764668
-12.080605 7.563462 -1.750044
-12.168818 7.618690 2.273932
-12.096669 7.576463 -1.248767
-12.168023 7.624110 2.791154
-12.103275 7.586483 -0.748614
-12.184390 7.640289 3.320277
-12.096384 7.585104 -0.249220
-12.164208 7.630593 3.847604
-6.514155 4.099006 -2.062270
-12.062453 7.590250 0.248767
-7.836960 4.933288 -2.137935
-12.085669 7.610753 0.748509
-8.837106 5.567174 -2.030208
-12.060294 7.600653 1.247199
-11.646473 7.339855 -2.180384
-12.080290 7.616202 1.753456
-11.991653 7.563240 -1.740782
-12.075321 7.618961 2.261417
-11.985907 7.565468 -1.240052
-12.069625 7.618311 2.774363
-11.990237 7.571125 -0.743171
-12.089788 7.636941 3.301382
-12.008977 7.588826 -0.247964
-12.075450 7.633778 3.827934
-6.502158 4.121620 -2.062788
-11.985220 7.600183 0.247719
-7.814754 4.957482 -2.136585
-11.974713 7.599382 0.743275
-8.818595 5.596449 -2.030208
-11.981198 7.606431 1.241621
-11.609109 7.373051 -2.178194
-11.969858 7.605094 1.741269
-11.891463 7.558204 -1.730057
-11.985310 7.620790 2.249528
-11.915718 7.579456 -1.235520
-11.980013 7.620353 2.759861
-11.886222 7.563612 -0.738356
-11.998944 7.638284 3.283835
-11.920007 7.590953 -0.246672
-11.978666 7.631251 3.805675
-6.487007 4.145425 -2.062788
-11.896270 7.602134 0.246428
-7.797403 4.984728 -2.136585
-11.875762 7.594864 0.738774
-8.774870 5.613923 -2.024865
-11.892827 7.611629 1.235345
-11.582009 7.415549 -2.178194
-11.906459 7.623282 1.735907
-11.794800 7.554698 -1.719820
-11.893771 7.621013 2.237326
-11.825447 7.580146 -1.228896
-11.942084 7.657856 2.757572
-11.804627 7.572615 -0.735006
-11.970868 7.682210 3.283835
-11.837898 7.596878 -0.245520
-11.882051 7.628142 3.783417
-6.449759 4.153399 -2.055541
-11.858242 7.639185 0.246219
-7.765976 5.004829 -2.132986
-11.797486 7.605874 0.735634
-8.755221 5.644516 -2.024865
-11.795862 7.607741 1.228024
-11.551071 7.452722 -2.177255
-11.806720 7.620581 1.725426
-11.710333 7.561264 -1.711533
-11.814318 7.631331 2.227627
-11.725276 7.573816 -1.221226
-11.940016 7.715475 2.763296
-11.719416 7.575825 -0.731343
-11.957070 7.732416 3.287435
-11.826765 7.651074 -0.245870
-11.787519 7.628603 3.762194
-6.438463 4.177992 -2.056576
-11.844922 7.689243 0.246498
-7.748459 5.031908 -2.132986
-11.703871 7.603486 0.731447
-8.732173 5.672905 -2.024102
-11.705752 7.607613 1.221401
-11.485241 7.467154 -2.169746
-11.708491 7.615208 1.714946
-11.623968 7.563121 -1.702759
-11.734631 7.638038 2.217615
-11.633646 7.572308 -1.214428
-11.919593 7.761392 2.764822
-11.627630 7.574176 -0.727261
-11.964294 7.796447 3.296883
-11.813388 7.701047 -0.246149
-11.697709 7.628551 3.742006
-6.427073 4.202555 -2.057611
-11.843111 7.746963 0.247021
-7.717802 5.050388 -2.129387
-11.628798 7.612570 0.728412
-8.690963 5.689373 -2.019141
-11.615788 7.606949 1.214777
-11.449191 7.500705 -2.167869
-11.628708 7.621212 1.707146
-11.537731 7.564467 -1.693984
-11.645128 7.637785 2.205726
-11.547166 7.573534 -1.208153
-11.944955 7.837416 2.777034
-11.534334 7.570877 -0.723074
-11.969585 7.859556 3.305881
-11.821532 7.765293 -0.246882
-11.619346 7.635388 3.725441
-6.418818 4.229214 -2.059682
-11.849389 7.810265 0.247719
-7.691991 5.071933 -2.127137
-11.522129 7.600326 0.723388
-8.677607 5.723997 -2.020667
-11.532623 7.610140 1.208850
-11.403155 7.527565 -2.164115
-11.540745 7.621283 1.698128
-11.438379 7.556551 -1.683259
-11.542589 7.628289 2.191334
-11.459158 7.573150 -1.201703
-11.442867 7.568124 -0.718991
-11.836040 7.834106 -0.247754
-11.528193 7.633237 3.704736
-6.392749 4.244117 -2.056059
-11.852039 7.871495 0.248348
-7.672617 5.097672 -2.126687
-11.436974 7.598703 0.719620
-8.621601 5.730347 -2.012272
-11.446259 7.610637 1.202575
-11.355430 7.553098 -2.160047
-11.451270 7.619734 1.688866
-11.355749 7.559033 -1.674972
-11.449810 7.621645 2.178507
-11.369637 7.571137 -1.195080
-11.952036 7.961977 2.791536
-11.373167 7.579224 -0.716270
-11.977659 7.985088 3.323427
-11.833290 7.888843 -0.248243
-11.456208 7.640339 3.689724
-6.368260 4.259961 -2.052953
-11.799276 7.892965 0.247789
-7.621660 5.100328 -2.117239
-11.363908 7.607470 0.716689
-8.598284 5.758223 -2.011509
-11.353414 7.606185 1.195602
-11.281087 7.557730 -2.150661
-11.379766 7.626721 1.682041
-11.274560 7.559063 -1.666685
-11.373920 7.628554 2.169121
-11.278612 7.567489 -1.188281
-11.961433 8.025634 2.799931
-11.284954 7.574600 -0.712292
-11.968913 8.036708 3.328376
-11.686165 7.849816 -0.245730
-11.392589 7.655501 3.677819
-6.362110 4.286453 -2.055541
-11.778287 7.938571 0.247929
-7.582805 5.112740 -2.111391
-11.276017 7.605771 0.712816
-8.569375 5.780118 -2.009219
-11.268673 7.603675 1.189327
-11.203881 7.562801 -2.140962
-11.283978 7.619740 1.671804
-11.195468 7.562812 -1.658886
-11.288301 7.628393 2.157857
-11.200631 7.569147 -1.182703
-11.944730 8.075034 2.802603
-11.193923 7.570307 -0.708210
-11.974680 8.101373 3.337824
-11.814363 7.995917 -0.249011
-11.356197 7.688724 3.674713
-6.342314 4.305378 -2.053988
-11.846455 8.044796 0.249953
-7.519776 5.108518 -2.098794
-11.186628 7.602422 0.708838
-8.532910 5.798958 -2.005403
-11.186041 7.604878 1.183401
-11.125142 7.566318 -2.130950
-11.199870 7.619997 1.663273
-11.109923 7.561637 -1.650111
-11.194655 7.622170 2.145030
-11.113204 7.566712 -1.176254
-11.963529 8.148729 2.813669
-11.116263 7.574471 -0.704965
-11.975311 8.162880 3.345922
-11.844203 8.076539 -0.250233
-11.337272 7.733758 3.677301
-6.325652 4.326401 -2.053470
-11.866161 8.118846 0.250966
-7.461697 5.107216 -2.087546
-11.105319 7.601122 0.705279
-8.522335 5.835363 -2.007692
-11.103539 7.605597 1.177474
-11.049779 7.571606 -2.121564
-11.125720 7.626496 1.656205
-11.011424 7.550978 -1.639387
-11.113928 7.621269 2.134392
-11.027580 7.564882 -1.169979
-11.944724 8.197105 2.815959
-11.014010 7.561233 -0.700150
-11.970840 8.221180 3.352670
-11.842082 8.132753 -0.250756
-11.322709 7.778970 3.680925
-6.324829 4.358320 -2.058129
-11.862226 8.174036 0.251454
-7.391771 5.095433 -2.072699
-11.024459 7.602425 0.701825
-8.480906 5.850584 -2.002731
-11.034287 7.614886 1.172942
-10.990468 7.584645 -2.114994
-11.028489 7.613727 1.645480
-10.947124 7.560375 -1.633537
-11.027123 7.618472 2.122816
-10.960130 7.575010 -1.165621
-11.969156 8.272390 2.828171
-10.942879 7.565909 -0.697220
-11.980374 8.286329 3.363018
-11.843223 8.194518 -0.251384
-11.301837 7.822846 3.682995
-6.286534 4.362749 -2.050364
-11.866475 8.238199 0.252152
-7.340328 5.097861 -2.063251
-10.948647 7.606673 0.698685
-8.446947 5.868594 -1.999297
-10.966440 7.621870 1.168410
-10.913646 7.588006 -2.105295
-10.961103 7.623840 1.639387
-10.888075 7.575870 -1.628662
-10.945341 7.618546 2.112178
-10.869540 7.565784 -1.158648
-11.969208 8.334314 2.835040
-10.873790 7.574382 -0.694498
-11.973763 8.343693 3.369317
-11.837512 8.251819 -0.251873
-11.271293 7.860040 3.681960
-6.269685 4.383559 -2.049847
-11.857308 8.293327 0.252571
-7.298536 5.106694 -2.056503
-10.872942 7.610483 0.695545
-8.428020 5.899168 -1.999678
-10.890803 7.625822 1.163180
-10.822374 7.580723 -2.092780
-10.884030 7.626738 1.631831
-10.851812 7.606990 -1.627200
-10.866925 7.620414 2.102167
-10.789232 7.565931 -1.152896
-10.793335 7.574430 -0.691044
-12.005173 8.427987 3.386413
-11.834817 8.311481 -0.252432
-11.240627 7.897113 3.680925
-6.246448 4.399855 -2.047259
-15.663162 11.036868 0.334458
-7.240848 5.104069 -2.045255
-10.784283 7.604657 0.691567
-8.404166 5.926291 -1.998915
-10.825044 7.636228 1.158997
-10.755501 7.589979 -2.084959
-10.800579 7.624618 1.623300
-10.773305 7.608181 -1.619400
-10.787019 7.620684 2.091842
-10.718822 7.572505 -1.148190
-10.794851 7.629046 2.569434
-10.699965 7.564788 -0.686752
-13.022577 9.210264 3.682449
-27.989645 19.803104 -0.598478
-11.212993 7.936302 3.680925
-6.234201 4.423870 -2.048294
-15.649001 11.108834 0.334981
-7.189621 5.105619 -2.035807
-10.705568 7.605240 0.688218
-8.378626 5.952179 -1.997770
-10.752851 7.641649 1.154116
-10.690301 7.600006 -2.077450
-10.712426 7.618554 1.614038
-10.665806 7.588202 -1.607213
-10.713678 7.625077 2.082769
-10.648494 7.578685 -1.143483
-10.705783 7.622272 2.554551
-10.627943 7.569648 -0.683822
-13.007806 9.268104 3.687397
-27.988743 19.949438 -0.599944
-11.193087 7.981002 3.683513
-6.234438 4.456838 -2.053470
-15.647540 11.190148 0.335784
-7.140056 5.108009 -2.026809
-10.623735 7.603040 0.684659
-8.349816 5.975675 -1.995862
-10.687230 7.651302 1.149933
-10.620343 7.606224 -2.069002
-10.645425 7.626997 1.607944
-10.632801 7.620758 -1.606238
-10.622780 7.616387 2.070254
-10.563683 7.574014 -1.137208
-10.632846 7.626414 2.543484
-10.552774 7.571768 -0.680682
-13.010204 9.338453 3.697295
-27.990404 20.098331 -0.601480
-11.166727 8.021152 3.684030
-6.198463 4.463896 -2.046741
-15.650570 11.275091 0.336692
-7.090564 5.110113 -2.017811
-10.543667 7.601533 0.681205
-8.320944 5.999045 -1.993954
-10.605515 7.648936 1.144006
-10.539261 7.603952 -2.058365
-10.555962 7.618800 1.598438
-10.519223 7.595079 -1.593076
-10.549691 7.619879 2.061181
-10.475805 7.566513 -1.130584
-10.550466 7.623237 2.530127
-10.469624 7.567611 -0.677018
-13.009109 9.406648 3.706293
-27.981649 20.240444 -0.602806
-11.338990 8.205044 3.750288
-6.171898 4.477566 -2.043118
-15.649954 11.357845 0.337530
-7.049028 5.117659 -2.011062
-10.478284 7.610123 0.678693
-8.295187 6.024593 -1.992809
-10.522332 7.644924 1.137905
-10.466316 7.607013 -2.049292
-10.479531 7.619413 1.590883
-10.428432 7.585047 -1.583327
-10.473513 7.620627 2.051482
-10.400999 7.567865 -1.125355
-10.479346 7.627669 2.519442
-10.409238 7.579422 -0.674820
-13.018728 9.482979 3.718441
-27.981934 20.389820 -0.604342
-11.527276 8.402753 3.822240
-6.162470 4.503640 -2.045188
-15.644114 11.437184 0.338263
-6.998089 5.118076 -2.001615
-10.419415 7.623070 0.676599
-8.269352 6.050037 -1.991664
-10.453782 7.651010 1.133373
-10.383915 7.602658 -2.038341
-10.396816 7.614896 1.582352
-10.369869 7.597936 -1.578452
-10.407018 7.627946 2.043660
-10.324702 7.567612 -1.119951
-10.379826 7.610804 2.501888
-10.316689 7.567276 -0.670528
-13.016969 9.551421 3.727439
-27.978292 20.537067 -0.605808
-11.529017 8.465804 3.832592
-6.142044 4.521689 -2.043635
-15.644350 11.521369 0.339135
-6.937821 5.111263 -1.989467
-10.333256 7.615549 0.672726
-8.248184 6.078864 -1.991664
-10.388523 7.659079 1.129190
-10.311211 7.604856 -2.029268
-10.325447 7.618140 1.575527
-10.317729 7.615227 -1.574552
-10.321527 7.620816 2.032084
-10.267768 7.581123 -1.116639
-10.316875 7.620161 2.493110
-10.237202 7.564075 -0.667074
-12.997650 9.607229 3.731488
-27.983616 20.691668 -0.607483
-11.528906 8.527825 3.842428
-6.135532 4.550006 -2.046741
-15.658644 11.616413 0.340322
-6.893332 5.115708 -1.981819
-10.277744 7.630143 0.670842
-8.211151 6.095915 -1.987848
-10.300942 7.650154 1.122566
-10.246545 7.612530 -2.021759
-10.249400 7.617428 1.567971
-10.224176 7.601451 -1.564315
-10.247313 7.621430 2.022698
-10.182092 7.572922 -1.110190
-10.249260 7.625657 2.483188
-10.172284 7.571143 -0.664562
-13.009365 9.686288 3.744535
-27.978577 20.839394 -0.608949
-11.530048 8.591105 3.852780
-6.099493 4.556365 -2.040012
-15.658047 11.700929 0.341195
-6.844217 5.116403 -1.972821
-10.239588 7.654617 0.670005
-8.170955 6.110431 -1.983269
-10.218339 7.644290 1.116465
-10.174045 7.613927 -2.012686
-10.186199 7.625797 1.562365
-10.143557 7.596635 -1.556028
-10.171387 7.617477 2.012686
-10.109353 7.573775 -1.105135
-10.180162 7.629598 2.472885
-10.102647 7.574258 -0.661736
-13.011333 9.758533 3.754883
-27.992504 20.994450 -0.610764
-11.520041 8.643204 3.858992
-6.075833 4.571820 -2.037424
-15.647920 11.774429 0.341823
-6.803858 5.121492 -1.966072
-10.228760 7.702327 0.671052
-8.155850 6.143640 -1.984795
-10.153402 7.651138 1.112282
-10.088791 7.602449 -2.000797
-10.125981 7.633246 1.557003
-10.096122 7.613496 -1.552616
-10.099002 7.618438 2.003613
-10.028783 7.568212 -1.099208
-10.099957 7.621923 2.459528
-10.036032 7.576428 -0.659014
-13.006891 9.822767 3.762981
-27.992443 21.147484 -0.612370
-11.528331 8.712482 3.871933
-6.066799 4.596610 -2.039494
-15.651345 11.862802 0.342800
-6.747118 5.115776 -1.954825
-10.201813 7.737983 0.671052
-8.119790 6.158788 -1.980979
-10.083532 7.651045 1.107401
-10.024429 7.608956 -1.993288
-10.045523 7.627727 1.548716
-10.015736 7.607869 -1.544328
-10.037745 7.627351 1.996730
-9.967144 7.573703 -1.095199
-10.026402 7.621488 2.448080
-9.955467 7.570312 -0.655456
-13.031463 9.912944 3.780077
-28.004393 21.310453 -0.614255
-11.531665 8.778414 3.883321
-6.043037 4.611899 -2.036906
-15.657522 11.953772 0.343847
-6.695149 5.113274 -1.944927
-10.187436 7.783248 0.671889
-8.099802 6.188286 -1.981361
-10.007691 7.648692 1.101997
-9.947592 7.605506 -1.983276
-9.973109 7.627773 1.541647
-9.935515 7.601773 -1.536041
-9.956158 7.620318 1.985779
-9.901093 7.578172 -1.090841
-9.957647 7.624218 2.437776
-9.878242 7.566155 -0.652106
-13.004517 9.964294 3.782327
-27.996487 21.459179 -0.615721
-11.528547 8.839773 3.892639
-6.033028 4.637675 -2.038976
-10.188014 7.834500 0.224333
-6.657180 5.121166 -1.939078
-10.164952 7.822418 0.672203
-8.057924 6.200958 -1.976400
-9.949357 7.659268 1.098511
-9.881856 7.610051 -1.975455
-9.910253 7.634679 1.536041
-9.893197 7.624288 -1.533604
-9.888823 7.623667 1.977645
-9.833554 7.581059 -1.086309
-9.875006 7.615767 2.424038
-9.823308 7.578628 -0.650222
-27.997385 21.615433 -0.617396
-6.004583 4.649244 -2.034835
-10.128986 7.845526 0.223635
-6.605373 5.118114 -1.929180
-10.129694 7.851733 0.671680
-8.040885 6.232655 -1.977545
-9.862730 7.647559 1.091887
-9.814651 7.613021 -1.967320
-9.823947 7.622979 1.526779
-9.832026 7.631997 -1.528242
-9.815342 7.621796 1.968259
-9.753526 7.573794 -1.080383
-9.817355 7.626102 2.416405
-9.749482 7.576106 -0.647082
-13.026946 10.126603 3.809321
-10.079177 7.837950 -0.222867
-11.547370 8.982906 3.920074
-5.979177 4.663048 -2.031730
-10.035318 7.829173 0.222169
-6.564424 5.123156 -1.922432
-10.124265 7.904252 0.673145
-8.005153 6.249811 -1.974110
-9.799858 7.653733 1.087878
-9.736648 7.607101 -1.956995
-9.742536 7.614439 1.518248
-9.752153 7.624699 -1.519955
-9.748223 7.624368 1.960124
-9.679949 7.570969 -1.075153
-9.753566 7.631290 2.407246
-9.685229 7.580549 -0.644570
-13.020673 10.194838 3.817869
-10.020269 7.848424 -0.222169
-11.532668 9.036269 3.925768
-5.976537 4.694631 -2.036388
-9.971767 7.835736 0.221366
-6.515859 5.121953 -1.913434
-10.102892 7.944483 0.673564
-7.995634 6.287425 -1.977163
-9.730802 7.654635 1.083171
-9.665016 7.605616 -1.947922
-9.673782 7.615249 1.511667
-9.678692 7.621850 -1.512642
-9.681205 7.626567 1.951990
-9.614334 7.573888 -1.070795
-9.663647 7.615469 2.391600
-9.606950 7.573506 -0.641116
-13.007960 10.258328 3.824618
-9.942574 7.843720 -0.221052
-11.529868 9.099210 3.935602
-5.957084 4.713066 -2.035353
-9.909855 7.843196 0.220598
-6.496412 5.143457 -1.912984
-10.075101 7.979698 0.673564
-7.962867 6.306763 -1.974492
-9.657173 7.651437 1.077942
-9.595062 7.604952 -1.939162
-9.597366 7.609502 1.503868
-9.642695 7.648187 -1.511180
-9.617385 7.630847 1.944481
-9.544136 7.572729 -1.065915
-9.603172 7.622304 2.383204
-9.533529 7.569736 -0.637975
-13.004117 10.329125 3.834066
-9.874425 7.846036 -0.220145
-11.526771 9.162238 3.945438
-5.945128 4.737443 -2.036906
-9.843326 7.846579 0.219726
-6.469278 5.158811 -1.910284
-10.078410 8.039730 0.675657
-7.919315 6.317381 -1.969149
-9.585244 7.649061 1.072887
-9.531406 7.608819 -1.931653
-9.528863 7.609514 1.497287
-9.560105 7.637197 -1.502405
-9.541310 7.624907 1.934469
-9.480290 7.576143 -1.061731
-9.535106 7.622679 2.372901
-9.471172 7.574278 -0.635568
-13.001464 10.401237 3.843964
-9.789212 7.834225 -0.218853
-11.527897 9.228981 3.956826
-5.907461 4.741240 -2.029659
-9.780012 7.852094 0.218923
-6.449712 5.180141 -1.909835
-10.131112 8.136889 0.680996
-7.900276 6.347446 -1.969912
-9.519662 7.651267 1.068529
-9.469381 7.613575 -1.924457
-9.469759 7.616603 1.492168
-9.497602 7.638998 -1.496556
-9.474418 7.623071 1.926021
-9.410327 7.574213 -1.056851
-9.485500 7.637447 2.367177
-9.408901 7.578475 -0.633160
-13.015464 10.483410 3.858360
-9.722693 7.834023 -0.217946
-11.530319 9.293829 3.968214
-5.896214 4.764446 -2.031212
-9.715041 7.853055 0.218050
-6.432498 5.201501 -1.909835
-10.136687 8.196814 0.683194
-7.870024 6.366201 -1.967622
-9.450871 7.647701 1.063649
-9.391878 7.602676 -1.913819
-9.407424 7.617983 1.486319
-9.422852 7.630476 -1.488756
-9.410713 7.623362 1.918200
-9.335626 7.565235 -1.051273
-9.414369 7.631771 2.355728
-9.348040 7.580701 -0.630753
-13.023008 10.560882 3.870958
-9.664050 7.839764 -0.217213
-11.541436 9.366099 3.982708
-5.883380 4.786410 -2.032247
-15.657101 12.742338 0.352364
-6.406146 5.215422 -1.907135
-10.145180 8.262418 0.685706
-7.844306 6.388544 -1.966478
-9.399199 7.657606 1.060685
-9.322209 7.597589 -1.904746
-9.326722 7.603980 1.477544
-9.400775 7.667082 -1.489487
-9.347311 7.626195 1.910691
-9.291962 7.581037 -1.049181
-9.347942 7.629432 2.345424
-9.271792 7.569978 -0.627299
-13.010214 10.626000 3.878156
-9.587070 7.832965 -0.216096
-11.535598 9.428337 3.992025
-5.863648 4.804469 -2.031212
-15.657375 12.833676 0.353376
-6.386395 5.236516 -1.906685
-10.137896 8.315514 0.687171
-7.821957 6.415887 -1.966478
-9.326204 7.652454 1.055456
-9.258986 7.600004 -1.897237
-9.261769 7.604994 1.471451
-9.320267 7.655751 -1.480956
-9.277900 7.623663 1.901931
-9.210025 7.567890 -1.042906
-9.286370 7.633343 2.336647
-9.208289 7.571849 -0.624787
-13.018190 10.708492 3.891653
-9.522610 7.835887 -0.215258
-11.539906 9.499238 4.004966
-5.840881 4.819989 -2.029141
-15.668000 12.934083 0.354633
-6.366575 5.257535 -1.906235
-10.136524 8.373748 0.689055
-7.776810 6.424396 -1.960753
-9.253360 7.646886 1.050227
-9.201951 7.607106 -1.890980
-9.207630 7.614506 1.467063
-9.226186 7.632564 -1.470232
-9.199487 7.613184 1.891293
-9.165131 7.584753 -1.040814
-9.202205 7.618135 2.322146
-9.144883 7.573372 -0.622275
-13.013746 10.781220 3.901551
-9.452090 7.833350 -0.214281
-11.537909 9.565353 4.015836
-5.810649 4.829236 -2.024483
-15.670426 13.028323 0.355715
-6.334699 5.268513 -1.902186
-10.134869 8.432074 0.690939
-7.755846 6.452759 -1.961135
-9.180671 7.640902 1.044997
-9.140426 7.610111 -1.883784
-9.145912 7.617382 1.461457
-9.165936 7.636765 -1.464870
-9.139474 7.617424 1.884410
-9.085033 7.572050 -1.034713
-9.136351 7.617523 2.312224
-9.087714 7.579665 -0.620181
-13.008952 10.854043 3.911449
-9.384773 7.832982 -0.213373
-11.532621 9.629098 4.025671
-5.787832 4.844528 -2.022412
-15.650913 13.104772 0.356308
-6.305812 5.281834 -1.899037
-10.131400 8.489203 0.692719
-7.730265 6.477268 -1.960372
-9.098971 7.626828 1.038722
-9.059312 7.596278 -1.872521
-9.076684 7.613539 1.454633
-9.102725 7.638093 -1.459020
-9.082568 7.623880 1.878152
-9.015818 7.567851 -1.029832
-9.073621 7.619070 2.303065
-9.015324 7.572801 -0.617041
-13.005300 10.928222 3.921797
-9.323697 7.837385 -0.212605
-11.525557 9.691673 4.034989
-5.778272 4.870928 -2.025000
-9.291501 7.835263 0.212151
-6.263505 5.283708 -1.891838
-10.107811 8.529670 0.693137
-7.698606 6.496616 -1.958082
-9.026620 7.619987 1.033493
-8.999540 7.599814 -1.865638
-9.009107 7.610590 1.448052
-9.042650 7.641632 -1.453658
-9.019694 7.624931 1.870643
-8.958915 7.573550 -1.026346
-9.013989 7.622806 2.294669
-8.940041 7.562946 -0.613692
-13.016163 11.015095 3.936643
-9.255075 7.834998 -0.211663
-11.527037 9.761809 4.047412
-5.756814 4.887318 -2.023447
-15.671838 13.309502 0.358891
-6.228686 5.291660 -1.886889
-9.936437 8.444617 0.683403
-7.677377 6.524724 -1.958464
-8.951393 7.610151 1.027915
-8.945870 7.608146 -1.860006
-8.946198 7.611120 1.442202
-8.922195 7.593383 -1.438546
-8.956927 7.625635 1.863135
-8.905118 7.581526 -1.023208
-8.952949 7.624948 2.285892
-8.890780 7.574677 -0.612121
-13.023612 11.099648 3.950590
-9.204843 7.847796 -0.211139
-11.539927 9.842102 4.063977
-5.739720 4.907382 -2.023447
-15.669354 13.401818 0.359904
-6.220542 5.322238 -1.890039
-9.846204 8.427302 0.679216
-7.642621 6.541270 -1.955411
-8.888452 7.610252 1.023731
-8.883250 7.608490 -1.852497
-8.889427 7.616471 1.437327
-8.868505 7.601225 -1.434159
-8.886763 7.619568 1.854061
-8.846835 7.585333 -1.019548
-8.889024 7.624198 2.276351
-8.830940 7.577052 -0.609819
-13.014363 11.170428 3.959589
-9.134912 7.843405 -0.210162
-11.534813 9.907497 4.074329
-5.719627 4.924867 -2.022412
-15.670960 13.498195 0.361020
-6.194543 5.337561 -1.887789
-9.828832 8.472051 0.680053
-7.618256 6.566625 -1.955029
-8.813546 7.599597 1.018153
-8.814754 7.603325 -1.843737
-8.825215 7.615031 1.431234
-8.820881 7.613977 -1.430746
-8.819743 7.615686 1.845614
-8.760172 7.566913 -1.012750
-8.828185 7.625662 2.267574
-8.765144 7.573882 -0.607097
-13.026892 11.260392 3.975335
-9.077228 7.849082 -0.209464
-11.526457 9.970453 4.083647
-5.684025 4.930608 -2.016201
-15.659999 13.584268 0.361858
-6.178819 5.361705 -1.888689
-10.124984 8.789109 0.702663
-7.585241 6.586781 -1.952739
-8.746526 7.597879 1.013621
-8.751044 7.604483 -1.836228
-8.762618 7.614541 1.425384
-8.770276 7.623886 -1.426846
-8.763295 7.620500 1.839357
-8.709653 7.576522 -1.009961
-8.760187 7.623172 2.257271
-8.701173 7.574483 -0.604585
-8.792718 7.656871 2.691764
-9.025644 7.859709 -0.208905
-11.530912 10.044889 4.097623
-5.675510 4.958044 -2.019306
-15.664314 13.688941 0.363115
-6.145922 5.372771 -1.884640
-10.139310 8.866920 0.705907
-7.572549 6.622263 -1.955411
-8.695958 7.607375 1.010832
-8.694714 7.608968 -1.829971
-8.695817 7.612610 1.419047
-8.697474 7.616744 -1.419534
-8.698157 7.620027 1.831535
-8.656352 7.586070 -1.006997
-8.711378 7.634293 2.251546
-8.641639 7.575843 -0.602282
-8.721980 7.648973 2.678267
-8.978737 7.876911 -0.208486
-11.536128 10.124035 4.112635
-5.651498 4.973707 -2.017236
-15.658466 13.780528 0.364092
-6.128592 5.395480 -1.885090
-10.114291 8.907537 0.706326
-7.539387 6.642187 -1.953121
-8.641112 7.615483 1.007695
-8.637134 7.614656 -1.823713
-8.634942 7.612724 1.413441
-8.626169 7.607666 -1.412222
-8.647806 7.629432 1.826529
-8.586498 7.578008 -1.001942
-8.637712 7.625894 2.239716
-8.586867 7.583667 -0.600398
-8.651537 7.643470 2.665220
-26.718685 23.605455 -0.622318
-11.536904 10.196229 4.125576
-5.630931 4.985330 -2.015165
-15.660007 13.869428 0.365139
-6.110152 5.413415 -1.884640
-9.745467 8.637230 0.682461
-7.502017 6.648901 -1.948542
-8.582699 7.609368 1.003511
-8.573121 7.603549 -1.814953
-8.579801 7.612149 1.408322
-8.593319 7.626822 -1.410760
-8.579479 7.617217 1.817143
-8.534177 7.576996 -0.998456
-8.585691 7.625412 2.232084
-8.528494 7.577275 -0.597886
-8.592404 7.636741 2.653972
-26.728085 23.763687 -0.624273
-11.540905 10.264517 4.138517
-5.607726 4.999815 -2.013095
-14.244502 12.704775 0.333166
-6.091220 5.434710 -1.884640
-9.596051 8.564803 0.674087
-7.475831 6.672435 -1.947778
-8.515957 7.603453 0.998805
-8.518537 7.608425 -1.809008
-8.519130 7.611631 1.402716
-8.528161 7.622378 -1.404422
-8.520443 7.618151 1.810260
-8.469061 7.572210 -0.993924
-8.534144 7.633085 2.225596
-8.463293 7.572374 -0.595165
-8.527942 7.632897 2.642275
-26.725420 23.928873 -0.626157
-10.350907 9.271043 3.723371
-5.588802 5.018068 -2.012577
-14.238750 12.789160 0.334074
-6.069311 5.453335 -1.883740
-9.531930 8.567539 0.671680
-7.452494 6.698490 -1.947778
-8.450845 7.598495 0.994273
-8.456676 7.606412 -1.801500
-8.467422 7.618750 1.398573
-8.427732 7.585698 -1.392236
-8.467372 7.624056 1.804628
-8.411481 7.573732 -0.990264
-8.459310 7.619470 2.213003
-8.411586 7.579141 -0.593385
-8.470848 7.635220 2.632827
-26.730835 24.102364 -0.628252
-10.318483 9.307117 3.723371
-5.562654 5.029771 -2.009471
-14.208851 12.852199 0.334423
-6.043014 5.467950 -1.881491
-9.552312 8.646328 0.675239
-7.436346 6.731049 -1.949686
-8.397684 7.603877 0.991135
-8.402256 7.610689 -1.795555
-8.398117 7.609604 1.391504
-8.389434 7.604406 -1.390286
-8.404124 7.620395 1.796807
-8.364329 7.584311 -0.987823
-8.397762 7.617294 2.203844
-8.345140 7.572221 -0.590559
-8.422500 7.645096 2.626079
-26.682076 24.227779 -0.629089
-10.291651 9.348276 3.725441
-5.550777 5.054361 -2.011542
-14.223033 12.955586 0.335819
-6.018129 5.483759 -1.879691
-9.508789 8.667510 0.674297
-7.407001 6.751675 -1.948160
-8.341645 7.606297 0.987649
-8.340613 7.608019 -1.788046
-8.334844 7.605422 1.385411
-8.365769 7.636322 -1.390773
-8.349758 7.624374 1.790862
-8.295287 7.577290 -0.982942
-8.347929 7.625376 2.197738
-8.283271 7.568970 -0.588047
-8.361243 7.642892 2.615281
-26.644558 24.363956 -0.630206
-10.256104 9.381536 3.724406
-5.530791 5.073365 -2.011024
-14.213092 13.037594 0.336657
-6.001822 5.507370 -1.880591
-9.449047 8.673637 0.672203
-7.374975 6.772139 -1.946252
-8.294638 7.619297 0.985383
-8.280671 7.609136 -1.781163
-8.279009 7.607609 1.380536
-8.309835 7.638607 -1.385898
-8.292558 7.625394 1.784292
-8.236526 7.576527 -0.979108
-8.286696 7.625345 2.188961
-8.234902 7.580340 -0.586581
-8.291599 7.635208 2.602234
-26.556410 24.454113 -0.630137
-10.258820 9.449999 3.737347
-5.497438 5.078221 -2.005330
-14.222488 13.142528 0.338018
-5.975873 5.524039 -1.878791
-9.383467 8.677023 0.669796
-7.344083 6.791177 -1.944344
-8.221188 7.604909 0.979805
-8.239562 7.624576 -1.778034
-8.227764 7.616324 1.376636
-8.211869 7.604273 -1.374199
-8.225425 7.619493 1.775844
-8.179474 7.579579 -0.975621
-8.236988 7.632875 2.182855
-8.168842 7.572381 -0.583755
-8.237749 7.638926 2.593686
-25.311357 23.479628 -0.602632
-10.253849 9.515134 3.748218
-5.477375 5.097021 -2.004812
-14.213123 13.226151 0.338891
-5.953701 5.542209 -1.877891
-9.323888 8.682503 0.667702
-7.313396 6.812696 -1.942817
-8.158276 7.602392 0.975621
-8.173994 7.619704 -1.769900
-8.174992 7.620634 1.372249
-8.185275 7.632891 -1.374199
-8.171333 7.622557 1.769900
-8.128203 7.584977 -0.972658
-8.177382 7.633543 2.174459
-8.119140 7.581821 -0.582185
-8.175518 7.637141 2.582888
-25.238010 23.576029 -0.602841
-10.241745 9.570655 3.755982
-5.459549 5.116109 -2.004812
-14.208318 13.319184 0.339938
-5.919134 5.550662 -1.873392
-9.276042 8.698600 0.666446
-7.289571 6.838183 -1.942817
-8.112801 7.613099 0.973355
-8.119982 7.622503 -1.763955
-8.106487 7.612497 1.365424
-8.057287 7.566295 -1.357137
-8.120201 7.628042 1.764581
-8.065377 7.579195 -0.968300
-8.110635 7.624387 2.163774
-8.063525 7.582753 -0.580092
-8.128853 7.644186 2.576139
-10.251889 9.647386 3.772029
-5.425690 5.118278 -1.998601
-14.203340 13.403283 0.340880
-5.899277 5.568923 -1.872942
-9.203575 8.688183 0.663306
-7.264000 6.859623 -1.942054
-8.058544 7.612597 0.969869
-8.060204 7.616824 -1.756446
-8.052347 7.612063 1.360549
-8.011956 7.573881 -1.353725
-8.063284 7.625068 1.757698
-8.009808 7.577142 -0.964640
-8.053935 7.621554 2.155379
-8.009326 7.581990 -0.577998
-8.069493 7.638947 2.565342
-8.290034 7.853209 3.059759
-5.400283 5.128260 -1.995495
-14.213906 13.502646 0.342207
-5.880777 5.588454 -1.872942
-9.126869 8.676222 0.659956
-7.231253 6.874204 -1.939383
-8.010155 7.617311 0.967080
-7.996258 7.606750 -1.747999
-7.999738 7.612724 1.355918
-7.988344 7.604539 -1.354212
-7.996566 7.615023 1.748937
-7.954456 7.577573 -0.961154
-8.005874 7.626555 2.149273
-7.947992 7.574061 -0.575382
-8.006108 7.632106 2.553644
-25.355692 24.179672 -0.611567
-10.267057 9.794285 3.802052
-5.356324 5.123981 -1.986177
-14.215819 13.599175 0.343394
-5.855602 5.603559 -1.871143
-9.056129 8.669358 0.657026
-7.191830 6.887083 -1.935566
-7.937582 7.603890 0.961676
-7.939798 7.608675 -1.741742
-7.947317 7.615879 1.351531
-7.970351 7.640618 -1.355675
-7.944272 7.618279 1.743306
-7.899201 7.577709 -0.957667
-7.956618 7.635455 2.143548
-7.889921 7.574096 -0.573183
-7.958401 7.642504 2.547346
-25.204790 24.204323 -0.609962
-10.249526 9.846125 3.808264
-5.310579 5.115841 -1.975825
-14.214835 13.698371 0.344580
-5.843442 5.633098 -1.873842
-8.995618 8.671805 0.654828
-7.170573 6.914871 -1.936330
-7.883744 7.605271 0.958364
-7.870548 7.595190 -1.732355
-7.897929 7.624275 1.347875
-7.893741 7.622897 -1.347388
-7.886367 7.615777 1.736423
-7.844042 7.577550 -0.954181
-7.896037 7.630439 2.134390
-7.843330 7.582157 -0.571718
-7.899455 7.639080 2.536998
-24.519276 23.711092 -0.595371
-10.260916 9.926166 3.825346
-5.278822 5.120896 -1.970648
-14.212393 13.787201 0.345627
-5.807949 5.636160 -1.868443
-8.104016 7.867061 0.591920
-7.146391 6.939859 -1.936330
-7.835714 7.611918 0.955750
-7.815563 7.592343 -1.725785
-7.848401 7.626905 1.343732
-7.797250 7.579847 -1.335201
-7.844156 7.628110 1.732981
-7.797552 7.585433 -0.951741
-7.824251 7.611406 2.121796
-7.786653 7.577480 -0.569415
-7.840567 7.632610 2.526200
-24.493668 23.852333 -0.596768
-10.256644 9.991581 3.836734
-5.250754 5.127576 -1.966507
-14.212814 13.884239 0.346814
-5.778483 5.646865 -1.865294
-8.039372 7.859002 0.589198
-7.112107 6.952540 -1.933277
-7.787636 7.615575 0.952961
-7.765007 7.596095 -1.720466
-7.793354 7.626486 1.338857
-7.801951 7.637570 -1.340563
-7.789257 7.627801 1.726724
-7.734021 7.576355 -0.947209
-7.787816 7.629054 2.119125
-7.734478 7.579452 -0.567531
-7.777696 7.624461 2.514503
-24.204655 23.736078 -0.591741
-10.246529 10.051674 3.846051
-5.222286 5.137303 -1.962884
-14.224136 13.992665 0.348280
-5.765680 5.673836 -1.867544
-7.979156 7.854789 0.586791
-7.073987 6.966163 -1.929842
-7.731285 7.616100 0.949475
-7.714601 7.602322 -1.715461
-7.752544 7.639712 1.336419
-7.744144 7.634096 -1.335201
-7.728827 7.621657 1.719215
-7.677739 7.573924 -0.943548
-7.723470 7.621693 2.109203
-7.682484 7.583895 -0.565752
-7.727511 7.631011 2.507304
-24.147266 23.845716 -0.592370
-10.264981 10.140327 3.866239
-5.168638 5.120152 -1.949425
-14.223892 14.095375 0.349537
-5.736543 5.686698 -1.864844
-7.926155 7.857285 0.584907
-7.048233 6.989431 -1.929461
-7.663634 7.602348 0.944420
-7.654366 7.595809 -1.707952
-7.701952 7.645699 1.332520
-7.708995 7.652690 -1.333738
-7.674142 7.620751 1.712958
-7.628640 7.578211 -0.940759
-7.688462 7.640304 2.106913
-7.626218 7.581098 -0.563554
-7.677286 7.631864 2.499206
-23.941942 23.808592 -0.589368
-10.255544 10.201983 3.876074
-5.135215 5.120895 -1.943213
-14.215296 14.180597 0.350479
-5.720412 5.708443 -1.865744
-7.881677 7.865186 0.583546
-7.019458 7.007217 -1.927934
-7.615825 7.605195 0.941631
-7.585813 7.577872 -1.698253
-7.655492 7.650149 1.328863
-7.635834 7.630505 -1.325451
-7.625078 7.622416 1.707639
-7.582335 7.582334 -0.938144
-7.622831 7.625492 2.095846
-7.575624 7.580914 -0.561670
-7.627142 7.632467 2.491108
-23.837420 23.862391 -0.588739
-10.246228 10.260542 3.885392
-5.101844 5.121472 -1.937002
-14.223223 14.282920 0.351841
-5.690453 5.716332 -1.862145
-7.833042 7.871415 0.581976
-6.994798 7.029065 -1.927553
-7.568078 7.607809 0.938842
-7.534178 7.576371 -1.692308
-7.609088 7.654376 1.325207
-7.586764 7.634583 -1.321551
-7.574758 7.625163 1.702320
-7.537491 7.587647 -0.935704
-7.579519 7.632618 2.090885
-7.519488 7.574811 -0.559367
-7.579864 7.638297 2.484360
-10.247076 10.333282 3.899368
-5.064916 5.120021 -1.929755
-14.221085 14.380825 0.353027
-5.664983 5.730618 -1.860345
-7.769017 7.861774 0.579254
-6.968839 7.052042 -1.927171
-7.520475 7.612918 0.936227
-7.479923 7.574515 -1.686051
-7.554431 7.652637 1.320333
-7.507085 7.607326 -1.312289
-7.534222 7.637494 1.699191
-7.482975 7.585545 -0.932218
-7.521124 7.626879 2.082108
-7.471971 7.579677 -0.557797
-7.527165 7.638336 2.475811
-10.248898 10.407529 3.913862
-5.023998 5.114242 -1.920955
-14.225444 14.486024 0.354389
-5.647675 5.753139 -1.861245
-7.714949 7.861758 0.577266
-6.933181 7.065114 -1.924118
-7.477112 7.622056 0.934135
-7.421627 7.568140 -1.678855
-7.516558 7.667617 1.318383
-7.449916 7.602294 -1.306927
-7.477105 7.632703 1.692308
-7.428638 7.585872 -0.928906
-7.466985 7.625031 2.074476
-7.420317 7.580024 -0.555913
-7.480012 7.643673 2.469063
-10.255728 10.487440 3.930426
-4.991731 5.118791 -1.915779
-14.229236 14.591428 0.355750
-5.622119 5.767236 -1.859445
-7.684671 7.885779 0.577056
