# This PCD file was generated using the MATLAB® pcwrite function
# from Computer Vision Toolbox®.
# .PCD v.7 - Point Cloud Data file format
VERSION .7
FIELDS x y z
SIZE 4 4 4
TYPE F F F
COUNT 1 1 1
WIDTH 1667
HEIGHT 1
VIEWPOINT 0 0 0 1 0 0 0
POINTS 1667
DATA ascii
-4.903604 5.136710 -1.902838
-14.232037 14.913806 0.359834
-5.540551 5.807993 -1.853147
-8.538930 8.954233 0.648443
-6.821876 7.153667 -1.921447
-7.264159 7.620123 0.921062
-7.202175 7.557744 -1.653512
-7.297887 7.660857 1.299127
-7.254112 7.617566 -1.291571
-7.266318 7.633050 1.669156
-7.220423 7.587491 -0.916355
-7.265064 7.634401 2.048525
-7.216094 7.585591 -0.548690
-7.259737 7.634141 2.432171
-10.260292 10.796982 3.990990
-4.868798 5.137821 -1.896626
-14.232160 15.018551 0.361160
-5.520244 5.827297 -1.853147
-8.485649 8.960782 0.646768
-6.780764 7.162940 -1.917249
-7.211531 7.620648 0.917924
-7.158136 7.566869 -1.649758
-7.249274 7.663211 1.295227
-7.235661 7.651495 -1.293034
-7.202990 7.619610 1.660708
-7.167892 7.585134 -0.913044
-7.197937 7.619591 2.037459
-7.169044 7.591659 -0.547225
-7.207631 7.635190 2.424073
-10.255688 10.867857 4.003931
-4.823032 5.125240 -1.885756
-14.224974 15.121593 0.362382
-5.497513 5.846072 -1.852697
-8.424216 8.958339 0.644465
-6.755721 7.186564 -1.917249
-7.156233 7.615285 0.914264
-7.110040 7.568775 -1.644752
-7.199397 7.666575 1.291328
-7.195341 7.664939 -1.290840
-7.147956 7.614462 1.654138
-7.111377 7.578145 -0.909209
-7.168608 7.641808 2.036695
-7.122007 7.594784 -0.545655
-7.170273 7.648929 2.420473
-9.648512 10.292604 -0.246253
-10.270526 10.959979 4.024636
-4.786645 5.122284 -1.878509
-14.227997 15.225663 0.363743
-5.475436 5.861423 -1.851797
-10.156810 10.876606 0.779911
-6.726573 7.205799 -1.916104
-7.099701 7.608171 0.910429
-7.060642 7.566314 -1.639121
-7.149561 7.664279 1.286940
-7.136037 7.652462 -1.284747
-7.110559 7.627808 1.651635
-7.065867 7.582515 -0.906768
-7.105754 7.625318 2.026010
-7.068194 7.587671 -0.543457
-7.109011 7.634158 2.408326
-10.257212 11.022630 4.034472
-4.760434 5.128218 -1.874885
-14.223730 15.328004 0.365000
-5.441691 5.866212 -1.847298
-10.151374 10.947143 0.782423
-6.701307 7.226624 -1.915722
-7.058180 7.614141 0.908337
-7.004651 7.559037 -1.632237
-7.090385 7.654240 1.281091
-7.140303 7.710825 -1.290353
-7.058394 7.625037 1.645691
-7.020409 7.586661 -0.904328
-7.055089 7.624140 2.019141
-7.011827 7.580042 -0.541154
-7.066444 7.641756 2.402927
-7.086467 7.668781 2.797834
-4.732442 5.135686 -1.871262
-14.232475 15.445203 0.366605
-5.410618 5.873704 -1.843699
-10.141508 11.013368 0.784621
-6.670786 7.246804 -1.914578
-7.009990 7.617965 0.905722
-6.963523 7.570123 -1.629109
-7.038090 7.651185 1.276460
-7.028695 7.643644 -1.274997
-7.010345 7.626360 1.640685
-6.973662 7.589116 -0.901713
-6.999210 7.619583 2.011127
-6.970490 7.590980 -0.540107
-7.005442 7.631717 2.391680
-7.021778 7.652193 2.782823
-4.701445 5.137922 -1.866085
-14.229757 15.556284 0.368001
-5.385108 5.889182 -1.842349
-10.144786 11.094390 0.787866
-6.629554 7.252656 -1.909998
-6.961850 7.618856 0.902933
-6.917074 7.572505 -1.624416
-7.000630 7.666666 1.274753
-6.992600 7.660559 -1.273535
-6.958376 7.623067 1.634740
-6.922956 7.586921 -0.898576
-6.963308 7.633815 2.008456
-6.925109 7.594604 -0.538642
-6.959067 7.634520 2.384931
-6.966400 7.645240 2.771434
-4.673088 5.142864 -1.861944
-14.237264 15.668506 0.369537
-5.372100 5.914220 -1.844599
-10.157018 11.185925 0.791843
-6.602878 7.274300 -1.909616
-6.907099 7.612125 0.899273
-6.869359 7.570533 -1.619097
-6.956497 7.669255 1.271341
-6.940491 7.654293 -1.268660
-6.903865 7.616574 1.628170
-6.877703 7.590369 -0.896135
-6.927409 7.645226 2.005403
-6.887819 7.604204 -0.537700
-6.929788 7.653222 2.383581
-6.913745 7.640863 2.761082
-4.640475 5.141124 -1.855733
-14.230710 15.771557 0.370794
-5.340981 5.921360 -1.840999
-10.155358 11.262844 0.794774
-6.572145 7.288866 -1.907708
-6.863143 7.614269 0.896833
-6.816443 7.565114 -1.612839
-6.913742 7.675792 1.268416
-6.905758 7.669623 -1.267198
-6.861379 7.623007 1.624416
-6.821846 7.581746 -0.892300
-6.866537 7.631414 1.995481
-6.833184 7.597016 -0.535502
-6.873064 7.644034 2.373234
-6.872829 7.649144 2.755388
-4.607420 5.142271 -1.850039
-14.234284 15.886666 0.372330
-5.312478 5.931257 -1.838300
-10.147960 11.333934 0.797286
-6.540149 7.307054 -1.906182
-6.812603 7.614130 0.893869
-6.770232 7.569436 -1.608459
-6.848526 7.656971 1.261348
-6.917316 7.736597 -1.274266
-6.813665 7.623345 1.619410
-6.790027 7.599571 -0.891603
-6.813672 7.628710 1.988230
-6.778691 7.592212 -0.533408
-6.822940 7.644460 2.365585
-6.824224 7.648581 2.746588
-4.575316 5.142447 -1.844345
-6.975686 7.843103 0.183215
-5.285524 5.944864 -1.836500
-10.146816 11.412575 0.800322
-6.509386 7.323969 -1.904655
-6.770105 7.619990 0.891778
-6.728029 7.575297 -1.604705
-6.800648 7.659753 1.257692
-6.807220 7.669846 -1.259154
-6.766035 7.623443 1.614404
-6.734371 7.590437 -0.887768
-6.767460 7.630415 1.982506
-6.725646 7.585940 -0.531315
-6.765194 7.633226 2.354788
-6.776986 7.649220 2.738306
-4.549664 5.149698 -1.841239
-6.933750 7.848209 0.182797
-5.264492 5.960897 -1.836051
-6.929173 7.848552 0.548690
-6.473389 7.334869 -1.901603
-6.723692 7.621167 0.889163
-6.679348 7.570903 -1.599073
-6.751575 7.655464 1.253304
-6.738424 7.643241 -1.251111
-6.718483 7.623304 1.609398
-6.688076 7.591474 -0.885154
-6.714866 7.621881 1.974492
-6.688575 7.594711 -0.530373
-6.725679 7.639529 2.349839
-6.892247 7.831485 -0.182098
-6.727274 7.646721 2.728988
-4.507077 5.135717 -1.830886
-6.902356 7.867855 0.182692
-5.239796 5.974843 -1.834701
-6.903052 7.874191 0.548795
-6.436087 7.341532 -1.897786
-6.677372 7.619444 0.886374
-6.634656 7.573371 -1.594693
-6.711732 7.664051 1.250867
-6.672478 7.621906 -1.243799
-6.667115 7.618467 1.603454
-6.632677 7.581783 -0.881319
-6.668829 7.623109 1.968767
-6.644931 7.598467 -0.529012
-6.674603 7.635085 2.341291
-6.872762 7.864530 -0.182308
-6.675122 7.641060 2.718635
-4.469188 5.130353 -1.823121
-6.847265 7.860239 0.181959
-5.221468 5.996037 -1.835601
-10.161822 11.673367 0.811103
-6.401402 7.356188 -1.895497
-6.629785 7.621321 0.883759
-6.586116 7.573786 -1.589687
-6.668007 7.667958 1.247699
-6.645830 7.645153 -1.243799
-6.618454 7.616345 1.598135
-6.591800 7.588342 -0.879401
-6.622824 7.626748 1.963425
-6.601326 7.604672 -0.527756
-6.626140 7.635946 2.334092
-6.634484 7.648261 2.712941
-4.444933 5.138617 -1.820533
-6.796175 7.859566 0.181365
-5.177793 5.990069 -1.827952
-10.157584 11.751075 0.814034
-6.370550 7.372547 -1.893970
-6.591421 7.630846 0.882190
-6.536397 7.569819 -1.584056
-6.622994 7.672813 1.244530
-6.582783 7.626229 -1.236974
-6.578922 7.624445 1.595006
-6.540543 7.582643 -0.876089
-6.567955 7.617109 1.955029
-6.553876 7.603464 -0.526081
-6.585512 7.640166 2.328693
-6.586313 7.646490 2.704142
-4.419057 5.143071 -1.816910
-6.757046 7.866891 0.181016
-5.168056 6.019035 -1.831551
-10.147183 11.818032 0.816336
-6.339675 7.386182 -1.892062
-6.553106 7.637541 0.880447
-6.498401 7.576458 -1.580927
-6.571673 7.664592 1.239655
-6.576841 7.670619 -1.240630
-6.538178 7.628221 1.591252
-6.502401 7.589159 -0.874346
-6.533721 7.628408 1.952358
-6.502648 7.594811 -0.523988
-6.530991 7.627915 2.318346
-6.549618 7.655077 2.699483
-4.386929 5.140063 -1.810698
-6.706259 7.860353 0.180353
-5.141746 6.028725 -1.829302
-8.804108 10.322864 0.711036
-6.301137 7.390729 -1.887864
-6.512233 7.641035 0.878356
-6.455307 7.576913 -1.576547
-6.523050 7.659142 1.235268
-6.511465 7.645539 -1.233074
-6.489794 7.622788 1.585620
-6.465579 7.597024 -0.872778
-6.494392 7.633585 1.948160
-6.465779 7.602642 -0.523046
-6.499345 7.642109 2.316096
-6.504179 7.653203 2.691200
-4.361114 5.144269 -1.807075
-6.665936 7.865765 0.179969
-5.112907 6.035336 -1.826153
-8.774989 10.358101 0.711455
-6.263904 7.396604 -1.884048
-6.490722 7.667149 0.878878
-6.409726 7.574153 -1.571541
-6.487360 7.668605 1.233318
-6.455308 7.630716 -1.227224
-6.444073 7.620132 1.580614
-6.409478 7.581907 -0.868594
-6.433564 7.613092 1.937475
-6.426357 7.607256 -0.521894
-6.446302 7.630868 2.306198
-6.447611 7.637824 2.678260
-4.330481 5.149906 -1.802934
-6.607288 7.860314 0.179236
-5.093655 6.061778 -1.827952
-8.749506 10.416179 0.712920
-6.231635 7.418684 -1.883285
-6.461175 7.694667 0.879053
-6.357681 7.574100 -1.566222
-6.438659 7.673297 1.229905
-6.397771 7.627273 -1.222350
-6.395599 7.627378 1.576547
-6.363630 7.589252 -0.866502
-6.397904 7.632840 1.935948
-6.377807 7.611562 -0.520429
-6.401771 7.642863 2.301699
-6.396960 7.642545 2.670495
-4.301335 5.151644 -1.798275
-6.563150 7.863374 0.178782
-5.064971 6.070545 -1.825253
-8.728448 10.465060 0.714177
-6.205703 7.440390 -1.883285
-6.452136 7.738599 0.881493
-6.308438 7.568935 -1.560591
-6.383881 7.662171 1.224543
-6.381273 7.661760 -1.224300
-6.351239 7.628406 1.572167
-6.324351 7.596110 -0.864759
-6.351129 7.630981 1.929842
-6.324375 7.601534 -0.518231
-6.350129 7.635199 2.292701
-6.354194 7.645512 2.663766
-4.270998 5.151753 -1.793098
-6.522904 7.870837 0.178433
-5.038779 6.082184 -1.823453
-8.705165 10.507788 0.715119
-6.173433 7.454445 -1.881377
-6.431438 7.768747 0.882365
-6.273161 7.580258 -1.558400
-6.344445 7.669112 1.222106
-6.357097 7.684406 -1.224543
-6.309543 7.629633 1.568099
-6.282561 7.599714 -0.862668
-6.295691 7.618296 1.921065
-6.274904 7.595850 -0.516347
-6.306156 7.633680 2.285953
-6.317737 7.653131 2.659107
-4.245293 5.155450 -1.789475
-6.485327 7.878531 0.178119
-5.016107 6.095850 -1.822553
-8.704539 10.578236 0.717945
-6.143689 7.468812 -1.879850
-6.413231 7.799267 0.883411
-6.230429 7.579652 -1.554020
-6.296291 7.662503 1.217719
-6.326538 7.699313 -1.223568
-6.262891 7.624568 1.562780
-6.235832 7.594327 -0.859704
-6.261671 7.628510 1.918394
-6.239547 7.604263 -0.515509
-6.261030 7.630445 2.278754
-6.280073 7.659103 2.653931
-4.211051 5.148563 -1.782228
-6.443977 7.881415 0.177700
-4.995863 6.112452 -1.822553
-8.702942 10.651866 0.720876
-6.113920 7.483062 -1.878324
-6.384814 7.817403 0.883062
-6.195267 7.588030 -1.551517
-6.248255 7.655657 1.213331
-6.225585 7.630599 -1.209188
-6.216263 7.621888 1.557775
-6.184107 7.585163 -0.856218
-6.228898 7.640102 1.916104
-6.204203 7.612525 -0.514672
-6.218354 7.632615 2.272905
-6.222809 7.643523 2.640990
-4.192153 5.163962 -1.782228
-12.945028 15.945895 0.358507
-4.976951 6.132880 -1.823453
-8.699677 10.724060 0.723702
-6.080271 7.497795 -1.876416
-6.364899 7.851588 0.884282
-6.137564 7.573854 -1.544008
-6.201495 7.652746 1.209432
-6.245142 7.709357 -1.218206
-6.175943 7.626656 1.554333
-6.143801 7.589671 -0.854301
-6.173681 7.629306 1.907708
-6.158673 7.613475 -0.513206
-6.175635 7.637170 2.267507
-19.799709 24.485538 -0.549646
-6.179086 7.644166 2.633743
-4.169252 5.172549 -1.780157
-12.936678 16.055521 0.359904
-4.942216 6.135903 -1.818954
-8.711054 10.815023 0.727784
-6.051598 7.515917 -1.875653
-6.343701 7.881516 0.885154
-6.096231 7.576762 -1.540254
-6.142303 7.636752 1.203338
-6.191969 7.701253 -1.213331
-6.134432 7.629693 1.550579
-6.103542 7.593987 -0.852383
-6.128570 7.627851 1.901984
-6.110799 7.608453 -0.511427
-6.140400 7.648042 2.264357
-19.669052 24.498362 -0.548389
-6.135438 7.644594 2.626496
-4.148756 5.184056 -1.779122
-12.944587 16.174839 0.361614
-4.918187 6.147694 -1.817604
-8.698200 10.876559 0.729877
-6.019194 7.529330 -1.873744
-6.328587 7.919178 0.886897
-6.051338 7.572247 -1.535248
-6.099600 7.635364 1.199926
-6.105696 7.645738 -1.201388
-6.091739 7.630991 1.546511
-6.067057 7.602786 -0.850989
-6.075078 7.612837 1.893207
-6.066851 7.605258 -0.509857
-6.090702 7.637891 2.255359
-19.541033 24.513714 -0.547203
-6.096675 7.650858 2.621319
-4.143564 5.212907 -1.784299
-12.951493 16.299768 0.363394
-4.893063 6.160246 -1.816255
-8.701832 10.955392 0.733227
-5.985648 7.538484 -1.871073
-6.307248 7.946362 0.887594
-6.015048 7.580943 -1.532745
-6.047004 7.623950 1.194807
-6.097471 7.690335 -1.205044
-6.046765 7.626383 1.541505
-6.025721 7.602566 -0.848723
-6.038711 7.621688 1.890154
-6.025388 7.607599 -0.508601
-6.050699 7.642298 2.250410
-19.390127 24.490578 -0.545248
-6.049692 7.643765 2.612002
-4.103798 5.200043 -1.774981
-12.951875 16.411701 0.364930
-4.870196 6.173378 -1.815355
-8.705590 11.039020 0.736786
-5.953218 7.551625 -1.869165
-6.281940 7.971459 0.887943
-5.970315 7.576024 -1.527739
-6.009406 7.628366 1.192370
-6.044915 7.676204 -1.199682
-6.003003 7.625712 1.537125
-5.975738 7.593804 -0.845411
-6.010977 7.638585 1.889391
-5.985306 7.608702 -0.507345
-6.007257 7.639341 2.243662
-19.252611 24.492088 -0.543782
-6.001486 7.637496 2.602684
-4.084151 5.210580 -1.773946
-12.948777 16.526068 0.366466
-4.853422 6.196478 -1.817155
-8.708864 11.122809 0.740345
-5.929355 7.572869 -1.869547
-6.250556 7.985973 0.887245
-5.926790 7.575038 -1.523359
-5.969286 7.632097 1.189689
-5.970400 7.636267 -1.190176
-5.956883 7.621720 1.532119
-5.923432 7.581647 -0.841750
-5.956475 7.623939 1.880614
-5.943960 7.610659 -0.506089
-5.963762 7.638761 2.237363
-19.130096 24.511845 -0.542735
-5.959343 7.638597 2.595955
-4.072142 5.234663 -1.777052
-12.947495 16.643766 0.368071
-4.822194 6.201074 -1.813555
-8.709212 11.203600 0.743694
-5.888309 7.577497 -1.865349
-6.227357 8.016694 0.888117
-5.882026 7.574865 -1.518979
-5.914608 7.616825 1.184083
-5.958316 7.675878 -1.193101
-5.916923 7.625299 1.528678
-5.890827 7.594405 -0.840879
-5.914057 7.627100 1.876034
-5.896446 7.607138 -0.504414
-5.920209 7.640542 2.231514
-18.997879 24.518402 -0.541409
-5.921998 7.645604 2.591296
-4.053843 5.248847 -1.777052
-12.949948 16.773422 0.369886
-4.787525 6.203280 -1.809057
-8.699808 11.276563 0.746415
-5.849830 7.582462 -1.861533
-7.409998 9.608196 1.061557
-5.847104 7.584402 -1.516789
-5.867261 7.613295 1.180183
-5.950736 7.724399 -1.197245
-5.875675 7.629719 1.525236
-5.848477 7.594403 -0.838613
-5.876616 7.633698 1.872599
-5.852805 7.605513 -0.502949
-5.872113 7.633359 2.223416
-18.854244 24.518124 -0.539873
-5.882160 7.651944 2.586120
-4.033147 5.259899 -1.776016
-12.947282 16.891527 0.371492
-4.770585 6.226140 -1.810856
-8.706545 11.367112 0.750393
-5.799452 7.571663 -1.853900
-7.399430 9.664060 1.064869
-5.804987 7.584372 -1.512721
-5.831002 7.621117 1.178233
-5.851379 7.650516 -1.182620
-5.833410 7.629781 1.521169
-5.809832 7.598942 -0.836869
-5.833246 7.632326 1.867257
-5.816523 7.613199 -0.502111
-5.831240 7.635224 2.218017
-18.712732 24.510670 -0.538267
-5.850727 7.666286 2.584049
-4.012420 5.270872 -1.774981
-12.952416 17.020964 0.373342
-4.744104 6.236550 -1.809057
-8.706289 11.445197 0.753638
-5.764666 7.580923 -1.851229
-7.406642 9.743760 1.070795
-5.761748 7.582569 -1.508341
-5.795957 7.630360 1.176527
-5.799427 7.637695 -1.177502
-5.788961 7.623913 1.516163
-5.768818 7.600130 -0.834778
-5.792326 7.633874 1.862677
-5.774220 7.612771 -0.500750
-5.792777 7.640006 2.213518
-18.585432 24.512043 -0.536941
-5.807767 7.662553 2.576285
-3.992834 5.283304 -1.774463
-12.942928 17.126040 0.374703
-4.721046 6.249139 -1.808156
-8.710817 11.534492 0.757511
-5.723976 7.582194 -1.846650
-7.395391 9.799770 1.074107
-5.712771 7.570099 -1.502084
-5.757473 7.632105 1.173846
-5.745384 7.618845 -1.171652
-5.752803 7.631454 1.513660
-5.729062 7.602719 -0.832860
-5.739806 7.616977 1.853900
-5.738129 7.617517 -0.499808
-5.750999 7.637377 2.207220
-18.439631 24.496883 -0.535196
-5.763564 7.659624 2.568520
-3.976450 5.298061 -1.774981
-12.955077 17.267082 0.376797
-4.680497 6.240636 -1.800958
-8.713629 11.622358 0.761279
-5.694087 7.594852 -1.845123
-7.404675 9.880040 1.080208
-5.674469 7.574185 -1.498955
-5.702236 7.614024 1.167996
-5.683066 7.591180 -1.164340
-5.709560 7.629345 1.509280
-5.686971 7.601933 -0.830594
-5.715533 7.640112 1.854663
-5.685190 7.602311 -0.497506
-5.710301 7.638677 2.201821
-18.308516 24.500235 -0.533869
-5.729855 7.670408 2.565414
-3.952390 5.306403 -1.772911
-12.953251 17.390785 0.378508
-4.663338 6.263189 -1.802758
-8.701630 11.691155 0.763791
-5.652152 7.596769 -1.840544
-7.401704 9.951879 1.085089
-5.637239 7.582251 -1.496452
-5.661412 7.614764 1.165071
-5.701527 7.671516 -1.173602
-5.666400 7.627031 1.504900
-5.648523 7.605741 -0.828851
-5.655896 7.618447 1.844360
-5.643004 7.603853 -0.496250
-5.662530 7.632948 2.194173
-18.203821 24.538294 -0.533311
-5.674275 7.651570 2.552474
-3.929250 5.313952 -1.770840
-12.951237 17.521763 0.380323
-4.642669 6.283373 -1.803658
-8.705872 11.782498 0.767769
-5.615104 7.602239 -1.837109
-7.404792 10.028945 1.090667
-5.594316 7.579630 -1.492072
-5.621677 7.619491 1.162634
-5.679264 7.700347 -1.174821
-5.618639 7.618147 1.499268
-5.603024 7.599753 -0.826062
-5.625773 7.633404 1.843215
-5.609321 7.613854 -0.495622
-5.619675 7.630698 2.187874
-18.108576 24.588802 -0.533031
-5.636076 7.655774 2.547297
-3.894671 5.305834 -1.763593
-12.960503 17.656504 0.382312
-4.617193 6.292450 -1.801858
-8.711938 11.877236 0.771955
-5.574599 7.602795 -1.832530
-7.400361 10.096514 1.095199
-5.564478 7.591769 -1.490821
-5.591687 7.631684 1.161659
-5.639620 7.699923 -1.171896
-5.579174 7.620183 1.495826
-5.552926 7.587110 -0.822576
-5.588834 7.636173 1.839399
-5.572246 7.616297 -0.494575
-5.585134 7.636709 2.184275
-18.095802 24.751955 -0.535196
-5.589942 7.648885 2.538497
-3.877056 5.318719 -1.763593
-12.958856 17.784058 0.384093
-4.595202 6.308528 -1.801858
-8.710400 11.962469 0.775514
-5.529713 7.594258 -1.826042
-7.405534 10.174155 1.100951
-5.515863 7.580796 -1.484876
-5.548669 7.628680 1.158246
-5.592865 7.692266 -1.167752
-5.540928 7.623631 1.492698
-5.517194 7.590976 -0.821007
-5.547142 7.634989 1.834438
-5.533891 7.619540 -0.493528
-5.549285 7.643541 2.180676
-19.087513 26.300667 -0.567238
-5.542791 7.640203 2.529180
-3.857333 5.330657 -1.763075
-12.954122 17.908579 0.385803
-4.561736 6.308737 -1.797359
-8.713046 12.054313 0.779492
-5.493968 7.600786 -1.822989
-7.400310 10.241934 1.105483
-5.481273 7.588793 -1.482686
-5.503410 7.622252 1.154346
-5.512537 7.637701 -1.156540
-5.503882 7.628507 1.489882
-5.481339 7.597261 -0.819613
-5.498638 7.624050 1.827187
-5.489738 7.614511 -0.491958
-5.510036 7.645477 2.175727
-19.035337 26.422297 -0.568425
-5.508183 7.648533 2.525556
-3.837576 5.342518 -1.762558
-12.961514 18.051144 0.387897
-4.539684 6.324624 -1.797359
-8.701193 12.126843 0.782213
-5.454815 7.602370 -1.818792
-6.045359 8.428517 0.907466
-5.438633 7.585406 -1.478306
-5.462895 7.622055 1.151422
-5.495093 7.669805 -1.158490
-5.471467 7.639645 1.488318
-5.447824 7.606632 -0.818567
-5.463993 7.632022 1.824516
-5.446853 7.610888 -0.490493
-5.460639 7.632965 2.166729
-5.463633 7.639966 -0.163948
-5.470218 7.651997 2.520380
-3.818905 5.355881 -1.762558
-12.963426 18.187466 0.389852
-4.517578 6.340433 -1.797359
-5.609167 7.875380 0.506717
-5.408884 7.594178 -1.812304
-6.026304 8.464173 0.909034
-5.399520 7.586643 -1.474864
-5.424750 7.624900 1.148984
-5.434921 7.642027 -1.151422
-5.425307 7.631329 1.482999
-5.406228 7.604493 -0.816301
-5.420258 7.627046 1.818792
-5.408684 7.613573 -0.489446
-5.418163 7.629735 2.160430
-5.406833 7.616596 -0.163040
-5.433410 7.656866 2.515721
-3.792553 5.360380 -1.759452
-12.962490 18.327919 0.391841
-4.492061 6.353765 -1.796459
-5.570111 7.878605 0.505670
-5.369680 7.597920 -1.808488
-5.980293 8.465052 0.906768
-5.355726 7.583791 -1.470484
-5.384171 7.626894 1.146303
-5.397720 7.648919 -1.149472
-5.389526 7.637307 1.480496
-5.363391 7.603090 -0.814035
-5.387743 7.640441 1.817265
-5.369237 7.617020 -0.488399
-5.385674 7.643170 2.158630
-5.368696 7.619076 -0.162691
-5.386627 7.647356 2.506404
-3.772709 5.372005 -1.758934
-12.959109 18.452625 0.393587
-4.473207 6.371815 -1.797359
-5.531104 7.881650 0.504623
-5.337490 7.608581 -1.806580
-5.938127 8.467931 0.904851
-5.313537 7.577248 -1.465791
-5.346314 7.626829 1.143622
-5.367767 7.660275 -1.148497
-5.353769 7.643129 1.477993
-5.320818 7.598918 -0.811594
-5.343232 7.630928 1.810778
-5.330203 7.615149 -0.487143
-5.351363 7.648214 2.155031
-5.332898 7.624662 -0.162412
-5.348828 7.650281 2.501227
-3.754873 5.384487 -1.758934
-12.955221 18.584696 0.395437
-4.439795 6.371403 -1.792860
-5.492141 7.884523 0.503577
-5.303251 7.613352 -1.803527
-5.905457 8.481035 0.904154
-5.275768 7.579538 -1.462662
-5.303789 7.622631 1.140210
-5.331928 7.665927 -1.146547
-5.322544 7.655285 1.476742
-5.284218 7.600162 -0.809851
-5.310962 7.641471 1.808869
-5.280798 7.600903 -0.485050
-5.309069 7.644439 2.148732
-5.290286 7.620233 -0.161923
-5.313281 7.656208 2.497086
-3.734956 5.395971 -1.758417
-12.963094 18.735046 0.397671
-4.414200 6.382055 -1.791510
-5.448685 7.880645 0.502111
-5.271062 7.623742 -1.801619
-5.858826 8.477012 0.901539
-5.241416 7.586533 -1.460472
-5.265868 7.624762 1.137772
-5.319799 7.705728 -1.149715
-5.278958 7.649432 1.472049
-5.244075 7.598885 -0.807759
-5.270879 7.640570 1.804290
-5.245165 7.606135 -0.484212
-5.262442 7.634046 2.140634
-5.255713 7.627126 -0.161679
-5.272279 7.654025 2.490357
-3.716096 5.408977 -1.758417
-12.962150 18.874138 0.399660
-4.391897 6.397424 -1.791510
-5.409839 7.883150 0.501064
-5.226642 7.616197 -1.795513
-5.840472 8.513839 0.903282
-5.205967 7.591749 -1.457969
-5.227995 7.626726 1.135335
-5.226664 7.627637 -1.135335
-5.244412 7.656403 1.469859
-5.209638 7.605636 -0.806539
-5.234192 7.644344 1.800855
-5.209556 7.611213 -0.483375
-5.228060 7.641109 2.137485
-5.213251 7.622318 -0.161190
-5.235714 7.658030 2.485698
-3.686311 5.405954 -1.753240
-12.969391 19.026672 0.401929
-4.364054 6.404662 -1.789261
-5.373296 7.888780 0.500227
-5.183447 7.610054 -1.789788
-5.891452 8.652753 0.915833
-5.168322 7.593543 -1.454841
-5.190176 7.628514 1.132897
-5.243546 7.709850 -1.144841
-5.206549 7.658325 1.466730
-5.161776 7.592468 -0.803227
-5.193132 7.641459 1.795894
-5.169490 7.609527 -0.482119
-5.190410 7.643190 2.132986
-5.172009 7.618962 -0.160737
-5.189427 7.647484 2.476381
-3.660922 5.409189 -1.750134
-12.961159 19.157959 0.403744
-4.342761 6.421472 -1.789711
-5.335915 7.890010 0.499180
-5.153555 7.623222 -1.788644
-5.887983 8.712886 0.920016
-5.125196 7.586986 -1.450148
-5.150184 7.626845 1.129973
-5.214379 7.724817 -1.144353
-5.175596 7.667363 1.465165
-5.127439 7.598880 -0.802007
-5.147762 7.631871 1.789407
-5.133962 7.614278 -0.481281
-5.148448 7.638639 2.126687
-5.132187 7.614513 -0.160283
-5.150003 7.643825 2.469651
-3.646326 5.428351 -1.752205
-12.966694 19.303749 0.405908
-4.316012 6.427748 -1.787461
-5.296099 7.890347 0.498029
-5.111598 7.618341 -1.783301
-5.800936 8.648995 0.911126
-5.086806 7.584252 -1.446393
-5.107178 7.617500 1.126073
-5.179894 7.728874 -1.142403
-5.141106 7.673894 1.462975
-5.093123 7.605143 -0.800787
-5.100578 7.616274 1.781775
-5.093130 7.608024 -0.479816
-5.115505 7.644332 2.123538
-5.093349 7.614098 -0.159899
-5.116849 7.652119 2.466546
-3.632593 5.446840 -1.754276
-12.990184 19.485332 0.408770
-4.290308 6.437909 -1.786111
-5.250805 7.882191 0.496354
-5.081951 7.628716 -1.781775
-5.732466 8.608486 0.904851
-5.046072 7.580585 -1.442326
-5.071757 7.622061 1.124123
-5.122098 7.700630 -1.135579
-5.105539 7.678632 1.460472
-5.054412 7.604624 -0.798869
-5.062005 7.616047 1.777577
-5.049961 7.600804 -0.478246
-5.078010 7.645907 2.119039
-5.055676 7.615172 -0.159550
-5.075150 7.647399 2.459299
-3.608340 5.453674 -1.752205
-11.540616 17.442583 0.365069
-4.267807 6.452847 -1.786111
-5.211145 7.882145 0.495203
-5.027978 7.607981 -1.772616
-5.689895 8.612813 0.903108
-5.011721 7.589139 -1.440449
-5.030901 7.618183 1.120954
-5.084252 7.701894 -1.133141
-5.059119 7.666730 1.454841
-5.022352 7.613903 -0.797998
-5.026494 7.623075 1.774905
-5.015475 7.609255 -0.477618
-5.034940 7.641687 2.112740
-5.007062 7.599376 -0.158852
-5.039925 7.652160 2.455158
-3.582920 5.456547 -1.749099
-11.520495 17.551636 0.366466
-4.240922 6.463556 -1.784762
-5.182505 7.898614 0.495098
-4.994932 7.615634 -1.770326
-5.640130 8.602632 0.899970
-4.975456 7.591716 -1.437633
-4.997508 7.628267 1.119736
-5.053813 7.717158 -1.132654
-5.025831 7.674430 1.452963
-4.978286 7.604716 -0.795209
-4.988030 7.622504 1.770708
-4.976855 7.608332 -0.476467
-4.994371 7.638011 2.106892
-4.972845 7.605091 -0.158607
-4.999441 7.648685 2.448428
-3.563850 5.469021 -1.749099
-11.505902 17.656755 0.367862
-4.220527 6.479218 -1.785212
-8.730636 13.408110 0.838527
-4.961891 7.623153 -1.768036
-5.807828 8.926208 0.931695
-4.933014 7.581683 -1.432627
-4.963523 7.631486 1.117786
-5.006555 7.700588 -1.127779
-4.992555 7.681987 1.451086
-4.939768 7.603670 -0.793292
-4.945610 7.612662 1.764602
-4.946160 7.616418 -0.475943
-4.959464 7.639822 2.102843
-4.938647 7.610662 -0.158363
-4.962200 7.649883 2.443252
-3.541498 5.474320 -1.747029
-11.510442 17.799236 0.369991
-4.190480 6.482454 -1.782062
-8.722805 13.498891 0.842295
-4.934454 7.636266 -1.767273
-5.906843 9.144576 0.952438
-4.895806 7.582260 -1.429498
-4.922861 7.627082 1.114617
-4.957046 7.682988 -1.122661
-4.952863 7.679447 1.447332
-4.906969 7.608287 -0.792071
-4.920073 7.631528 1.764983
-4.905481 7.611811 -0.474583
-4.924325 7.643981 2.099243
-4.905552 7.617769 -0.158154
-4.925012 7.650911 2.438075
-3.518194 5.480146 -1.744958
-11.507638 17.931875 0.371911
-4.165721 6.493763 -1.781162
-8.716597 13.593147 0.846272
-4.899289 7.640224 -1.764220
-5.562001 8.677027 0.901713
-4.863978 7.590989 -1.427934
-4.878005 7.615804 1.110474
-4.900223 7.653434 -1.115836
-4.917505 7.683379 1.444829
-4.872861 7.613624 -0.790851
-4.879647 7.627158 1.760022
-4.864890 7.607016 -0.473222
-4.885014 7.641421 2.093844
-4.870318 7.621364 -0.157874
-4.887874 7.651778 2.432899
-3.503194 5.498911 -1.747029
-11.507277 18.069759 0.373935
-4.145123 6.511551 -1.782062
-8.718422 13.701001 0.851087
-4.859943 7.637401 -1.759641
-5.530611 8.694707 0.901539
-4.826854 7.591251 -1.424805
-4.845003 7.622732 1.109011
-4.879867 7.680544 -1.117298
-4.873713 7.673816 1.439823
-4.834506 7.612085 -0.788934
-4.838264 7.620940 1.754680
-4.830817 7.612145 -0.472489
-4.840563 7.630454 2.086196
-4.826553 7.611298 -0.157316
-4.849758 7.650844 2.427205
-3.475718 5.498044 -1.742887
-11.514640 18.221386 0.376239
-4.121325 6.524335 -1.781612
-8.718526 13.807349 0.855798
-4.821722 7.636061 -1.755443
-5.483213 8.687000 0.898750
-4.794000 7.598031 -1.422928
-4.808833 7.624488 1.106817
-4.839266 7.675701 -1.114130
-4.838469 7.677415 1.437320
-4.789845 7.600262 -0.785971
-4.808491 7.632800 1.753535
-4.797831 7.618820 -0.471861
-4.810785 7.642355 2.084846
-4.789303 7.611176 -0.156967
-4.807592 7.643198 2.419441
-3.452400 5.503596 -1.740817
-11.505140 18.347878 0.378019
-4.095422 6.533727 -1.780263
-8.713757 13.907086 0.860089
-4.790869 7.646190 -1.753916
-5.438049 8.682449 0.896310
-4.751726 7.589603 -1.418235
-4.774818 7.629448 1.105111
-4.845078 7.744718 -1.121686
-4.800120 7.675833 1.433878
-4.760118 7.611866 -0.785448
-4.767251 7.626231 1.748192
-4.756389 7.611811 -0.470396
-4.773757 7.642572 2.080347
-4.755294 7.615972 -0.156723
-4.770655 7.643544 2.414264
-3.437252 5.522173 -1.742887
-11.505461 18.491497 0.380148
-4.066416 6.538053 -1.777563
-7.505167 12.071631 0.744950
-4.750676 7.641191 -1.748955
-5.398241 8.686151 0.894741
-4.719995 7.597754 -1.416671
-4.734545 7.624145 1.101943
-4.786604 7.710987 -1.114373
-4.760801 7.672398 1.430124
-4.726167 7.616583 -0.784227
-4.724045 7.616130 1.742086
-4.717158 7.607998 -0.469140
-4.737812 7.644281 2.076298
-4.716040 7.612127 -0.156304
-4.738858 7.651940 2.411676
-3.415924 5.530852 -1.741852
-11.505977 18.637037 0.382312
-4.040498 6.547234 -1.776214
-7.467190 12.099854 0.745159
-4.713665 7.641019 -1.745139
-5.359523 8.691373 0.893346
-4.681004 7.594005 -1.412916
-4.702694 7.632175 1.100724
-4.756845 7.720057 -1.113398
-4.727042 7.674689 1.427621
-4.691193 7.619463 -0.782833
-4.688168 7.617527 1.738652
-4.673829 7.597198 -0.467465
-4.698139 7.636714 2.070000
-4.687631 7.622614 -0.156199
-4.702330 7.649508 2.405982
-3.393526 5.535560 -1.739782
-11.518298 18.796146 0.384791
-4.016729 6.557272 -1.775314
-7.445805 12.155205 0.747044
-4.680100 7.643213 -1.742086
-5.325473 8.700600 0.892475
-4.646518 7.594320 -1.410100
-4.662860 7.624019 1.097312
-4.706361 7.695145 -1.107549
-4.686112 7.665041 1.422928
-4.656551 7.619677 -0.781264
-4.656739 7.622982 1.736362
-4.648608 7.612657 -0.467465
-4.672787 7.652254 2.070000
-4.649827 7.617633 -0.155780
-4.672911 7.658464 2.403911
-3.374145 5.545134 -1.739264
-11.514103 18.929913 0.386745
-3.996986 6.573887 -1.776214
-7.431335 12.227206 0.749870
-4.644530 7.641915 -1.738270
-5.286244 8.701185 0.890732
-4.615155 7.599557 -1.408223
-4.633430 7.632653 1.096337
-4.682559 7.716619 -1.108280
-4.655228 7.674598 1.421677
-4.609557 7.599304 -0.777604
-4.625329 7.628308 1.734072
-4.616092 7.616073 -0.466732
-4.627872 7.638516 2.061901
-4.610775 7.613293 -0.155361
-4.628142 7.644981 2.394594
-3.344785 5.540339 -1.734088
-11.520273 19.089836 0.389189
-3.970995 6.582792 -1.774864
-7.425739 12.314643 0.753638
-4.614787 7.653036 -1.737125
-5.262012 8.729822 0.891778
-4.572289 7.588548 -1.403217
-4.599591 7.636876 1.094630
-4.639214 7.705705 -1.104380
-4.621281 7.678951 1.419487
-4.579921 7.610226 -0.777081
-4.585514 7.622538 1.729111
-4.580218 7.616735 -0.465790
-4.592146 7.639591 2.057852
-4.573870 7.612202 -0.155012
-4.596456 7.652808 2.392006
-3.327410 5.555296 -1.735123
-11.523415 19.246603 0.391562
-3.936986 6.578219 -1.769915
-7.430897 12.421046 0.758557
-4.575947 7.648882 -1.732546
-5.249912 8.778917 0.894915
-4.535638 7.587506 -1.400089
-4.554575 7.622213 1.090243
-4.573604 7.657092 -1.095118
-4.585337 7.679771 1.416671
-4.541074 7.605637 -0.774989
-4.545800 7.616581 1.724150
-4.541321 7.612095 -0.464534
-4.555472 7.638835 2.053353
-4.544201 7.622968 -0.154908
-4.557847 7.648893 2.385794
-3.307999 5.566877 -1.735123
-11.523566 19.400179 0.393866
-3.913998 6.591923 -1.769915
-7.422155 12.505303 0.762116
-4.545213 7.658054 -1.731019
-4.682471 7.892453 0.802879
-4.503078 7.593099 -1.398211
-4.516809 7.619281 1.087562
-4.565065 7.703750 -1.099505
-4.547425 7.677036 1.413229
-4.505357 7.606016 -0.773420
-4.516186 7.627334 1.723005
-4.505569 7.612431 -0.463592
-4.514885 7.631211 2.047055
-4.513494 7.631897 -0.154768
-4.523255 7.651451 2.381653
-3.286585 5.575060 -1.734088
-11.522786 19.553991 0.396170
-3.892941 6.608904 -1.770815
-7.424064 12.608582 0.766827
-4.500525 7.643421 -1.724150
-4.644788 7.891578 0.801136
-4.468531 7.595152 -1.395709
-4.484148 7.624733 1.086100
-4.541166 7.724771 -1.100237
-4.504585 7.665614 1.408223
-4.469692 7.606236 -0.771851
-4.482572 7.631204 1.720334
-4.471888 7.616057 -0.462859
-4.480327 7.633481 2.043455
-4.471645 7.621736 -0.154244
-4.491631 7.658863 2.379065
-3.262227 5.578162 -1.731500
-11.529135 19.721848 0.398753
-3.866899 6.617404 -1.769465
-7.430372 12.720653 0.772060
-4.465894 7.645523 -1.721097
-4.608170 7.892260 0.799567
-4.440001 7.607290 -1.395083
-4.449500 7.626624 1.084150
-4.481171 7.683989 -1.092193
-4.469842 7.667638 1.405720
-4.433082 7.604579 -0.770108
-4.444047 7.626447 1.715755
-4.430198 7.605732 -0.461289
-4.447772 7.638968 2.040756
-4.430932 7.613101 -0.153756
-4.451270 7.651116 2.371818
-3.244676 5.592856 -1.732535
-11.522425 19.869219 0.400917
-3.845733 6.634233 -1.770365
-7.428216 12.814338 0.776247
-4.433274 7.650872 -1.718807
-4.571603 7.892780 0.797998
-4.396595 7.593680 -1.389764
-4.413904 7.626645 1.081956
-4.483146 7.749415 -1.099262
-4.439443 7.673871 1.404156
-4.398532 7.606208 -0.768714
-4.405606 7.621518 1.711175
-4.404619 7.622880 -0.461394
-4.419132 7.651072 2.039856
-4.402663 7.622557 -0.153651
-4.424905 7.664163 2.371300
-3.221278 5.597452 -1.730464
-11.537258 20.047710 0.403744
-3.809134 6.621613 -1.763616
-4.540974 7.896995 0.477409
-4.402625 7.659492 -1.717281
-4.536085 7.894869 0.796603
-4.368435 7.603081 -1.388825
-4.377711 7.622306 1.079275
-4.457425 7.764238 -1.099262
-4.402799 7.672186 1.401027
-4.365014 7.609419 -0.767493
-4.373472 7.624164 1.708504
-4.362429 7.607989 -0.459614
-4.389858 7.658921 2.038057
-4.370062 7.627470 -0.153442
-4.381806 7.651062 2.362500
-3.204615 5.611458 -1.731500
-4.505790 7.893085 0.158642
-3.781169 6.626405 -1.761367
-4.501507 7.891979 0.476153
-4.364557 7.651880 -1.712320
-4.334045 7.604552 -1.386322
-4.345181 7.627193 1.077813
-4.414580 7.752149 -1.095362
-4.373061 7.682357 1.400089
-4.335814 7.616925 -0.766796
-4.332266 7.613790 1.702780
-4.325972 7.605808 -0.458568
-4.350577 7.652174 2.032208
-4.333528 7.625292 -0.153093
-4.344577 7.647834 2.356807
-3.183102 5.619249 -1.730464
-3.759937 6.642955 -1.762267
-7.410652 13.098286 0.788703
-4.328151 7.649983 -1.708504
-4.319429 7.637676 0.767668
-4.298723 7.604160 -1.383507
-4.311695 7.630216 1.076106
-4.392373 7.776155 -1.096580
-4.330676 7.670053 1.395083
-4.348382 7.701413 -0.773769
-4.300839 7.620317 1.700871
-4.302339 7.626083 -0.458882
-4.299906 7.624879 2.020960
-4.293139 7.615984 -0.152604
-4.310266 7.649488 2.352665
-3.154953 5.615167 -1.725805
-4.286067 7.631436 0.152778
-3.732908 6.649242 -1.760467
-4.277207 7.621890 0.458044
-4.292776 7.649635 -1.705069
-4.275198 7.621428 0.764530
-4.266358 7.608780 -1.381629
-4.282125 7.640023 1.075375
-4.339977 7.746411 -1.090243
-4.296156 7.671335 1.392580
-4.266957 7.619196 -0.764007
-4.269420 7.626716 1.698963
-4.259114 7.611423 -0.457102
-4.271363 7.636440 2.020061
-4.257747 7.615215 -0.152290
-4.269403 7.639192 2.344901
-3.138155 5.631207 -1.727358
-4.244806 7.620146 0.152255
-3.707778 6.658828 -1.759567
-4.259315 7.652481 0.458986
-4.259363 7.652566 -1.702398
-4.249539 7.638045 0.764704
-4.221529 7.590826 -1.375685
-4.245782 7.637575 1.072938
-4.311948 7.759777 -1.089999
-4.267432 7.682833 1.391954
-4.243235 7.639270 -0.764530
-4.229427 7.617544 1.693621
-4.224764 7.612274 -0.456265
-4.235225 7.634264 2.015561
-4.227257 7.623036 -0.152150
-4.236153 7.642222 2.341277
-3.116609 5.638747 -1.726323
-4.210443 7.620914 0.151976
-3.677918 6.659789 -1.756418
-4.215204 7.635828 0.457102
-4.224086 7.651918 -1.698963
-4.217074 7.642367 0.763659
-4.189283 7.595136 -1.373808
-4.207597 7.631488 1.070013
-4.282917 7.771306 -1.089512
-4.231058 7.680378 1.388825
-4.212700 7.647054 -0.763833
-4.196184 7.620222 1.690949
-4.190464 7.612977 -0.455428
-4.202916 7.638755 2.012862
-4.191951 7.621975 -0.151836
-4.206660 7.651882 2.339724
-3.095051 5.646203 -1.725288
-4.176126 7.621537 0.151696
-3.653714 6.670876 -1.755968
-4.182771 7.639983 0.456474
-4.195467 7.663171 -1.698200
-4.183674 7.644806 0.762438
-4.155163 7.595849 -1.371305
-4.173312 7.632196 1.068063
-4.246241 7.768791 -1.087075
-4.195700 7.679498 1.386010
-4.180250 7.651221 -0.762787
-4.165793 7.627932 1.689423
-4.150464 7.603016 -0.453962
-4.166894 7.636274 2.008363
-4.162445 7.631296 -0.151731
-4.170675 7.649560 2.334548
-3.074399 5.655275 -1.724770
-4.146634 7.630796 0.151592
-3.629474 6.681878 -1.755518
-4.145593 7.635231 0.455323
-4.153700 7.650164 -1.692094
-4.151262 7.648856 0.761393
-4.122970 7.599890 -1.369428
-4.136237 7.627521 1.065382
-4.213423 7.773094 -1.085612
-4.155691 7.669783 1.381629
-4.144023 7.648249 -0.761044
-4.132598 7.630342 1.686752
-4.118196 7.606918 -0.453334
-4.134646 7.640490 2.005664
-4.123415 7.622913 -0.151277
-4.138436 7.653875 2.331442
-3.049140 5.655769 -1.721664
-4.111436 7.629380 0.151277
-3.602433 6.687643 -1.753718
-4.115129 7.642620 0.454904
-4.121388 7.654244 -1.689804
-4.112264 7.640492 0.759126
-4.090799 7.603799 -1.367550
-4.102067 7.627925 1.063432
-4.178746 7.773766 -1.083662
-4.123281 7.673803 1.379752
-4.082406 7.597731 -0.754594
-4.100366 7.634342 1.684462
-4.087840 7.614208 -0.452915
-4.099655 7.639423 2.001615
-4.086384 7.617876 -0.150894
-4.100740 7.647842 2.325230
-3.031199 5.669786 -1.722700
-4.080065 7.634867 0.151103
-3.578146 6.698459 -1.753268
-4.077136 7.635797 0.453648
-4.086320 7.652998 -1.686370
-4.081814 7.647771 0.758429
-4.056795 7.604088 -1.365047
-4.069809 7.631690 1.061970
-4.149716 7.784802 -1.083175
-4.090898 7.677688 1.377875
-4.051178 7.603142 -0.753723
-4.058923 7.620884 1.678356
-4.057480 7.621379 -0.452497
-4.062895 7.634762 1.996666
-4.054131 7.621501 -0.150684
-4.063134 7.641642 2.319019
-3.008676 5.675211 -1.721147
-4.043091 7.629627 0.150719
-3.544710 6.691965 -1.748320
-4.046721 7.642921 0.453229
-4.056828 7.662010 -1.685225
-4.043911 7.640840 0.756338
-4.023762 7.605979 -1.362857
-4.032011 7.624790 1.059045
-4.117880 7.790463 -1.081956
-4.056692 7.677948 1.375372
-4.015307 7.599620 -0.751980
-4.026797 7.624589 1.676066
-4.015934 7.607235 -0.450822
-4.038041 7.652344 1.997565
-4.020041 7.621455 -0.150405
-4.042744 7.667740 2.322642
-2.987051 5.682259 -1.720111
-4.014572 7.640154 0.150649
-3.517703 6.697398 -1.746520
-4.007420 7.629776 0.451659
-4.024583 7.665694 -1.682935
-4.013509 7.647853 0.755640
-3.988009 7.602486 -1.359729
-4.002603 7.633544 1.058313
-4.076836 7.778419 -1.078300
-4.026621 7.682611 1.373808
-3.985054 7.606532 -0.751283
-4.010175 7.657732 1.680264
-3.983796 7.610591 -0.450194
-4.006785 7.657761 1.995316
-3.991034 7.627659 -0.150265
-4.005653 7.658851 2.315913
-2.966304 5.690938 -1.719594
-3.980897 7.637464 0.150335
-3.497277 6.712482 -1.747420
-3.974306 7.631317 0.450927
-3.985107 7.655316 -1.677593
-3.977594 7.644141 0.753897
-3.959131 7.608658 -1.358477
-3.980933 7.653820 1.059288
-4.040032 7.770758 -1.075375
-3.999781 7.696619 1.373808
-3.958480 7.620396 -0.751283
-3.972996 7.648339 1.675303
-3.958538 7.623759 -0.450194
-3.963416 7.636412 1.986318
-3.966224 7.645094 -0.150335
-3.967334 7.650491 2.309184
-2.943868 5.693879 -1.717523
-3.951457 7.645985 0.150230
-3.473826 6.724648 -1.747420
-3.943064 7.636270 0.450403
-3.949792 7.649300 -1.673395
-3.939428 7.632504 0.751457
-3.933455 7.624187 -1.358790
-3.939632 7.639441 1.055389
-4.011062 7.781285 -1.074888
-3.955701 7.677170 1.367863
-3.935015 7.637022 -0.751631
-3.932788 7.635980 1.669579
-3.937385 7.648186 -0.450822
-3.936738 7.650199 1.986318
-3.931283 7.642888 -0.150021
-3.932653 7.648832 2.304525
-2.916042 5.688649 -1.712865
-3.906508 7.624138 0.149532
-3.446776 6.729795 -1.745620
-3.910922 7.639322 0.449775
-3.919486 7.656051 -1.671868
-3.910040 7.640887 0.750934
-3.905916 7.636113 -1.358477
-3.906617 7.640773 1.053682
-3.958583 7.745745 -1.068063
-3.919890 7.673340 1.364734
-3.893828 7.622323 -0.748842
-3.893611 7.625182 1.664236
-3.890690 7.622746 -0.448519
-3.902922 7.650008 1.982719
-3.885505 7.619153 -0.149288
-3.895403 7.641858 2.298313
-2.898794 5.703959 -1.714417
-3.878060 7.634160 0.149462
-3.412674 6.720937 -1.740221
-3.882425 7.649364 0.449566
-3.894517 7.673188 -1.672632
-3.878839 7.645604 0.750062
-3.855112 7.602133 -1.350030
-3.865564 7.626033 1.049783
-3.932420 7.761286 -1.068307
-3.889509 7.679928 1.363483
-3.859094 7.619873 -0.747273
-3.857219 7.619459 1.660038
-3.851436 7.611331 -0.447054
-3.867398 7.646197 1.978220
-3.849860 7.614824 -0.148939
-3.865221 7.648512 2.296243
-2.879734 5.715769 -1.714935
-3.847789 7.640509 0.149323
-3.387442 6.729326 -1.739322
-3.847619 7.646813 0.448624
-3.859765 7.670952 -1.669197
-3.850335 7.655539 0.749714
-3.826780 7.612014 -1.349404
-3.834461 7.630612 1.048564
-3.902629 7.769644 -1.067576
-3.858247 7.684630 1.361919
-3.825322 7.619052 -0.745879
-3.827954 7.627613 1.658893
-3.814990 7.605092 -0.445902
-3.833698 7.645714 1.974620
-3.818778 7.619277 -0.148764
-3.832440 7.649868 2.292619
-2.856313 5.718873 -1.712865
-3.812165 7.636001 0.148974
-3.363063 6.739365 -1.738872
-3.811990 7.642323 0.447577
-3.816316 7.650998 -1.661946
-3.818256 7.658232 0.748668
-3.793139 7.611181 -1.346901
-3.806919 7.642172 1.048320
-3.862210 7.756566 -1.063919
-3.821719 7.678597 1.358477
-3.796929 7.628790 -0.745530
-3.795186 7.628623 1.656222
-3.785750 7.612998 -0.445588
-3.800048 7.645087 1.971021
-3.783259 7.614654 -0.148415
-3.802274 7.656279 2.290549
-2.834620 5.725345 -1.711829
-3.781937 7.642094 0.148834
-3.341244 6.754557 -1.739771
-3.781751 7.648422 0.447158
-3.784366 7.653712 -1.659657
-3.779140 7.646510 0.746227
-3.759546 7.610208 -1.344398
-3.772307 7.639396 1.046127
-3.832476 7.764659 -1.063188
-3.785277 7.672406 1.355036
-3.759696 7.620557 -0.743438
-3.768532 7.641826 1.656222
-3.755622 7.619000 -0.445170
-3.768168 7.647818 1.968322
-3.750473 7.615255 -0.148171
-3.765288 7.648705 2.284337
-2.812062 5.730002 -1.710276
-3.742910 7.630113 0.148345
-3.315931 6.762679 -1.738872
-3.751511 7.654403 0.446740
-3.754169 7.659825 -1.658130
-3.748044 7.650706 0.745356
-3.723404 7.603768 -1.340956
-3.742129 7.645385 1.045152
-3.789648 7.745893 -1.058801
-3.752399 7.673150 1.352845
-3.726072 7.619315 -0.742044
-3.729765 7.630240 1.650880
-3.724622 7.623090 -0.444646
-3.731186 7.639914 1.962923
-3.721237 7.622908 -0.148066
-3.730944 7.646176 2.279678
-2.792042 5.739784 -1.710276
-3.712758 7.635937 0.148206
-3.286340 6.761945 -1.735722
-3.716041 7.649488 0.445693
-3.723975 7.665821 -1.656604
-3.716966 7.654781 0.744484
-3.689075 7.600727 -1.338141
-3.710217 7.647686 1.043689
-3.763454 7.760859 -1.059045
-3.720420 7.675537 1.350968
-3.692499 7.617933 -0.740649
-3.699682 7.636147 1.649353
-3.691894 7.623463 -0.443914
-3.701100 7.645874 1.961123
-3.694604 7.635852 -0.148066
-3.700023 7.650457 2.277090
-2.772155 5.747271 -1.709759
-3.683071 7.639202 0.148031
-3.262208 6.769294 -1.734823
-3.681988 7.643774 0.444646
-3.693423 7.667514 -1.654314
-3.686373 7.656296 0.743438
-3.662137 7.609357 -1.337515
-3.676233 7.642058 1.041252
-3.722212 7.741096 -1.054657
-3.688103 7.673588 1.348465
-3.659451 7.613974 -0.739081
-3.668389 7.635984 1.646682
-3.657950 7.617660 -0.442867
-3.668980 7.644049 1.957524
-3.659749 7.628230 -0.147682
-3.675469 7.664425 2.277608
-2.749578 5.751683 -1.708206
-3.652073 7.642989 0.147857
-3.241077 6.785916 -1.736172
-3.648401 7.642160 0.443809
-3.657334 7.660871 -1.650116
-3.656195 7.661923 0.742741
-3.633851 7.618529 -1.336889
-3.645261 7.645886 1.040033
-3.697731 7.759417 -1.055389
-3.649399 7.661448 1.344085
-3.631992 7.624904 -0.738906
-3.640022 7.645199 1.645918
-3.626189 7.619560 -0.442239
-3.639762 7.651532 1.956174
-3.622793 7.619288 -0.147263
-3.642057 7.663252 2.273467
-2.722865 5.747280 -1.704065
-3.620235 7.644848 0.147647
-3.211535 6.784858 -1.733023
-3.623409 7.658460 0.444018
-3.628049 7.668267 -1.648971
-3.626870 7.669237 0.742218
-3.603859 7.624022 -1.335638
-3.621095 7.663947 1.040764
-3.668925 7.768687 -1.054901
-3.614203 7.656277 1.340956
-3.592597 7.610507 -0.736292
-3.600749 7.631225 1.640194
-3.597863 7.628559 -0.442030
-3.602230 7.641274 1.950326
-3.593619 7.626460 -0.147159
-3.604586 7.653197 2.266737
-2.703609 5.758498 -1.704582
-3.598623 7.668301 0.147857
-3.187834 6.796026 -1.733023
-3.607678 7.694570 0.445379
-3.595427 7.668441 -1.646300
-3.626285 7.737778 0.747622
-3.567171 7.615089 -1.331883
-3.593481 7.674742 1.040521
-3.645991 7.790438 -1.056120
-3.585783 7.665267 1.340331
-3.568544 7.628415 -0.736815
-3.566606 7.627740 1.636760
-3.570364 7.639262 -0.441925
-3.572237 7.646739 1.948526
-3.566128 7.637146 -0.147124
-3.571311 7.651730 2.262596
-2.680233 5.760893 -1.702512
-3.596288 7.733399 0.148869
-3.159161 6.796510 -1.730324
-3.612774 7.775946 0.449357
-3.566154 7.675604 -1.645155
-3.624430 7.804599 0.752851
-3.533912 7.613161 -1.329380
-3.565832 7.685439 1.040277
-3.607919 7.779705 -1.052951
-3.547371 7.652646 1.335950
-3.537703 7.631788 -0.735943
-3.540782 7.641927 1.637141
-3.532767 7.628118 -0.440564
-3.539791 7.646784 1.945377
-3.533571 7.636842 -0.146879
-3.542149 7.658888 2.261043
-2.660106 5.770215 -1.702512
-3.599401 7.811285 0.150126
-3.128897 6.793336 -1.726724
-3.603985 7.828422 0.451659
-3.534415 7.677305 -1.642866
-3.627150 7.882361 0.759126
-3.502364 7.614681 -1.327503
-3.539814 7.699642 1.040521
-3.562507 7.752569 -1.047589
-3.517338 7.657804 1.334699
-3.499397 7.618744 -0.733503
-3.501800 7.627476 1.631417
-3.496124 7.618619 -0.439308
-3.510638 7.653780 1.944027
-3.496059 7.625499 -0.146426
-3.509760 7.658911 2.257420
-2.642355 5.784737 -1.704065
-3.602014 7.889288 0.151382
-3.106781 6.807762 -1.727624
-3.609790 7.913641 0.455846
-3.497001 7.666377 -1.637905
-3.630193 7.962051 0.765576
-3.470026 7.614279 -1.325313
-3.520319 7.728211 1.042714
-3.519793 7.730632 -1.042958
-3.476676 7.639468 1.329380
-3.471957 7.629099 -0.733328
-3.475152 7.639654 1.631417
-3.467854 7.627141 -0.439099
-3.475033 7.646472 1.939078
-3.462802 7.623092 -0.146146
-3.479009 7.662323 2.254832
-2.613386 5.774565 -1.698371
-3.600824 7.960118 0.152499
-3.079789 6.811462 -1.725824
-3.613402 7.995354 0.459824
-3.463752 7.664224 -1.634852
-3.625346 8.025513 0.770457
-3.439364 7.617344 -1.323749
-3.496589 7.747688 1.043689
-3.487891 7.732013 -1.041496
-3.445118 7.640752 1.327503
-3.439575 7.628457 -0.732108
-3.439591 7.632048 1.627219
-3.433828 7.622810 -0.438157
-3.448322 7.658556 1.939078
-3.431249 7.624191 -0.145937
-3.443526 7.655039 2.249138
-2.591633 5.780126 -1.697335
-3.604091 8.041982 0.153826
-3.054398 6.818615 -1.724925
-3.614039 8.071718 0.463487
-3.433770 7.669099 -1.633325
-3.629049 8.109045 0.777255
-3.403072 7.607666 -1.319994
-3.475197 7.772531 1.045395
-3.459258 7.740517 -1.041008
-3.417619 7.650929 1.327190
-3.405610 7.624045 -0.730539
-3.404126 7.624288 1.623021
-3.406382 7.632927 -0.438052
-3.418390 7.663427 1.937279
-3.396469 7.617859 -0.145588
-3.411277 7.654662 2.245514
-2.571440 5.789138 -1.697335
-3.605211 8.120309 0.155082
-3.024256 6.814985 -1.721326
-3.616612 8.153663 0.467465
-3.404589 7.675656 -1.632180
-3.630601 8.189055 0.783704
-3.373296 7.612273 -1.318743
-3.442415 7.771910 1.043689
-3.404092 7.689013 -1.032477
-3.383699 7.646554 1.324374
-3.377366 7.632242 -0.730191
-3.370343 7.619966 1.619587
-3.370836 7.624676 -0.436901
-3.385319 7.661052 1.933679
-3.367435 7.624180 -0.145483
-3.380637 7.657684 2.242926
-2.552771 5.801616 -1.698371
-3.608242 8.204233 0.156443
-2.994961 6.813012 -1.718176
-3.614640 8.226580 0.470919
-3.371455 7.673114 -1.629127
-3.617217 8.236338 0.787016
-3.339560 7.607722 -1.315927
-3.420048 7.794787 1.045152
-3.394774 7.740844 -1.037839
-3.349847 7.642036 1.321558
-3.345102 7.631213 -0.728971
-3.344510 7.633483 1.619969
-3.336991 7.619930 -0.435959
-3.352303 7.658542 1.930080
-3.337593 7.628561 -0.145344
-3.349243 7.658818 2.239820
-2.532505 5.810491 -1.698371
-3.511694 8.060949 0.153476
-2.968825 6.818065 -1.716826
-3.452000 7.931484 0.453334
-3.336034 7.665035 -1.624930
-3.442998 7.914574 0.755117
-3.309830 7.612088 -1.314675
-3.395195 7.812140 1.045883
-3.359821 7.734440 -1.035402
-3.313712 7.631939 1.317804
-3.312891 7.630048 -0.727750
-3.314719 7.637907 1.618442
-3.310369 7.631532 -0.435959
-3.319349 7.655892 1.926481
-3.302994 7.621816 -0.144995
-3.316344 7.656282 2.235679
-2.503786 5.799785 -1.692677
-3.411441 7.906076 0.150300
-2.946552 6.831965 -1.717726
-3.413816 7.915377 0.451764
-3.306150 7.669420 -1.623403
-4.674427 10.848678 1.033493
-3.284803 7.627222 -1.315301
-3.372615 7.834883 1.047345
-3.317673 7.707249 -1.030284
-3.285260 7.635628 1.316553
-3.283090 7.634243 -0.727053
-3.284938 7.642215 1.616915
-3.282132 7.639372 -0.435749
-3.290864 7.659698 1.924681
-3.274547 7.625377 -0.144855
-3.284081 7.651260 2.231020
-2.483018 5.804504 -1.691641
-3.373411 7.889766 0.149777
-2.916986 6.825572 -1.713677
-5.983149 14.000207 0.797914
-3.279155 7.676732 -1.622640
-4.672845 10.944745 1.041162
-3.250186 7.616272 -1.311547
-3.351285 7.856979 1.048808
-3.281192 7.692646 -1.026871
-3.256824 7.639211 1.315301
-3.252286 7.632260 -0.725833
-3.250343 7.631392 1.612336
-3.251306 7.637350 -0.435017
-3.260867 7.659810 1.921982
-3.246891 7.630675 -0.144750
-3.253395 7.649664 2.227397
-2.463757 5.812706 -1.691641
-3.345670 7.897225 0.149707
-2.887499 6.819057 -1.709628
-5.988738 14.149756 0.805241
-3.251386 7.682138 -1.621495
-4.670682 11.040917 1.048832
-3.221836 7.619730 -1.310295
-3.320578 7.857079 1.047345
-3.257410 7.711366 -1.027846
-3.225530 7.639614 1.313424
-3.219986 7.626482 -0.724264
-3.222730 7.636702 1.611191
-3.218201 7.629687 -0.433970
-3.234111 7.671145 1.921982
-3.217131 7.634590 -0.144611
-3.230424 7.669876 2.229985
-2.441207 5.815927 -1.690088
-3.311122 7.892260 0.149393
-2.868198 6.839878 -1.712327
-5.987945 14.286623 0.811835
-3.217718 7.677146 -1.618060
-4.676767 11.163736 1.058942
-3.189113 7.616354 -1.307792
-3.294662 7.872285 1.047833
-3.239667 7.744665 -1.030771
