# This PCD file was generated using the MATLAB® pcwrite function
# from Computer Vision Toolbox®.
# .PCD v.7 - Point Cloud Data file format
VERSION .7
FIELDS x y z
SIZE 4 4 4
TYPE F F F
COUNT 1 1 1
WIDTH 1620
HEIGHT 1
VIEWPOINT 0 0 0 1 0 0 0
POINTS 1620
DATA ascii
-2.198163 -8.822910 0.158712
-2.203396 -8.830772 0.476990
-2.205353 -8.832053 0.796429
-2.213351 -8.850935 1.120223
-0.263127 -1.051436 -0.133081
-2.210870 -8.827926 1.441387
-2.110840 -8.428510 -0.760172
-2.206471 -8.803836 1.764220
-2.120406 -8.454183 -0.456788
-2.198902 -8.760666 2.085296
-2.214123 -8.814794 -0.158642
-2.198889 -8.747684 2.416852
-2.229436 -8.817122 0.158747
-2.237639 -8.836579 0.477723
-2.238616 -8.833959 0.797301
-2.218116 -8.746651 -1.429186
-2.240814 -8.829686 1.118517
-0.268750 -1.058207 -0.134056
-2.242645 -8.823983 1.442013
-2.138776 -8.415298 -0.759649
-2.240092 -8.807497 1.766510
-2.209515 -8.680931 -0.469454
-2.231393 -8.760491 2.087096
-2.247842 -8.818639 -0.158852
-2.233231 -8.754929 2.420993
-2.261196 -8.813160 0.158817
-2.263949 -8.817504 0.477095
-2.271424 -8.833808 0.797998
-1.830215 -7.112754 -1.163247
-2.272611 -8.825656 1.119004
-0.293247 -1.137999 -0.144293
-2.274359 -8.826062 1.443577
-2.221372 -8.614213 -0.778301
-2.271804 -8.803426 1.767273
-2.275760 -8.812401 -0.476990
-2.261959 -8.752649 2.087096
-2.278074 -8.815008 -0.158922
-2.264186 -8.754957 2.423064
-2.290408 -8.805613 0.158817
-2.296225 -8.815346 0.477409
-2.303251 -8.829682 0.798347
-1.845814 -7.076063 -1.158241
-2.304373 -8.827675 1.120223
-0.281968 -1.079401 -0.136981
-2.302655 -8.808514 1.442013
-2.306893 -8.818435 -0.797475
-2.303964 -8.807240 1.769563
-2.306488 -8.810602 -0.477304
-2.291465 -8.746985 2.087546
-2.306802 -8.799265 -0.158782
-2.293262 -8.741395 2.421511
-2.326743 -8.818833 0.159201
-2.330044 -8.818863 0.478037
-2.330991 -8.816216 0.797824
-1.884650 -7.123048 -1.167001
-2.335173 -8.819577 1.120223
-0.316239 -1.193543 -0.151605
-2.336427 -8.811879 1.443890
-2.338167 -8.818439 -0.798172
-2.335702 -8.802938 1.770326
-2.339278 -8.810218 -0.477723
-2.322484 -8.740816 2.087996
-2.341101 -8.804688 -0.159026
-2.323760 -8.733337 2.421511
-2.356477 -8.806793 0.159131
-2.363915 -8.822251 0.478665
-2.362782 -8.811875 0.798172
-1.909503 -7.116426 -1.167001
-2.368004 -8.819041 1.121198
-0.293617 -1.092743 -0.138931
-2.369223 -8.811300 1.445142
-2.371004 -8.817921 -0.798869
-2.368455 -8.802315 1.771852
-2.370018 -8.801998 -0.477723
-2.356023 -8.743946 2.090695
-2.373902 -8.804185 -0.159166
-2.354735 -8.727036 2.422029
-2.390872 -8.812023 0.159375
-2.394171 -8.812018 0.478560
-2.392483 -8.799728 0.797824
-1.918775 -7.052535 -1.157615
-2.395644 -8.799229 1.119736
-0.300561 -1.103203 -0.140393
-2.399966 -8.802976 1.445142
-2.402294 -8.811512 -0.799044
-2.397617 -8.788313 1.770708
-2.402832 -8.801379 -0.478141
-2.391153 -8.752587 2.094744
-2.405676 -8.799702 -0.159236
-2.385183 -8.718764 2.422029
-2.421085 -8.801696 0.159340
-2.424917 -8.803607 0.478560
-2.429538 -8.814374 0.799915
-1.954937 -7.087687 -1.164498
-2.428459 -8.798467 1.120710
-0.287498 -1.040917 -0.132594
-2.431733 -8.798353 1.445768
-2.432507 -8.801153 -0.798869
-2.431419 -8.791244 1.772997
-2.435138 -8.798713 -0.478455
-2.419090 -8.734797 2.092495
-2.439047 -8.800886 -0.159410
-2.416119 -8.712247 2.422546
-2.453942 -8.800898 0.159480
-2.456170 -8.797013 0.478665
-2.459756 -8.803920 0.799741
-1.979665 -7.080821 -1.164498
-2.462364 -8.801407 1.122173
-2.464972 -8.804801 -1.122661
-2.463495 -8.793614 1.446393
-2.465363 -8.800282 -0.799567
-2.464740 -8.792153 1.774905
-2.465297 -8.788236 -0.478351
-2.452199 -8.735681 2.094744
-2.468130 -8.786543 -0.159306
-2.450698 -8.718637 2.426687
-2.487912 -8.803823 0.159690
-2.491212 -8.803761 0.479502
-2.489386 -8.791448 0.799393
-2.008677 -7.089071 -1.167001
-2.494697 -8.798488 1.122904
-2.496774 -8.799961 -1.123148
-2.496873 -8.794464 1.447958
-2.517289 -8.866372 -0.806365
-2.493808 -8.777831 1.773761
-2.497597 -8.785341 -0.478665
-2.481610 -8.723319 2.093844
-2.500430 -8.783645 -0.159410
-2.481116 -8.710030 2.426687
-2.516976 -8.789318 0.159585
-2.522479 -8.796930 0.479607
-2.522255 -8.790364 0.800090
-2.495698 -8.692083 -1.432314
-2.529232 -8.803082 1.124610
-2.560387 -8.905661 -1.137772
-2.530287 -8.795187 1.449522
-2.569155 -8.930290 -0.812989
-2.523345 -8.765301 1.772997
-2.532671 -8.791924 -0.479502
-2.516363 -8.729584 2.097444
-2.533845 -8.784470 -0.159585
-2.517399 -8.721733 2.432382
-2.548757 -8.784319 0.159655
-2.556514 -8.799580 0.480235
-2.554038 -8.785332 0.800438
-2.528232 -8.690907 -1.433566
-2.556615 -8.782763 1.123148
-2.608668 -8.955752 -1.145328
-2.560420 -8.784405 1.449209
-2.562400 -8.791198 -0.801136
-2.555575 -8.762093 1.774142
-2.559988 -8.771524 -0.478874
-2.549006 -8.728230 2.099243
-2.566177 -8.781329 -0.159690
-2.551623 -8.725873 2.436005
-2.583915 -8.790718 0.159934
-2.587778 -8.792518 0.480339
-2.587502 -8.785919 0.801310
-2.565253 -8.704766 -1.437320
-2.588381 -8.777593 1.123635
-2.646092 -8.967534 -1.148009
-2.593864 -8.784885 1.450773
-2.594764 -8.787933 -0.801659
-2.591152 -8.770062 1.777577
-2.592290 -8.768281 -0.479188
-2.578352 -8.715541 2.098343
-2.596813 -8.772319 -0.159690
-2.583164 -8.720616 2.437040
-2.614583 -8.781645 0.159934
-2.617884 -8.781518 0.480235
-2.621003 -8.786380 0.802181
-2.595623 -8.695759 -1.437320
-2.626958 -8.795133 1.127048
-2.683632 -8.979165 -1.150690
-2.621117 -8.764421 1.448896
-2.637983 -8.820816 -0.805493
-2.623438 -8.766608 1.778722
-2.625173 -8.766832 -0.479607
-2.609878 -8.710221 2.099243
-2.629715 -8.770863 -0.159829
-2.615810 -8.718948 2.439111
-2.649841 -8.787781 0.160213
-2.651407 -8.781886 0.480758
-2.652234 -8.779084 0.802356
-2.629391 -8.697990 -1.439197
-2.656492 -8.782109 1.126560
-2.708058 -8.946942 -1.147766
-2.656849 -8.772235 1.451712
-2.655474 -8.767696 -0.801484
-2.657441 -8.768670 1.781011
-2.658077 -8.765261 -0.480025
-2.643661 -8.712247 2.101943
-2.658574 -8.755889 -0.159724
-2.643420 -8.700523 2.436523
-2.679331 -8.774652 0.160143
-2.684382 -8.780216 0.481177
-2.680531 -8.762154 0.801659
-2.662049 -8.696315 -1.440449
-2.688877 -8.778478 1.127291
-2.738109 -8.933640 -1.147278
-2.688612 -8.766684 1.452338
-2.686063 -8.758374 -0.801484
-2.687456 -8.757463 1.780630
-2.692761 -8.769294 -0.480758
-2.679780 -8.721593 2.106442
-2.694409 -8.763758 -0.160039
-2.677183 -8.702321 2.439628
-2.708172 -8.759515 0.160039
-2.712302 -8.767450 0.480967
-2.716405 -8.769871 0.803227
-2.691220 -8.683194 -1.439823
-2.719502 -8.769038 1.127291
-2.777514 -8.950570 -1.150690
-2.718840 -8.761493 1.452963
-2.721346 -8.764167 -0.802879
-2.718008 -8.748030 1.780630
-2.720984 -8.752212 -0.480339
-2.707892 -8.704743 2.104642
-2.725832 -8.762412 -0.160178
-2.706026 -8.693396 2.439628
-2.743174 -8.769570 0.160388
-2.745278 -8.765554 0.481386
-2.749982 -8.769841 0.804099
-2.713497 -8.653488 -1.436381
-2.746783 -8.754289 1.126560
-2.804801 -8.933734 -1.149715
-2.751774 -8.759488 1.454215
-2.764468 -8.794529 -0.806539
-2.752301 -8.755824 1.784064
-2.751790 -8.748856 -0.480653
-2.736744 -8.695716 2.104642
-2.759405 -8.762382 -0.160353
-2.739839 -8.694952 2.442734
-2.775581 -8.765661 0.160492
-2.775536 -8.760210 0.481596
-2.779652 -8.762572 0.804273
-2.753250 -8.674089 -1.441387
-2.778526 -8.748432 1.127048
-2.837170 -8.927673 -1.150203
-2.781405 -8.752197 1.454528
-2.806296 -8.825186 -0.810200
-2.780467 -8.738679 1.782538
-2.785948 -8.750616 -0.481281
-2.767080 -8.686110 2.104642
-2.786019 -8.745561 -0.160213
-2.772765 -8.698703 2.446358
-2.808903 -8.769739 0.160737
-2.808538 -8.758075 0.482014
-2.809612 -8.750920 0.804099
-2.759051 -8.593441 -1.429498
-2.812988 -8.756180 1.129241
-2.861293 -8.901207 -1.148009
-2.812543 -8.744316 1.454841
-2.846241 -8.843784 -0.812814
-2.814243 -8.744362 1.785591
-2.817400 -8.748934 -0.481700
-2.795271 -8.675031 2.104192
-2.818371 -8.741492 -0.160318
-2.800739 -8.681617 2.444287
-2.836091 -8.744168 0.160457
-2.843703 -8.757220 0.482538
-2.844452 -8.754322 0.805319
-2.753884 -8.470555 -1.410726
-2.847517 -8.753361 1.130216
-2.739680 -8.416868 -1.086831
-2.847633 -8.743340 1.456405
-2.847478 -8.742863 -0.804447
-2.845056 -8.730255 1.784827
-2.853781 -8.751841 -0.482433
-2.833698 -8.685106 2.109141
-2.855976 -8.748213 -0.160632
-2.831940 -8.669456 2.443769
-2.870339 -8.745615 0.160667
-2.878618 -8.760523 0.483270
-2.875615 -8.746233 0.805493
-2.820474 -8.573478 -1.429498
-2.876815 -8.739597 1.129729
-2.775253 -8.426109 -1.089268
-2.882463 -8.746479 1.458595
-2.879225 -8.736654 -0.804796
-2.879818 -8.733322 1.787499
-2.881184 -8.732344 -0.481910
-2.868273 -8.688115 2.112290
-2.887751 -8.741987 -0.160702
-2.865823 -8.670524 2.446875
-2.904629 -8.746930 0.160876
-2.906031 -8.740945 0.482747
-2.910529 -8.749375 0.806714
-2.901540 -8.717270 -1.455153
-2.911694 -8.742685 1.131435
-2.968446 -8.907906 -1.152884
-2.914226 -8.740111 1.459221
-2.937434 -8.809715 -0.812466
-2.912149 -8.728805 1.788644
-2.917972 -8.741178 -0.482956
-2.896732 -8.672505 2.110941
-2.920150 -8.737545 -0.160806
-2.896071 -8.660467 2.446875
-2.938967 -8.748111 0.161086
-2.937798 -8.734535 0.482956
-2.944866 -8.750493 0.807759
-2.933212 -8.710834 -1.455779
-2.945996 -8.743756 1.132897
-3.005231 -8.914420 -1.155078
-2.944717 -8.729885 1.459221
-2.962437 -8.782417 -0.810897
-2.948878 -8.737187 1.792460
-2.949745 -8.734723 -0.483166
-2.931352 -8.675264 2.114090
-2.952554 -8.732981 -0.160911
-2.928141 -8.655795 2.448428
-2.969485 -8.737799 0.161086
-2.972130 -8.735571 0.483584
-2.974108 -8.736388 0.807411
-0.357313 -1.049002 -0.175519
-2.979063 -8.740936 1.133873
-3.038251 -8.909513 -1.155809
-2.976448 -8.723293 1.459847
-2.987927 -8.756937 -0.809502
-2.985069 -8.743563 1.795894
-2.983445 -8.733824 -0.483689
-2.961617 -8.664979 2.114090
-2.985607 -8.730189 -0.161051
-2.957087 -8.641866 2.447393
-2.999317 -8.725489 0.161051
-3.003904 -8.728920 0.483794
-3.003937 -8.724069 0.807236
-0.351965 -1.021601 -0.171139
-3.009555 -8.730484 1.133873
-3.073216 -8.910111 -1.157271
-3.012036 -8.727788 1.462350
-3.006128 -8.710669 -0.806191
-3.012366 -8.723811 1.793986
-3.016523 -8.730906 -0.484108
-2.996303 -8.667480 2.117239
-3.018677 -8.727274 -0.161190
-2.989762 -8.638794 2.449464
-3.033697 -8.726298 0.161260
-3.040920 -8.737245 0.484840
-3.037648 -8.722939 0.808108
-3.038706 -8.716175 1.133385
-3.108222 -8.910576 -1.158734
-3.045737 -8.726547 1.463914
-2.945255 -8.438649 -0.781961
-3.042801 -8.713243 1.793986
-3.048957 -8.725981 -0.484422
-3.028468 -8.662488 2.118589
-3.053085 -8.728008 -0.161400
-3.026919 -8.648361 2.455158
-3.066791 -8.723202 0.161400
-3.068749 -8.719041 0.484422
-3.076020 -8.734834 0.810200
-3.071092 -8.711132 1.134116
-3.101667 -8.792965 -1.144841
-3.078153 -8.721450 1.464852
-3.076150 -8.715775 -0.808631
-3.077119 -8.713675 1.796276
-3.078732 -8.713401 -0.484317
-3.059988 -8.655538 2.119489
-3.090201 -8.736151 -0.161749
-3.060311 -8.646850 2.457746
-3.101911 -8.725633 0.161644
-3.099834 -8.710157 0.484526
-3.107828 -8.727797 0.810548
-3.106146 -8.713448 1.135822
-3.110569 -8.716233 1.465791
-3.111242 -8.718119 -0.809851
-3.110817 -8.712127 1.798184
-3.113161 -8.713886 -0.484945
-3.090838 -8.646640 2.119939
-3.114616 -8.708364 -0.161435
-3.095032 -8.648847 2.461369
-3.134379 -8.720398 0.161749
-3.135629 -8.714318 0.485364
-3.140975 -8.724393 0.811246
-0.383600 -1.064907 -0.179274
-3.142601 -8.719359 1.138016
-3.142316 -8.709040 1.466417
-2.716320 -7.528378 -0.700209
-3.143876 -8.708600 1.799711
-3.122988 -8.641295 2.121288
-3.147036 -8.703081 -0.161539
-3.125204 -8.637990 2.461369
-3.164118 -8.707524 0.161714
-3.170808 -8.716457 0.486096
-3.170728 -8.711504 0.811071
-0.387315 -1.063562 -0.179274
-3.175057 -8.713932 1.138747
-3.176083 -8.707295 1.467981
-2.732343 -7.490774 -0.697595
-3.176275 -8.703106 1.800855
-2.743696 -7.513753 -0.419211
-3.155809 -8.637663 2.123088
-3.182201 -8.705190 -0.161784
-3.160644 -8.641542 2.465510
-3.196561 -8.702058 0.161819
-3.204661 -8.714709 0.486620
-3.205933 -8.713471 0.812292
-0.391025 -1.062204 -0.179274
-3.201339 -8.691620 1.137285
-2.793060 -7.579067 -0.991773
-3.205773 -8.694302 1.467668
-2.757784 -7.479321 -0.697420
-3.209353 -8.699333 1.802382
-2.755384 -7.464783 -0.417013
-3.194041 -8.648531 2.128487
-3.216035 -8.703407 -0.161958
-3.193471 -8.637705 2.467581
-3.231790 -8.703969 0.162063
-3.232975 -8.697854 0.486306
-3.240496 -8.713432 0.813337
-0.386464 -1.038616 -0.175519
-3.237199 -8.695274 1.139235
-0.466336 -1.251934 -0.164036
-3.242311 -8.699719 1.470484
-2.787353 -7.478984 -0.698292
-3.241758 -8.693596 1.803527
-2.789104 -7.475704 -0.418164
-3.223530 -8.635503 2.128037
-3.252692 -8.708988 -0.162272
-3.226307 -8.633744 2.469651
-3.267774 -8.707613 0.162342
-3.268233 -8.699603 0.487038
-3.272995 -8.707663 0.813860
-0.408166 -1.085333 -0.183654
-3.271026 -8.693212 1.140453
-0.423144 -1.123968 -0.147462
-3.274052 -8.692044 1.471110
-2.816955 -7.478531 -0.699163
-3.274853 -8.689575 1.805053
-2.818704 -7.475266 -0.418688
-3.254342 -8.626022 2.128487
-3.283779 -8.699451 -0.162307
-3.261885 -8.636889 2.473793
-3.300986 -8.703631 0.162482
-3.301416 -8.695610 0.487457
-3.304078 -8.698047 0.814035
-2.925772 -7.698102 -1.304351
-3.304879 -8.691017 1.141672
-0.425653 -1.118774 -0.146974
-3.306481 -8.686103 1.472049
-2.852966 -7.494721 -0.701604
-3.310057 -8.690933 1.807724
-2.858295 -7.500842 -0.420676
-3.292762 -8.636460 2.133886
-3.314126 -8.687936 -0.162307
-3.292702 -8.627254 2.474310
-3.325622 -8.677118 0.162203
-3.336757 -8.697086 0.488190
-3.337990 -8.695761 0.814906
-3.339469 -8.690547 1.143134
-0.429555 -1.117281 -0.146974
-3.341747 -8.687413 1.474239
-3.337623 -8.676693 -0.813337
-3.337553 -8.671998 1.806198
-3.351686 -8.704186 -0.488818
-3.324992 -8.630369 2.135236
-3.348747 -8.687510 -0.162517
-3.320016 -8.608498 2.472239
-3.360945 -8.678511 0.162447
-3.369260 -8.690972 0.488504
-3.374086 -8.698916 0.816301
-3.368347 -8.675136 1.142647
-0.437766 -1.126877 -0.148437
-3.374913 -8.683060 1.475490
-3.375107 -8.683559 -0.815080
-3.368516 -8.662125 1.806580
-3.378428 -8.683127 -0.488295
-3.355097 -8.618711 2.135236
-3.384132 -8.688811 -0.162761
-3.354255 -8.607656 2.475345
-3.395591 -8.677898 0.162656
-3.398121 -8.675440 0.488295
-3.408066 -8.696362 0.817172
-2.961517 -7.553021 -1.284953
-3.403683 -8.676261 1.144353
-3.422605 -8.720015 -1.150203
-3.409533 -8.682259 1.477367
-3.433799 -8.744052 -0.821879
-3.406629 -8.670413 1.810778
-3.404333 -8.660129 -0.487667
-3.388014 -8.614200 2.137035
-3.414441 -8.676946 -0.162761
-3.387110 -8.603086 2.477416
-3.429537 -8.675291 0.162831
-3.434997 -8.680239 0.489237
-3.439868 -8.688117 0.817521
-3.000959 -7.575694 -1.290584
-3.437605 -8.673554 1.145572
-0.445622 -1.123793 -0.148437
-3.440549 -8.672139 1.477680
-3.501040 -8.824611 -0.830594
-3.436873 -8.658469 1.810778
-3.440439 -8.663042 -0.488504
-3.422381 -8.613188 2.139734
-3.443970 -8.663116 -0.162726
-3.423545 -8.607366 2.482075
-3.466473 -8.679980 0.163145
-3.468983 -8.677468 0.489760
-3.471654 -8.679757 0.817869
-0.446952 -1.116895 -0.190537
-3.473763 -8.676245 1.147522
-0.455447 -1.136973 -0.150387
-3.471533 -8.661912 1.477993
-3.533303 -8.816034 -0.830943
-3.472922 -8.660997 1.813830
-3.476608 -8.665809 -0.489341
-3.458232 -8.615658 2.143334
-3.478659 -8.662175 -0.162936
-3.447809 -8.581022 2.477934
-3.496752 -8.667827 0.163145
-3.500747 -8.669011 0.489969
-3.502678 -8.669433 0.818044
-0.441964 -1.093351 -0.186783
-3.507006 -8.671428 1.148497
-0.454946 -1.124335 -0.148924
-3.508420 -8.666221 1.480809
-3.508729 -8.666986 -0.818044
-3.497237 -8.634265 1.810778
-3.507586 -8.655472 -0.489446
-3.491946 -8.612562 2.145583
-3.508875 -8.649980 -0.162936
-3.485006 -8.586836 2.483110
-3.530005 -8.662976 0.163285
-3.539284 -8.677081 0.491121
-3.535929 -8.664532 0.818741
-0.444285 -1.088144 -0.186157
-3.538754 -8.662807 1.148984
-0.467880 -1.144791 -0.151849
-3.539397 -8.655748 1.481122
-3.543486 -8.665750 -0.819090
-3.535532 -8.641992 1.814975
-3.537776 -8.643176 -0.489446
-3.525681 -8.609338 2.147833
-3.543597 -8.648782 -0.163145
-3.523019 -8.594279 2.488804
-3.565549 -8.663547 0.163529
-3.570312 -8.666520 0.491225
-3.569949 -8.661346 0.819613
-3.038663 -7.368699 -1.262426
-3.572000 -8.657743 1.149959
-0.476418 -1.154160 -0.153312
-3.572605 -8.650645 1.482373
-3.575234 -8.657011 -0.819438
-3.573923 -8.649558 1.819173
-3.574794 -8.647386 -0.490388
-3.554223 -8.593377 2.146933
-3.579117 -8.649294 -0.163389
-3.558909 -8.596210 2.492945
-3.600375 -8.662126 0.163738
-3.604378 -8.663224 0.491749
-3.603990 -8.658030 0.820484
-3.053734 -7.332518 -1.258046
-3.606780 -8.656217 1.151422
-0.469750 -1.126839 -0.149899
-3.608863 -8.652706 1.484876
-3.611567 -8.659189 -0.820833
-3.607118 -8.644277 1.820700
-3.611112 -8.649600 -0.491225
-3.591709 -8.598900 2.151432
-3.612372 -8.644128 -0.163529
-3.594855 -8.597994 2.497086
-3.632911 -8.655038 0.163843
-3.636954 -8.660432 0.492272
-0.493549 -1.174680 -0.247670
-3.634961 -8.647233 0.820658
-3.077779 -7.318171 -1.257420
-3.640824 -8.652721 1.152640
-0.470600 -1.117874 -0.148924
-3.638302 -8.642512 1.485189
-3.656465 -8.681417 -0.824145
-3.646419 -8.653342 1.825279
-3.650595 -8.659026 -0.492481
-3.623217 -8.589902 2.152332
-3.644902 -8.641313 -0.163704
-3.624098 -8.587806 2.497604
-3.663932 -8.648466 0.163948
-3.670280 -8.655038 0.492691
-3.666682 -8.638160 0.821007
-3.092768 -7.286104 -1.253666
-3.674152 -8.651564 1.154103
-0.472751 -1.112653 -0.148437
-3.674632 -8.644302 1.487692
-3.688306 -8.672267 -0.824493
-3.661265 -8.608685 1.818410
-3.681633 -8.652387 -0.492795
-3.658552 -8.593976 2.156381
-3.682880 -8.646935 -0.164053
-3.658597 -8.585766 2.500710
-0.310630 -0.726505 -0.211714
-3.696458 -8.641140 0.164053
-3.705187 -8.653191 0.493319
-2.656039 -6.202982 -1.311621
-3.703936 -8.646099 0.822924
-3.115069 -7.268002 -1.252414
-3.707459 -8.645985 1.155078
-0.478198 -1.114644 -0.148924
-3.711015 -8.645945 1.490195
-3.709185 -8.641681 -0.822750
-3.699814 -8.615694 1.822608
-3.714180 -8.644988 -0.493109
-3.693915 -8.593686 2.159530
-3.714621 -8.637701 -0.164122
-3.689308 -8.574717 2.501227
-0.359105 -0.831835 -0.242772
-3.732150 -8.641034 0.164297
-0.416648 -0.964201 -0.242497
-3.733785 -8.636539 0.493109
-2.665210 -6.164840 -1.305515
-3.739631 -8.645917 0.824145
-3.145911 -7.269775 -1.254605
-3.735250 -8.627523 1.154346
-3.743858 -8.643267 -1.156540
-3.747458 -8.647438 1.492698
-3.771810 -8.703631 -0.829897
-3.731427 -8.606331 1.823371
-3.745128 -8.633802 -0.493214
-3.726218 -8.586102 2.160880
-3.755103 -8.648527 -0.164576
-3.724604 -8.574190 2.504851
-0.362007 -0.830576 -0.242772
-3.770282 -8.646284 0.164646
-0.430920 -0.987747 -0.248796
-3.763908 -8.623452 0.493109
-2.688283 -6.159098 -1.306278
-3.774571 -8.643766 0.825191
-3.185504 -7.291331 -1.260236
-3.772499 -8.630804 1.156540
-0.509829 -1.165843 -0.156237
-3.773661 -8.625257 1.491134
-3.857212 -8.812037 -0.841576
-3.771680 -8.616633 1.828332
-3.783254 -8.638970 -0.494261
-3.758512 -8.578398 2.162230
-3.784466 -8.633535 -0.164541
-3.759168 -8.571751 2.507957
-0.366605 -0.832780 -0.243808
-3.804469 -8.642221 0.164821
-0.434366 -0.986237 -0.248796
-3.801235 -8.626710 0.494051
-2.718760 -6.167168 -1.310095
-3.806227 -8.629874 0.825191
-3.229752 -7.319367 -1.267119
-3.806611 -8.626663 1.157759
-0.489844 -1.109576 -0.148924
-3.811726 -8.630101 1.494262
-3.887949 -8.798519 -0.841576
-3.807205 -8.611729 1.830240
-3.820548 -8.637833 -0.494994
-3.789928 -8.564564 2.162230
-3.821054 -8.634902 -0.164821
-3.785155 -8.549745 2.505368
-0.361665 -0.813841 -0.238631
-3.835306 -8.626392 0.164786
-0.441145 -0.991760 -0.250595
-3.838630 -8.629812 0.494994
-2.759427 -6.200688 -1.319253
-3.840381 -8.625636 0.826062
-3.142752 -7.055424 -1.223318
-3.845475 -8.628972 1.159953
-3.859915 -8.657310 -1.163852
-3.848264 -8.631176 1.496765
-3.891042 -8.723029 -0.835649
-3.838042 -8.600181 1.830622
-3.854748 -8.633563 -0.495517
-3.822186 -8.556620 2.163579
-3.854434 -8.628815 -0.164960
-3.817340 -8.541772 2.506922
-0.381898 -0.851352 -0.250019
-3.867165 -8.620926 0.164925
-0.439644 -0.979625 -0.247896
-3.873640 -8.627293 0.495622
-0.515666 -1.147944 -0.244617
-3.879450 -8.632168 0.827980
-3.147507 -7.003522 -1.216122
-3.875697 -8.619794 1.160440
-3.882903 -8.631789 -1.162146
-3.884854 -8.632102 1.499268
-3.884657 -8.627642 -0.827805
-3.872183 -8.599937 1.833293
-3.884998 -8.624374 -0.495726
-3.853741 -8.551005 2.165379
-3.888640 -8.624423 -0.165135
-3.849518 -8.533677 2.508474
-0.373568 -0.825441 -0.242772
-3.904658 -8.623768 0.165239
-0.451102 -0.995835 -0.252395
-3.905379 -8.617357 0.495831
-0.519469 -1.146228 -0.244617
-3.915459 -8.635588 0.829548
-3.295156 -7.264133 -1.263365
-3.909044 -8.613443 1.161415
-3.991794 -8.791704 -1.185545
-3.916595 -8.622086 1.499894
-3.922993 -8.632168 -0.829548
-3.906240 -8.595304 1.835201
-3.921691 -8.625307 -0.496564
-3.887601 -8.546371 2.167628
-3.935289 -8.647198 -0.165833
-3.890488 -8.544802 2.515721
-0.370167 -0.810009 -0.238631
-3.933074 -8.606449 0.165170
-0.459437 -1.004888 -0.255094
-3.938759 -8.610937 0.496250
-3.947913 -8.622990 0.829723
-3.341502 -7.295110 -1.270874
-3.944046 -8.610574 1.162877
-4.019151 -8.770497 -1.184570
-3.946669 -8.608361 1.499894
-4.036998 -8.801329 -0.847154
-3.944268 -8.595204 1.838254
-3.956612 -8.618135 -0.496982
-3.930287 -8.556857 2.173927
-3.959606 -8.620688 -0.165588
-3.925938 -8.543458 2.519345
-0.368138 -0.798187 -0.235525
-3.977996 -8.621028 0.165728
-0.456583 -0.989043 -0.251495
-3.981351 -8.624336 0.497820
-1.274283 -2.759065 -0.590745
-3.983001 -8.620009 0.830769
-3.988079 -8.623086 1.166533
-4.064608 -8.784534 -1.188470
-3.985819 -8.614253 1.503335
-4.096153 -8.848658 -0.853080
-3.984148 -8.602761 1.842833
-3.990030 -8.611520 -0.497401
-3.963411 -8.550158 2.175727
-3.988832 -8.604999 -0.165554
-3.966303 -8.552485 2.526074
-0.380704 -0.817914 -0.241737
-4.005719 -8.605975 0.165693
-0.464796 -0.998123 -0.254195
-4.014803 -8.617628 0.498238
-1.291370 -2.770616 -0.594179
-4.013069 -8.606052 0.830769
-3.531333 -7.572966 -1.323436
-4.020847 -8.618810 1.167752
-4.085320 -8.753017 -1.186033
-4.022550 -8.614606 1.505838
-4.128703 -8.837916 -0.853429
-4.009330 -8.582388 1.841307
-4.021947 -8.605478 -0.497820
-3.999171 -8.552855 2.179776
-4.022235 -8.598269 -0.165693
-3.992857 -8.531590 2.524004
-0.388341 -0.827139 -0.244843
-4.039986 -8.600990 0.165868
-0.464962 -0.989440 -0.252395
-4.051658 -8.618021 0.499076
-1.293033 -2.750328 -0.590745
-4.051760 -8.614333 0.832860
-3.224679 -6.852794 -1.199540
-4.045836 -8.593945 1.166290
-4.136995 -8.783600 -1.192126
-4.057646 -8.611235 1.507716
-4.045961 -8.582545 1.844360
-4.053666 -8.595000 -0.498029
-4.031495 -8.544130 2.181125
-4.058199 -8.596834 -0.165937
-4.034164 -8.542055 2.531250
-0.392880 -0.829270 -0.245878
-4.075980 -8.599484 0.166112
-0.468413 -0.987811 -0.252395
-4.078292 -8.596608 0.498657
-1.300101 -2.740476 -0.589600
-4.086076 -8.609137 0.833732
-3.312975 -6.977112 -1.223318
-4.087734 -8.604874 1.169702
-4.131841 -8.693805 -1.181889
-4.091076 -8.604154 1.508967
-4.028777 -8.473129 -0.820833
-4.080111 -8.577236 1.846268
-4.087933 -8.589816 -0.498552
-4.061297 -8.530005 2.181125
-4.091623 -8.589837 -0.166077
-4.068110 -8.536642 2.533839
-0.407437 -0.852295 -0.253125
-4.112012 -8.597833 0.166356
-0.475223 -0.993201 -0.254195
-4.113449 -8.593128 0.499285
-4.118685 -8.600213 0.834255
-1.185556 -2.474447 -0.434575
-4.117745 -8.590552 1.169702
-4.120228 -8.588039 1.508654
-4.112574 -8.568251 1.847413
-4.127402 -8.595299 -0.499704
-4.091045 -8.515777 2.181125
-4.125048 -8.582711 -0.166217
-4.102909 -8.532834 2.536944
-0.398660 -0.826507 -0.245878
-4.144607 -8.588829 0.166461
-0.482076 -0.998556 -0.255994
-4.152106 -8.596703 0.500332
-0.574643 -1.189765 -0.256829
-4.151281 -8.591165 0.834778
-1.186449 -2.454287 -0.431759
-4.155486 -8.592209 1.171896
-1.184499 -2.448073 -0.333922
-4.156206 -8.586051 1.510844
-1.207512 -2.494524 -0.242467
-4.155294 -8.580348 1.853137
-4.126698 -8.513719 2.184275
-4.164578 -8.588054 -0.166601
-4.134354 -8.521938 2.537980
-0.408305 -0.839007 -0.250019
-4.178064 -8.581501 0.166601
-0.483852 -0.993363 -0.255094
-4.187339 -8.592928 0.500960
-0.568472 -1.166574 -0.252250
-4.182992 -8.580204 0.835126
-1.164700 -2.387990 -0.420809
-4.189806 -8.586572 1.173114
-1.369815 -2.806052 -0.383401
-4.193087 -8.585691 1.513347
-1.258180 -2.576228 -0.250834
-4.177463 -8.549914 1.849702
-1.233212 -2.522870 -0.147169
-4.163239 -8.513268 2.187874
-4.198046 -8.580649 -0.166740
-4.164076 -8.507455 2.537980
-0.394203 -0.802895 -0.239666
-4.209757 -8.570454 0.166670
-0.482160 -0.981174 -0.252395
-4.223477 -8.590806 0.501693
-0.579470 -1.178677 -0.255302
-4.219951 -8.579852 0.836521
-1.165180 -2.367958 -0.417993
-4.222383 -8.577237 1.173846
-1.365569 -2.772760 -0.379501
-4.226523 -8.578089 1.514599
-1.285658 -2.609352 -0.254495
-4.220303 -8.561695 1.855427
-1.231411 -2.497055 -0.145913
-4.198104 -8.509170 2.190573
-4.233283 -8.576701 -0.166950
-4.203156 -8.511921 2.543674
-0.405578 -0.818825 -0.244843
-4.248527 -8.573625 0.167020
-0.487313 -0.982977 -0.253295
-4.255214 -8.579590 0.501902
-0.585325 -1.180165 -0.256066
-4.256074 -8.577562 0.837741
-1.175194 -2.367415 -0.418619
-4.259362 -8.576670 1.175796
-1.346092 -2.709310 -0.371458
-4.264355 -8.579205 1.517415
-1.319589 -2.654804 -0.259375
-4.254533 -8.555699 1.857335
-1.230334 -2.473070 -0.144761
-4.233860 -8.506677 2.193723
-4.270327 -8.576193 -0.167229
-4.236289 -8.504114 2.545744
-0.410161 -0.820861 -0.245878
-4.290945 -8.583784 0.167508
-0.488998 -0.977784 -0.252395
-4.287815 -8.570044 0.502216
-0.582414 -1.164068 -0.253013
-4.292230 -8.575127 0.838961
-1.182567 -2.361531 -0.418306
-4.291053 -8.565299 1.176283
-1.344867 -2.683299 -0.368533
-4.294276 -8.564267 1.517415
-1.325276 -2.643058 -0.258678
-4.295817 -8.563610 1.862296
-1.234480 -2.459836 -0.144238
-4.267899 -8.500552 2.195972
-4.304725 -8.570168 -0.167403
-4.269417 -8.496179 2.547815
-0.402589 -0.798723 -0.239666
-4.329885 -8.586608 0.167857
-0.497674 -0.986511 -0.255094
-4.324903 -8.569288 0.503053
-0.600627 -1.190071 -0.259119
-4.327527 -8.570762 0.840007
-1.181006 -2.337995 -0.414864
-4.334353 -8.576844 1.179939
-1.383783 -2.737049 -0.376576
-4.329492 -8.559802 1.519292
-1.292229 -2.554854 -0.250486
-4.331889 -8.560824 1.864967
-1.231332 -2.432346 -0.142877
-4.315156 -8.520372 2.204970
-4.333711 -8.553307 -0.167369
-4.301669 -8.486393 2.549368
-0.414130 -0.814533 -0.244843
-4.352580 -8.557183 0.167578
-0.504650 -0.991715 -0.256894
-4.362945 -8.570157 0.503995
-0.597652 -1.173971 -0.256066
-1.179295 -2.314497 -0.411423
-4.367872 -8.568737 1.180914
-1.204845 -2.362603 -0.325635
-4.364734 -8.555194 1.521169
-1.217838 -2.387050 -0.234449
-4.374240 -8.570131 1.870310
-1.234365 -2.417361 -0.142249
-4.349304 -8.513935 2.207220
-4.338300 -8.485087 2.553509
-0.409919 -0.799331 -0.240702
-4.387900 -8.552613 0.167787
-0.504549 -0.983012 -0.255094
-4.398308 -8.565536 0.504623
-0.616095 -1.199821 -0.262172
-1.201738 -2.339334 0.230091
-1.181949 -2.299825 -0.409545
-4.395941 -8.549908 1.180427
-1.389236 -2.700843 -0.372920
-4.404511 -8.559227 1.524610
-1.278126 -2.483765 -0.244385
-4.432883 -8.610668 1.882522
-1.234566 -2.397057 -0.141307
-4.385242 -8.510828 2.210369
-1.323950 -2.568407 -0.050437
-4.375863 -8.485345 2.558168
-0.421582 -0.815054 -0.245878
-4.428756 -8.558556 0.168206
-0.506186 -0.977784 -0.254195
-4.421751 -8.537716 0.503891
-0.629308 -1.215096 -0.265988
-1.216313 -2.347508 0.231311
-1.190879 -2.297439 -0.409858
-4.435811 -8.553894 1.183108
-1.200284 -2.313607 -0.320029
-4.438002 -8.550815 1.525862
-1.329008 -2.560634 -0.252403
-4.461103 -8.591658 1.881758
-1.235559 -2.378554 -0.140470
-4.414924 -8.495469 2.210369
-1.321839 -2.542479 -0.050019
-4.412585 -8.483730 2.562309
-0.443785 -0.851414 -0.257266
-4.462094 -8.557013 0.168451
-0.509255 -0.976189 -0.254195
-4.455944 -8.537948 0.504728
-0.627672 -1.202670 -0.263698
-1.230137 -2.356039 0.232532
-1.195347 -2.288433 -0.408920
-4.467259 -8.548713 1.184326
-1.202948 -2.301028 -0.318810
-4.465759 -8.538579 1.526175
-1.283490 -2.454047 -0.242293
-4.489893 -8.581079 1.882522
-1.240247 -2.369352 -0.140156
-4.441592 -8.481557 2.210369
-1.311260 -2.502887 -0.049321
-4.446391 -8.483514 2.566450
-0.423382 -0.805400 -0.243808
-4.497521 -8.552004 0.168660
-0.510845 -0.970956 -0.253295
-0.639181 -1.214370 -0.266751
-1.238353 -2.351730 0.232532
-1.204249 -2.285995 -0.409233
-4.506328 -8.550629 1.186764
-1.210973 -2.296815 -0.318810
-4.503831 -8.538664 1.528991
-1.319935 -2.502420 -0.247522
-4.519820 -8.565353 1.882522
-1.249443 -2.366774 -0.140260
-4.482092 -8.486679 2.215768
-1.301305 -2.462933 -0.048622
-4.479589 -8.474773 2.568520
-0.424382 -0.800504 -0.242772
-4.526408 -8.534487 0.168625
-0.521538 -0.982939 -0.256894
-0.639735 -1.205195 -0.265225
-1.254030 -2.361471 0.233926
-1.204807 -2.267821 -0.406730
-4.542670 -8.547117 1.188470
-1.218051 -2.290821 -0.318566
-4.541959 -8.538587 1.531806
-1.316498 -2.474930 -0.245256
-4.541391 -8.533927 1.879087
-1.242679 -2.334191 -0.138586
-4.517186 -8.481301 2.218467
-1.303312 -2.446022 -0.048378
-4.514596 -8.469314 2.571626
-0.430816 -0.805832 -0.244843
-0.521288 -0.974239 -0.255094
-1.276249 -2.384191 0.141726
-0.638378 -1.192570 -0.262935
-1.266969 -2.365861 0.234798
-4.573413 -8.532958 1.188714
-1.320784 -2.463252 -0.343184
-4.577339 -8.533124 1.533684
-1.224355 -2.282456 -0.226605
-4.580434 -8.535322 1.882903
-1.237594 -2.305203 -0.137120
-4.551375 -8.474067 2.220717
-1.304270 -2.427365 -0.048099
-4.548706 -8.462010 2.574214
-0.446461 -0.828130 -0.252090
-1.320422 -2.448194 0.048553
-0.522835 -0.968983 -0.254195
-1.270334 -2.353358 0.140156
-0.639014 -1.183312 -0.261408
-1.272379 -2.356165 0.234275
-4.609780 -8.529165 1.190420
-1.289719 -2.385287 -0.332947
-4.613675 -8.529259 1.535874
-1.230816 -2.274449 -0.226256
-4.615428 -8.525382 1.884430
-1.240327 -2.290114 -0.136492
-4.579997 -8.456415 2.220267
-1.302257 -2.403458 -0.047715
-4.586502 -8.461367 2.578873
-0.440264 -0.809517 -0.246913
-1.268221 -2.330920 0.046319
-0.530110 -0.973907 -0.255994
-1.256982 -2.308343 0.137748
-0.617049 -1.132689 -0.250723
-1.279100 -2.347986 0.233926
-0.629566 -1.155185 -0.208371
-4.648610 -8.526156 1.192370
-1.218608 -2.234156 -0.312473
-4.648689 -8.519226 1.537125
-1.335565 -2.446549 -0.243862
-4.635352 -8.487731 1.879850
-1.241051 -2.271531 -0.135655
-4.624042 -8.463513 2.226566
-1.307221 -2.391649 -0.047575
-4.625824 -8.459754 2.583532
-0.443228 -0.807898 -0.246913
-1.273869 -2.320997 0.046214
-0.539303 -0.982207 -0.258694
-1.268877 -2.310944 0.138167
-0.622890 -1.133970 -0.251486
-1.285778 -2.339790 0.233577
-0.633795 -1.152870 -0.208371
-4.691308 -8.529934 1.195295
-1.233095 -2.242064 -0.314179
-4.684114 -8.513330 1.539002
-1.284529 -2.333655 -0.233054
-4.661161 -8.464622 1.878324
-1.248010 -2.265436 -0.135550
-4.662961 -8.464388 2.231065
-1.296257 -2.352045 -0.046877
-4.654392 -8.441865 2.583014
-0.449644 -0.813186 -0.248984
-1.279623 -2.313260 0.046144
-0.536896 -0.970182 -0.255994
-1.271698 -2.297986 0.137644
-0.616187 -1.113004 -0.247288
-1.268432 -2.290197 0.229045
-0.606022 -1.093742 -0.198046
-4.729193 -8.531692 1.197732
-1.244373 -2.244908 -0.315154
-4.721899 -8.515027 1.542131
-1.240068 -2.235301 -0.223642
-4.687300 -8.445683 1.877560
-1.254546 -2.259538 -0.135445
-4.705194 -8.474436 2.237813
-1.305020 -2.349482 -0.046912
-4.694560 -8.448336 2.589743
-0.448576 -0.804940 -0.246913
-1.290208 -2.314244 0.046249
-0.542958 -0.973502 -0.257344
-1.290416 -2.312718 0.138795
-0.626570 -1.122956 -0.249960
-1.259511 -2.256403 0.226082
-0.622166 -1.114147 -0.202113
-4.758428 -8.517695 1.197976
-1.306434 -2.337589 -0.328804
-4.761233 -8.515734 1.545260
-1.289283 -2.305955 -0.231137
-4.722950 -8.443802 1.880614
-1.254229 -2.241422 -0.134608
-4.735697 -8.459661 2.238263
-1.315168 -2.348402 -0.046982
-4.735352 -8.452122 2.595955
-0.445705 -0.793265 -0.243808
-1.296319 -2.306240 0.046179
-0.550173 -0.978396 -0.259144
-1.294565 -2.301237 0.138376
-0.626636 -1.113917 -0.248433
-1.272266 -2.260674 0.226954
-0.630897 -1.120575 -0.203678
-4.794951 -8.513141 1.199682
-1.377928 -2.445428 -0.344647
-4.799660 -8.514550 1.548076
-1.320805 -2.343096 -0.235320
-4.767825 -8.454625 1.886719
-1.253213 -2.221375 -0.133666
-4.770946 -8.453261 2.240963
-1.315492 -2.329866 -0.046703
-4.771478 -8.447315 2.599579
-0.459898 -0.811875 -0.250019
-1.304362 -2.301701 0.046179
-0.554546 -0.978165 -0.259594
-1.301604 -2.294967 0.138272
-0.624709 -1.101477 -0.246144
-1.287032 -2.268350 0.228174
-0.641630 -1.130392 -0.205868
-4.832480 -8.510160 1.201632
-1.251144 -2.202411 -0.311011
-4.829352 -8.497745 1.548076
-1.327415 -2.334775 -0.234972
-4.802160 -8.446465 1.888628
-1.262934 -2.220459 -0.133875
-4.808134 -8.450106 2.244562
-1.317681 -2.314833 -0.046493
-4.809539 -8.445717 2.604237
-0.447537 -0.783345 -0.241737
-1.314372 -2.300606 0.046249
-0.561825 -0.982990 -0.261393
-1.311589 -2.293877 0.138481
-0.626792 -1.095772 -0.245380
-1.299295 -2.270535 0.228871
-0.634973 -1.109175 -0.202426
-4.870047 -8.507022 1.203582
-1.261784 -2.203198 -0.311742
-4.864878 -8.491118 1.549953
-1.318714 -2.300741 -0.232009
-4.836992 -8.435619 1.890154
-1.270071 -2.214083 -0.133771
-4.845863 -8.444258 2.247711
-1.317791 -2.296344 -0.046214
-4.838992 -8.428876 2.604237
-0.457982 -0.795171 -0.245878
-1.318802 -2.288843 0.046109
-0.563478 -0.977548 -0.260493
-1.320986 -2.290785 0.138586
-0.636498 -1.103782 -0.247670
-1.309204 -2.269437 0.229220
-0.632917 -1.096686 -0.200549
-4.902186 -8.490834 1.203825
-1.324456 -2.293103 -0.325147
-4.904861 -8.488624 1.552769
-1.302814 -2.254721 -0.227825
-4.874269 -8.432281 1.893207
-1.282791 -2.218281 -0.134294
-4.881164 -8.437411 2.250410
-1.323194 -2.286306 -0.046109
-4.881469 -8.431147 2.610449
-0.466575 -0.803591 -0.248984
-1.335823 -2.299788 0.046423
-0.562970 -0.968835 -0.258694
-1.329978 -2.287886 0.138690
-0.646267 -1.111737 -0.249960
-1.320123 -2.270020 0.229743
-0.640714 -1.101300 -0.201800
-4.934789 -8.478819 1.204557
-1.310479 -2.250724 -0.319785
-4.945397 -8.490229 1.556210
-1.336749 -2.294923 -0.232357
-4.913556 -8.432178 1.897023
-1.282479 -2.199986 -0.133457
-4.919422 -8.435472 2.254459
-1.331166 -2.281673 -0.046109
-4.907948 -8.409051 2.608896
-0.465474 -0.795288 -0.246913
-1.350915 -2.307190 0.046668
-0.566349 -0.966864 -0.258694
-1.331897 -2.272891 0.138062
-0.652129 -1.112862 -0.250723
-1.334084 -2.275712 0.230788
-0.650551 -1.109281 -0.203678
-4.971387 -8.473527 1.206263
-1.342443 -2.287224 -0.325635
-4.985005 -8.489948 1.559339
-1.322558 -2.252444 -0.228522
-4.947934 -8.423439 1.898931
-1.294198 -2.202384 -0.133875
-4.948837 -8.418248 2.254459
-1.331013 -2.263223 -0.045830
-4.945106 -8.405189 2.613037
-0.472174 -0.800314 -0.248984
-1.376240 -2.331737 0.047261
-0.577647 -0.978306 -0.262293
-1.338808 -2.266508 0.137958
-0.654013 -1.107198 -0.249960
-1.347088 -2.279617 0.231660
-0.654419 -1.107003 -0.203678
-5.016092 -8.481751 1.209919
-1.299879 -2.197100 -0.313448
-5.015617 -8.474195 1.559652
-1.305042 -2.204949 -0.224165
-4.991309 -8.429768 1.904274
-1.297807 -2.190979 -0.133457
-4.984152 -8.410983 2.257159
-1.332786 -2.248243 -0.045621
-4.984272 -8.404490 2.618213
-0.482864 -0.811944 -0.253125
-1.392550 -2.340667 0.047540
-0.577072 -0.969585 -0.260493
-1.353467 -2.274070 0.138690
-0.649838 -1.091413 -0.246907
-1.347900 -2.262918 0.230440
-0.660302 -1.108106 -0.204303
-5.056850 -8.482945 1.212600
-1.311224 -2.199598 -0.314423
-5.052798 -8.472786 1.562468
-1.311710 -2.198669 -0.223990
-5.030766 -8.429152 1.908090
-1.307494 -2.189865 -0.133666
-5.029000 -8.422853 2.264807
-1.336133 -2.236944 -0.045481
-5.020043 -8.401183 2.622355
-0.477611 -0.797082 -0.248984
-1.392080 -2.322315 0.047261
-0.584293 -0.974351 -0.262293
-1.369218 -2.283272 0.139528
-0.665574 -1.109455 -0.251486
-1.359498 -2.265270 0.231137
-0.661939 -1.102523 -0.203678
-5.096196 -8.484849 1.215281
-1.324643 -2.205448 -0.315885
-5.090023 -8.471222 1.565283
-1.372370 -2.283104 -0.233054
-5.056666 -8.409058 1.907327
-1.308572 -2.175248 -0.133038
-5.069963 -8.427837 2.270656
-1.340450 -2.227360 -0.045376
-5.062819 -8.409316 2.630119
-0.480251 -0.795494 -0.248984
-1.396672 -2.312550 0.047156
-0.584497 -0.967405 -0.260943
-1.374080 -2.273351 0.139214
-0.667218 -1.103881 -0.250723
-1.372157 -2.269274 0.232009
-0.667636 -1.103702 -0.204303
-5.122250 -8.464506 1.214794
-1.337474 -2.209302 -0.317104
-5.128772 -8.468609 1.568099
-1.370644 -2.263203 -0.231486
-5.091646 -8.403996 1.909998
-1.309566 -2.160649 -0.132410
-5.101371 -8.413422 2.271556
-1.349254 -2.224378 -0.045411
-5.102164 -8.408107 2.635296
-0.485034 -0.797113 -0.250019
-1.403695 -2.305953 0.047121
-0.591925 -0.972016 -0.262743
-1.390320 -2.282186 0.140051
-0.671068 -1.101545 -0.250723
-1.384217 -2.271275 0.232706
-0.669428 -1.097992 -0.203678
-5.163136 -8.465217 1.217475
-1.340008 -2.196146 -0.315885
-5.169621 -8.469203 1.571541
-1.343241 -2.200584 -0.225559
-5.137321 -8.412981 1.916104
-1.312936 -2.149247 -0.131991
-5.138838 -8.408865 2.275155
-1.350752 -2.209418 -0.045202
-5.139547 -8.403431 2.639437
-0.503972 -0.821764 -0.258301
-1.404416 -2.289108 0.046877
-0.594295 -0.968283 -0.262293
-1.412908 -2.301148 0.141516
-0.674908 -1.099196 -0.250723
-1.400479 -2.280012 0.234100
-0.679462 -1.105746 -0.205555
-5.202008 -8.462363 1.219669
-1.350785 -2.196528 -0.316617
-5.203295 -8.457835 1.572792
-1.353003 -2.199275 -0.225908
-5.172832 -8.405029 1.918394
-1.318336 -2.141249 -0.131782
-5.178380 -8.407469 2.279654
-1.351114 -2.192772 -0.044957
-5.179999 -8.403529 2.645131
-0.494649 -0.800281 -0.252090
-1.415553 -2.289294 0.046982
-0.597671 -0.966203 -0.262293
-1.418830 -2.292805 0.141307
-0.678741 -1.096834 -0.250723
-1.408429 -2.275109 0.234100
-0.683317 -1.103368 -0.205555
-5.240926 -8.459339 1.221862
-1.361582 -2.196862 -0.317348
-5.241113 -8.453053 1.575295
-1.353322 -2.182686 -0.224688
-5.210418 -8.400268 1.921447
-1.328961 -2.141726 -0.132096
-5.211804 -8.395965 2.281454
-1.362979 -2.194837 -0.045097
-5.210321 -8.387036 2.645648
-0.489268 -0.785431 -0.247949
-1.430939 -2.296219 0.047226
-0.609288 -0.977340 -0.265892
-1.429996 -2.292922 0.141621
-0.690877 -1.107785 -0.253776
-1.424799 -2.283702 0.235495
-0.689257 -1.104327 -0.206181
-5.284089 -8.462884 1.225031
-1.371345 -2.195463 -0.317835
-5.280010 -8.449781 1.578111
-1.352487 -2.164431 -0.223293
-5.245950 -8.392019 1.923736
-1.339606 -2.142154 -0.132410
-5.242116 -8.379372 2.281904
-1.371693 -2.191761 -0.045132
-5.239564 -8.368799 2.645648
-0.496116 -0.790263 -0.250019
-1.434691 -2.284436 0.047087
-0.596108 -0.948806 -0.258694
-5.306643 -8.443138 0.522627
-0.692650 -1.102042 -0.253013
-1.440186 -2.290521 0.236715
-0.692055 -1.100243 -0.205868
-5.314656 -8.446069 1.225275
-1.410725 -2.241062 -0.325147
-5.316840 -8.443002 1.580301
-1.467265 -2.329978 -0.240898
-5.285676 -8.390266 1.927553
-1.349205 -2.140844 -0.132619
-5.296276 -8.400587 2.292701
-1.371868 -2.175120 -0.044888
-5.281117 -8.370064 2.651860
-0.505347 -0.798146 -0.253125
-1.450943 -2.290736 0.047331
-0.610177 -0.962971 -0.263193
-5.348244 -8.440504 0.523674
-0.696877 -1.099374 -0.253013
-5.353080 -8.441618 0.874521
-0.704740 -1.110922 -0.208371
-5.355556 -8.439008 1.227224
-1.440203 -2.269397 -0.330022
-5.358338 -8.440135 1.583430
-1.416384 -2.230143 -0.231137
-5.326278 -8.383164 1.930605
-1.356344 -2.133962 -0.132515
-5.317621 -8.366317 2.288652
-1.377685 -2.166703 -0.044818
-5.321092 -8.365321 2.656519
-0.507991 -0.796465 -0.253125
-1.471438 -2.306141 0.047750
-0.615464 -0.964228 -0.264093
-5.382652 -8.432823 0.524302
-0.698405 -1.093748 -0.252250
-5.396060 -8.447327 0.876961
-0.712675 -1.115237 -0.209622
-5.395273 -8.439599 1.229905
-1.609173 -2.517162 -0.366827
-5.389490 -8.427311 1.584368
-1.393707 -2.178442 -0.226256
-5.366747 -8.385300 1.935185
-1.364490 -2.131135 -0.132619
-5.360047 -8.371614 2.294951
-1.379470 -2.153703 -0.044643
-5.362350 -8.368776 2.663248
-0.510629 -0.794776 -0.253125
-5.425445 -8.441278 0.175152
-0.616551 -0.958903 -0.263193
-5.423941 -8.432460 0.525453
-0.704153 -1.094728 -0.253013
-5.422965 -8.427711 0.876787
-0.725992 -1.127816 -0.212438
-5.432903 -8.436682 1.232099
-1.357788 -2.107682 -0.307842
-5.426364 -8.420070 1.586558
-1.507102 -2.337668 -0.243339
-5.407290 -8.387258 1.939764
-1.371550 -2.126598 -0.132619
-5.410367 -8.385602 2.303949
-1.389148 -2.152235 -0.044713
-5.397818 -8.359744 2.666354
-0.511439 -0.789657 -0.252090
-5.460316 -8.430679 0.175327
-0.624133 -0.963287 -0.264992
-5.465292 -8.431911 0.526604
-0.711365 -1.097082 -0.254158
-5.462490 -8.421151 0.878181
-0.723669 -1.115205 -0.210561
-5.470964 -8.430988 1.234049
-1.368379 -2.107924 -0.308573
-5.474013 -8.429240 1.591877
-1.386087 -2.133572 -0.222596
-5.440134 -8.370674 1.940528
-1.379335 -2.121557 -0.132619
-5.447441 -8.375517 2.306648
-1.403194 -2.157430 -0.044922
-5.437501 -8.357044 2.671530
-0.524750 -0.804045 -0.257266
-5.501018 -8.425678 0.175641
-0.623396 -0.954467 -0.263193
-5.509267 -8.431888 0.527861
-0.721633 -1.104453 -0.256447
-5.500575 -8.415372 0.879576
-0.729720 -1.115979 -0.211187
-5.506174 -8.417525 1.235024
-1.376096 -2.102895 -0.308573
-5.511363 -8.419037 1.593755
-1.382614 -2.112051 -0.220853
-5.475774 -8.361488 1.942817
-1.380165 -2.106705 -0.131991
-5.489462 -8.376010 2.312047
-1.403417 -2.140567 -0.044678
-5.485047 -8.362905 2.679812
-0.523308 -0.795752 -0.255196
-5.539186 -8.419791 0.175920
-0.627796 -0.953913 -0.263643
-5.540865 -8.415940 0.528070
-0.725484 -1.101927 -0.256447
-5.552929 -8.431065 0.883236
-0.737958 -1.120023 -0.212438
-5.547542 -8.416484 1.237705
-1.373593 -2.083164 -0.306380
-5.559207 -8.427779 1.599073
-1.391075 -2.108875 -0.221027
-5.520066 -8.365264 1.948160
-1.386410 -2.100208 -0.131887
-5.520815 -8.360049 2.312947
-1.413085 -2.138992 -0.044748
-5.520597 -8.353377 2.682918
-0.534619 -0.806803 -0.259337
-5.578487 -8.415404 0.176234
-0.639738 -0.964708 -0.267242
-5.575365 -8.407508 0.528698
-0.727155 -1.096116 -0.255684
-5.591139 -8.424910 0.884631
-0.746234 -1.124023 -0.213690
-5.593359 -8.421874 1.241361
-1.379758 -2.076702 -0.306136
-5.586032 -8.407653 1.598760
-1.413868 -2.127237 -0.223467
-5.553579 -8.352485 1.949686
-1.399264 -2.103671 -0.132410
-5.559679 -8.355328 2.316996
-1.421278 -2.135959 -0.044783
-5.554689 -8.344675 2.686024
-0.515978 -0.772799 -0.248984
-5.615246 -8.410165 0.176514
-0.645098 -0.965822 -0.268142
-5.625761 -8.419548 0.530687
-0.732068 -1.095204 -0.256066
-5.626051 -8.413623 0.885502
-0.758741 -1.134679 -0.216192
-5.630087 -8.416479 1.243311
-1.408717 -2.105111 -0.311011
-5.627432 -8.406160 1.602202
-1.400220 -2.090835 -0.220155
-5.592172 -8.350336 1.953503
-1.404009 -2.095700 -0.132201
-5.586269 -8.335228 2.316546
-1.428725 -2.130985 -0.044783
-5.579481 -8.318815 2.683954
-0.518537 -0.771084 -0.248984
-5.655731 -8.407104 0.176863
-0.649553 -0.965181 -0.268592
-5.665155 -8.414770 0.531629
-0.744467 -1.105798 -0.259119
-5.663938 -8.409793 0.887071
-0.750556 -1.114003 -0.212751
-5.674964 -8.419820 1.246724
-1.388312 -2.059033 -0.304917
-5.673311 -8.411031 1.606895
-1.402690 -2.079573 -0.219458
-5.632267 -8.347037 1.957319
-1.415785 -2.097408 -0.132619
-5.631690 -8.339902 2.323294
-1.441752 -2.134269 -0.044957
-5.623627 -8.321699 2.691200
-0.536397 -0.791659 -0.256231
-5.697384 -8.405518 0.177247
-0.656200 -0.967747 -0.269941
-5.705706 -8.411472 0.532675
-0.741710 -1.093445 -0.256829
-5.702209 -8.403160 0.888466
-0.750002 -1.104839 -0.211499
-5.708781 -8.406528 1.247699
-1.397722 -2.057459 -0.305405
-5.709298 -8.400978 1.608772
-1.421139 -2.091143 -0.221201
-5.665785 -8.333821 1.958845
-1.416358 -2.082545 -0.131991
-5.670633 -8.334694 2.327344
-1.453694 -2.135837 -0.045097
-5.672214 -8.330761 2.700518
-0.539157 -0.789782 -0.256231
-5.736839 -8.400443 0.177561
-0.650779 -0.952578 -0.266342
-5.736160 -8.393153 0.532780
-0.747738 -1.094091 -0.257592
-5.742752 -8.399652 0.890209
-0.759430 -1.110367 -0.213064
-5.744817 -8.396379 1.249161
-1.399290 -2.044377 -0.304186
-5.749749 -8.397298 1.611901
-1.427304 -2.084525 -0.221027
-5.705935 -8.330190 1.962661
-1.430393 -2.087473 -0.132619
-5.704099 -8.321278 2.329143
-1.472449 -2.147241 -0.045446
-5.715464 -8.331619 2.707247
-0.544100 -0.791079 -0.257266
-5.775197 -8.393544 0.177840
-0.659625 -0.958326 -0.268592
-5.776750 -8.389529 0.533827
-0.751553 -1.091474 -0.257592
-5.782209 -8.394320 0.891778
-0.771147 -1.119095 -0.215254
-5.783104 -8.389351 1.251111
-1.410925 -2.046016 -0.305161
-5.784634 -8.385304 1.613465
-1.431178 -2.074611 -0.220504
-5.746130 -8.326381 1.966478
-1.442210 -2.089042 -0.133038
-5.764119 -8.346214 2.341741
-1.481072 -2.143734 -0.045481
-5.752201 -8.322742 2.710871
-0.549059 -0.792350 -0.258301
-5.821548 -8.397986 0.178364
-0.666298 -0.960822 -0.269941
-5.815107 -8.382442 0.534664
-0.757596 -1.092070 -0.258355
-5.818290 -8.383908 0.892823
-0.777302 -1.119642 -0.215880
-5.824809 -8.387047 1.253792
-1.424854 -2.050860 -0.306623
-5.824016 -8.379661 1.616281
-1.458107 -2.097160 -0.223467
-5.790849 -8.328838 1.971820
-1.458617 -2.097112 -0.133875
-5.796557 -8.330841 2.343090
-1.497686 -2.151680 -0.045760
-5.791153 -8.316881 2.715529
-0.554172 -0.793500 -0.259337
-5.855409 -8.384171 0.178503
-0.672996 -0.963283 -0.271291
-5.859204 -8.383375 0.536025
-0.766093 -1.095722 -0.259882
-5.866108 -8.387016 0.895438
-0.780268 -1.115167 -0.215567
-5.868843 -8.387809 1.256961
-1.436558 -2.052379 -0.307598
-5.871359 -8.385170 1.621287
-1.559150 -2.225872 -0.237761
-5.837111 -8.330068 1.977163
-1.473172 -2.101565 -0.134503
-5.847192 -8.338260 2.351188
-1.529298 -2.180821 -0.046493
-5.832353 -8.314013 2.721224
-0.543598 -0.772601 -0.253125
-5.897607 -8.379007 0.178852
-0.677644 -0.962403 -0.271741
-5.898781 -8.377568 0.536967
-0.776697 -1.102672 -0.262172
-5.910268 -8.387662 0.897704
-0.789847 -1.120509 -0.217131
-5.899546 -8.366241 1.256961
-1.531035 -2.170381 -0.326122
-5.910841 -8.379153 1.624103
-1.541638 -2.184602 -0.233926
-5.872944 -8.319266 1.979453
-1.487412 -2.106198 -0.135131
-5.884133 -8.328939 2.354338
-5.922608 -8.383400 -0.179166
-5.862454 -8.295181 2.721741
-0.548526 -0.773851 -0.254160
-5.938081 -8.377349 0.179236
-0.678577 -0.956972 -0.270841
-5.934921 -8.366700 0.537595
-0.778269 -1.096751 -0.261408
-5.947584 -8.378352 0.898924
-0.785554 -1.106608 -0.214941
-5.942199 -8.367673 1.260129
-1.693426 -2.383763 -0.359027
-5.952640 -8.376181 1.627544
-1.601204 -2.252281 -0.241770
-5.907325 -8.309344 1.981742
-1.497861 -2.106137 -0.135445
-5.913980 -8.312556 2.355237
-5.962269 -8.377339 -0.179481
-5.904819 -8.293550 2.727953
-0.553334 -0.775173 -0.255196
-5.976584 -8.369589 0.179515
-0.690975 -0.967283 -0.274440
-5.980348 -8.368682 0.539060
-0.781901 -1.094164 -0.261408
-5.985764 -8.373171 0.900493
-0.796306 -1.113500 -0.216818
-5.985232 -8.366254 1.263054
-6.020195 -8.412023 -1.270122
-5.984142 -8.358563 1.628170
-1.622582 -2.266399 -0.243862
-5.956873 -8.317403 1.988612
-5.995221 -8.367865 -0.539479
-5.947500 -8.298200 2.357037
-5.999634 -8.367850 -0.179725
-5.940487 -8.282309 2.731059
-0.551525 -0.766963 -0.253125
-6.020944 -8.369779 0.179969
-0.689794 -0.958538 -0.272641
-6.022360 -8.365586 0.540212
-0.794892 -1.104175 -0.264461
-6.024270 -8.365159 0.901888
-5.908460 -8.201330 -1.600950
-6.035291 -8.374297 1.267441
-6.092476 -8.450536 -1.279141
-6.028305 -8.358452 1.632237
-6.042928 -8.378728 -0.903805
-5.999652 -8.315665 1.993191
-6.044265 -8.374418 -0.541259
-5.984415 -8.288448 2.360187
-6.051051 -8.377657 -0.180388
-5.989727 -8.289707 2.740376
-0.565532 -0.780678 -0.258301
-6.058337 -8.360045 0.180214
-0.695424 -0.959280 -0.273540
-6.066768 -8.365532 0.541573
-0.805657 -1.110930 -0.266751
-6.069812 -8.366657 0.904328
-5.927771 -8.167867 -1.598448
-6.074982 -8.367638 1.269635
-6.140602 -8.454917 -1.283041
-6.070216 -8.354937 1.635679
-6.135680 -8.441941 -0.913044
-6.033260 -8.301023 1.994717
-6.143931 -8.450193 -0.547539
-6.030505 -8.291146 2.366935
-6.137908 -8.435717 -0.182098
-6.031134 -8.285930 2.746070
-0.579780 -0.794203 -0.263478
-6.145257 -8.417988 0.181924
-0.698768 -0.956846 -0.273540
-6.110069 -8.363659 0.542829
-0.807407 -1.104799 -0.265988
-6.112196 -8.360439 0.906071
