# This PCD file was generated using the MATLAB® pcwrite function
# from Computer Vision Toolbox®.
# .PCD v.7 - Point Cloud Data file format
VERSION .7
FIELDS x y z
SIZE 4 4 4
TYPE F F F
COUNT 1 1 1
WIDTH 1667
HEIGHT 1
VIEWPOINT 0 0 0 1 0 0 0
POINTS 1667
DATA ascii
5.029245 -6.968093 1.055145
4.274231 -5.924189 -0.896958
6.224742 -8.630817 1.685425
5.877433 -8.149261 -0.879053
5.356087 -7.429130 1.780248
5.806036 -8.056193 -0.520429
5.054200 -7.015560 1.996216
5.785762 -8.033973 -0.172814
2.813539 -3.918338 -1.292542
5.735821 -7.991066 0.171697
3.161669 -4.406417 -1.252078
5.755148 -8.023903 0.517498
3.615824 -5.041229 -1.205913
5.524944 -7.705789 0.829548
4.222113 -5.890865 -1.147916
5.751753 -8.028041 1.212600
4.228098 -5.903567 -0.891596
5.495430 -7.675936 1.495201
5.780521 -8.074146 -0.868768
5.352973 -7.479712 1.787880
5.766259 -8.060167 -0.519382
5.048950 -7.060106 2.003864
5.758845 -8.055746 -0.172849
5.676673 -7.943729 2.616143
2.802086 -3.931282 -1.293578
5.751987 -8.072926 0.173023
3.146269 -4.417426 -1.252078
5.693748 -7.994139 0.514358
3.590234 -5.042625 -1.203242
5.658597 -7.950659 0.853778
4.185492 -5.883034 -1.143536
4.918351 -6.915678 1.041983
4.191362 -5.895640 -0.888184
5.679404 -7.988745 1.552456
5.697492 -8.020115 1.912288
5.763528 -8.116071 -0.521685
7.001724 -9.863316 2.792542
5.757566 -8.110673 -0.173617
2.787230 -3.939462 -1.293060
3.134979 -4.432608 -1.253427
5.724611 -8.097137 0.519696
3.578276 -5.063143 -1.205150
5.675645 -8.033826 0.860576
4.145444 -5.867840 -1.137904
4.916003 -6.961137 1.046370
4.160340 -5.893289 -0.885746
5.145180 -7.293757 -0.780915
5.661812 -8.026129 1.909235
6.984267 -9.904499 -0.635149
6.962240 -9.876923 2.789843
6.992780 -9.923925 -0.211907
5.496761 -7.803715 2.557650
2.777483 -3.953425 -1.294613
3.126205 -4.453094 -1.256127
5.175440 -7.374846 0.472175
3.565977 -5.081409 -1.206676
5.406400 -7.706815 0.823622
4.118132 -5.872571 -1.136027
4.176196 -5.959797 -0.893546
6.152751 -8.783775 1.698566
5.117403 -7.308409 -0.780567
6.937053 -9.910819 -0.633998
5.539049 -7.916461 2.230615
6.929444 -9.907308 -0.211035
2.759660 -3.958824 -1.293060
3.106185 -4.457584 -1.254327
3.549572 -5.097667 -1.207439
5.680884 -8.161557 0.869989
4.078528 -5.861681 -1.131021
5.694939 -8.184795 1.224300
4.178037 -6.006932 -0.898421
4.872608 -7.008153 1.351907
5.122562 -7.370400 -0.785273
5.980612 -8.608178 2.037459
6.879035 -9.905009 -0.632009
6.823594 -9.828842 2.762399
5.709950 -8.224728 -0.174768
5.443249 -7.843487 2.558168
2.754618 -3.981142 -1.297201
6.965064 -10.070090 0.213722
3.093151 -4.473747 -1.255677
6.318745 -9.139051 0.582290
3.536222 -5.116487 -1.208966
5.933223 -8.587864 0.913218
4.042326 -5.853126 -1.126641
6.350600 -9.198847 1.372493
4.151483 -6.015670 -0.897446
6.145134 -8.904554 1.713583
5.090015 -7.378397 -0.784227
6.851076 -9.934908 2.345806
6.817214 -9.889496 -0.629497
6.766022 -9.818903 2.752951
5.672128 -8.231435 -0.174489
5.715012 -8.296767 2.699483
2.737423 -3.985956 -1.295648
5.613908 -8.174399 0.173093
3.078299 -4.483980 -1.255677
5.737572 -8.360716 0.531419
3.511677 -5.119086 -1.206676
6.139834 -8.953586 0.949823
4.020660 -5.863241 -1.126015
6.993483 -10.202260 1.518736
4.138243 -6.039229 -0.898908
6.118480 -8.932469 1.714835
5.041716 -7.363240 -0.780741
6.800346 -9.931655 2.339700
6.766331 -9.885678 -0.627822
5.045392 -7.374129 2.062801
5.611751 -8.204968 -0.173512
5.725267 -8.374077 2.718118
2.720926 -3.990223 -1.294095
8.501342 -12.471848 0.263462
3.059336 -4.489867 -1.254327
5.004506 -7.347344 0.465895
3.497998 -5.135571 -1.207821
3.971271 -5.834781 -1.117881
5.608917 -8.243983 1.224300
4.128301 -6.070052 -0.901346
4.816723 -7.084931 1.356913
5.044156 -7.419463 -0.784925
6.010834 -8.844672 2.078673
6.716070 -9.886106 -0.626357
6.670567 -9.822815 2.741254
6.701714 -9.872387 -0.208277
5.238239 -7.719421 2.499674
2.711312 -4.006097 -1.296166
3.055653 -4.518275 -1.259276
4.978828 -7.364769 0.465895
3.486647 -5.157508 -1.210111
5.340240 -7.902345 0.834429
3.935399 -5.825692 -1.113501
5.353481 -7.927904 1.174577
4.131521 -6.120622 -0.906708
6.069230 -8.994615 1.718589
4.351804 -6.449386 -0.680686
5.514440 -8.175493 1.916867
6.661421 -9.879683 -0.624473
5.685404 -8.435307 2.348489
6.648217 -9.867528 -0.207684
5.677458 -8.429866 2.723294
2.701620 -4.021951 -1.298236
8.408491 -12.522594 0.263287
3.036606 -4.524060 -1.257926
3.469717 -5.171278 -1.210492
3.886438 -5.796734 -1.105366
5.515862 -8.230171 1.216500
4.039419 -6.029458 -0.891109
5.398073 -8.060501 1.536500
4.324830 -6.457916 -0.679989
5.494606 -8.207744 1.919920
6.605791 -9.871338 -0.622484
5.704682 -8.527990 2.368735
6.608174 -9.882362 -0.207509
5.626526 -8.417511 2.712941
2.690779 -4.036179 -1.299789
3.016473 -4.528145 -1.256127
3.451644 -5.183358 -1.210492
5.170122 -7.766946 0.816301
3.859615 -5.800397 -1.103489
6.190715 -9.307199 1.372493
4.018348 -6.043522 -0.891109
5.319605 -8.003618 1.522107
4.302261 -6.472973 -0.679989
5.509380 -8.292283 1.935185
6.546983 -9.857733 -0.620181
5.679190 -8.554344 2.370534
6.551523 -9.872046 -0.206811
5.618469 -8.469296 2.723294
2.682004 -4.053603 -1.302377
3.002798 -4.541898 -1.257027
50.198120 -75.956245 4.771470
3.428118 -5.187185 -1.208584
3.837167 -5.810537 -1.102863
5.764485 -8.732348 1.284747
3.980828 -6.032659 -0.887453
5.406930 -8.196927 1.555272
5.766828 -8.745853 -0.916530
6.561135 -9.950483 2.316803
6.502640 -9.865519 -0.619239
5.711481 -8.668499 2.396628
6.493926 -9.859783 -0.206078
6.451476 -9.799055 3.143616
2.659708 -4.052100 -1.298754
8.318594 -12.673487 0.264613
2.993340 -4.562128 -1.259726
5.094590 -7.767583 0.486829
3.412312 -5.204640 -1.209729
3.798524 -5.798125 -1.097857
5.377159 -8.207779 1.204800
3.932557 -6.005001 -0.881359
5.287403 -8.076921 1.528991
5.810449 -8.879296 -0.928383
6.116228 -9.350135 2.171788
6.440205 -9.849166 -0.616727
5.698864 -8.718736 2.404727
6.431023 -9.838872 -0.205170
6.391870 -9.782701 3.131193
2.646602 -4.062979 -1.299272
5.508178 -8.459206 0.176199
2.978725 -4.576335 -1.260626
5.059818 -7.773603 0.486096
3.406972 -5.236267 -1.214309
3.763188 -5.788163 -1.093477
5.530936 -8.510389 1.246236
3.909440 -6.017709 -0.881115
5.151561 -7.929678 1.497704
5.878166 -9.051582 -0.944245
5.442165 -8.383402 1.942817
6.387304 -9.843105 -0.614948
5.908068 -9.108064 2.506405
6.379228 -9.834419 -0.204612
4.704413 -7.255244 2.316948
2.637647 -4.080304 -1.301860
2.961418 -4.582914 -1.259726
5.005560 -7.749275 0.483480
3.384413 -5.241530 -1.212782
3.726833 -5.774055 -1.088471
5.358471 -8.305166 1.213575
3.900222 -6.047323 -0.883553
5.132413 -7.960894 1.500207
5.895103 -9.147408 -0.952089
6.416163 -9.955935 2.302302
6.332994 -9.830651 -0.612854
6.266100 -9.730542 2.671968
6.334037 -9.839811 -0.204263
6.285787 -9.768601 3.112558
2.623058 -4.087402 -1.301342
2.946454 -4.594864 -1.260176
4.979835 -7.765831 0.483480
3.373370 -5.262642 -1.215072
3.687477 -5.757089 -1.082839
5.308041 -8.290384 1.208700
3.901561 -6.096011 -0.888671
5.182655 -8.097662 1.522733
5.875473 -9.183690 -0.953832
6.358100 -9.941883 2.293906
6.285731 -9.832503 -0.611598
6.244689 -9.772060 2.677367
6.288450 -9.840542 -0.203844
6.234638 -9.760087 3.103240
2.621227 -4.116087 -1.307554
2.937479 -4.614473 -1.262875
5.391245 -8.472346 0.526290
3.352872 -5.271072 -1.214309
5.485261 -8.626739 0.894392
3.659886 -5.755949 -1.080337
5.474320 -8.612851 1.253061
3.928164 -6.182638 -0.899396
5.554676 -8.746017 1.640998
4.246917 -6.689488 -0.693237
5.727417 -9.021483 2.077147
6.239179 -9.831371 -0.610237
5.600523 -8.828419 2.413725
6.233714 -9.830345 -0.203181
5.344145 -8.430778 2.674636
2.599305 -4.111694 -1.303413
2.924477 -4.629641 -1.264225
5.085451 -8.053722 0.499180
3.332229 -5.277182 -1.213164
4.990829 -7.906925 0.818044
3.631339 -5.755324 -1.077834
4.853310 -7.695007 1.117054
3.822923 -6.063654 -0.880140
5.397727 -8.564813 1.603454
4.086613 -6.484410 -0.670576
5.476134 -8.692588 1.997007
6.190987 -9.831120 -0.608877
6.144807 -9.761565 2.662971
6.181258 -9.823273 -0.202588
5.300283 -8.426487 2.667389
2.586990 -4.124015 -1.304448
29.959045 -47.777325 0.984351
2.912438 -4.646426 -1.266025
5.050945 -8.061271 0.498552
3.323170 -5.303754 -1.216598
4.925124 -7.863510 0.811769
3.588166 -5.731130 -1.070951
5.470925 -8.741725 1.266223
3.725931 -5.955793 -0.862591
5.564703 -8.898474 1.662273
4.161141 -6.654048 -0.686613
4.365556 -6.983637 1.600888
6.137581 -9.822183 -0.606992
6.085919 -9.743289 2.652173
6.131044 -9.819346 -0.202064
5.214579 -8.354800 2.638919
2.572579 -4.133020 -1.304448
4.805652 -7.723607 0.158782
2.890026 -4.646635 -1.263325
3.310856 -5.325325 -1.218888
6.721248 -10.814958 1.114025
3.557715 -5.726840 -1.067822
5.402678 -8.700059 1.257448
3.694649 -5.951897 -0.860154
5.716915 -9.213259 1.717338
5.824979 -9.387412 -0.966557
5.578819 -8.994209 2.057303
6.082210 -9.809597 -0.604899
5.444117 -8.783885 2.385831
6.075667 -9.806690 -0.201366
5.241326 -8.463284 2.667389
2.561181 -4.146906 -1.306001
4.787067 -7.753947 0.159061
2.878906 -4.664987 -1.265575
3.292247 -5.336850 -1.218888
3.525264 -5.719046 -1.064067
5.384773 -8.739146 1.260373
3.656152 -5.936023 -0.856010
5.798643 -9.418191 1.751753
5.735769 -9.316070 -0.957144
6.033279 -9.806953 -0.603434
5.989166 -9.739059 2.639575
6.033021 -9.814210 -0.201087
5.978393 -9.729151 3.059759
2.553756 -4.167352 -1.309624
2.863622 -4.676670 -1.266025
5.289482 -8.641803 0.531001
3.270523 -5.343287 -1.217743
3.501156 -5.724576 -1.062816
3.602285 -5.894547 -0.848211
4.154591 -6.800972 -0.697246
5.982359 -9.800677 -0.601759
5.938894 -9.733290 2.632377
5.977901 -9.801064 -0.200389
5.536103 -9.080278 2.849598
2.529158 -4.159733 -1.304448
2.854363 -4.698295 -1.269174
4.993884 -8.223191 0.504205
3.253890 -5.358026 -1.218506
3.477054 -5.730007 -1.061564
4.675035 -7.707253 1.106817
3.590950 -5.922362 -0.850404
5.706130 -9.414522 1.743619
5.741848 -9.473453 -0.969172
5.244243 -8.655865 1.967241
5.936731 -9.802708 -0.600608
5.882681 -9.717286 2.622479
5.931229 -9.801341 -0.199970
5.876331 -9.714450 3.042159
2.522605 -4.181770 -1.308589
2.841969 -4.714906 -1.270973
5.040394 -8.365457 0.511846
3.244286 -5.384486 -1.221941
4.258774 -7.071006 0.722172
3.432578 -5.701493 -1.054056
4.568264 -7.590858 1.087806
3.585605 -5.960376 -0.854060
5.194778 -8.638732 1.596570
5.660487 -9.413188 -0.960979
5.886018 -9.795979 -0.598933
5.836684 -9.717715 2.617081
5.884628 -9.801414 -0.199551
5.794668 -9.655394 3.017313
2.509976 -4.193865 -1.309624
2.823493 -4.721453 -1.270074
5.131061 -8.583574 0.524092
3.223456 -5.392407 -1.221178
4.209537 -7.044780 0.717989
3.408604 -5.706657 -1.052804
4.648592 -7.785721 1.113398
3.581055 -6.000130 -0.857960
5.148399 -8.629670 1.591565
5.607178 -9.398668 -0.957493
5.833381 -9.785585 -0.597049
5.788761 -9.714592 2.610782
5.832983 -9.792688 -0.198957
5.754999 -9.665604 3.014207
2.503212 -4.215889 -1.313766
2.801029 -4.721224 -1.267374
5.096992 -8.594561 0.523674
3.207617 -5.408692 -1.222322
4.217432 -7.114276 0.723567
3.384635 -5.711723 -1.051553
4.701309 -7.936828 1.132654
3.575259 -6.038215 -0.861616
5.590574 -9.445618 -0.960282
5.293267 -8.946861 2.020667
5.778853 -9.771505 -0.594955
5.699280 -9.640798 2.585588
5.786557 -9.792331 -0.198539
5.681923 -9.619100 2.993501
2.488481 -4.224602 -1.313766
2.790462 -4.741049 -1.270074
4.997079 -8.493521 0.516451
3.188719 -5.419856 -1.222322
4.806664 -8.173137 0.829548
3.340650 -5.682632 -1.044044
4.715816 -8.025071 1.142891
3.563209 -6.066063 -0.863810
5.488969 -9.348243 -0.948429
9.825389 -16.740276 3.773057
5.730559 -9.767501 -0.593490
5.689254 -9.700976 2.596385
5.730091 -9.774517 -0.197771
5.640499 -9.625540 2.989360
2.465922 -4.219919 -1.309624
2.779793 -4.760858 -1.272773
33.917057 -58.111912 3.526293
3.170770 -5.432650 -1.222704
3.314822 -5.684021 -1.042166
4.315872 -7.403516 1.052220
3.538015 -6.071604 -0.862835
5.470344 -9.391449 -0.950869
5.686382 -9.770183 -0.592443
5.649477 -9.710670 2.593686
5.683873 -9.773716 -0.197352
5.628224 -9.681914 3.000748
2.452145 -4.230172 -1.310142
2.769994 -4.782337 -1.275922
3.158673 -5.455578 -1.225375
5.118748 -8.844528 0.894044
3.276168 -5.663069 -1.036222
4.305902 -7.446031 1.056120
3.461167 -5.987674 -0.849186
5.532223 -9.574373 -0.967429
5.644254 -9.776135 -0.591606
5.601908 -9.706702 2.587387
5.631734 -9.762319 -0.196724
5.588603 -9.691460 2.997642
2.444105 -4.250429 -1.313766
2.749400 -4.785218 -1.274123
3.138632 -5.464868 -1.224994
4.613679 -8.036411 0.810723
3.252447 -5.667617 -1.034971
4.283836 -7.467905 1.057095
3.471843 -6.054826 -0.856985
5.474991 -9.552139 -0.963245
5.589251 -9.759381 -0.589408
5.548629 -9.692372 2.578389
5.587693 -9.764561 -0.196374
5.543229 -9.690785 2.991431
2.428297 -4.257257 -1.313248
2.732680 -4.794786 -1.274123
33.175167 -58.233074 3.512371
3.124397 -5.484319 -1.226902
5.047018 -8.862735 0.892300
3.224825 -5.665203 -1.032468
4.351987 -7.648444 1.080494
3.484055 -6.125575 -0.865272
5.423889 -9.540016 -0.960108
5.541338 -9.754519 -0.587942
5.483969 -9.657454 2.563992
5.538766 -9.757920 -0.195851
5.497927 -9.689914 2.985219
2.418177 -4.274114 -1.315836
4.769386 -8.433295 0.169114
2.719763 -4.811081 -1.275922
3.104268 -5.493483 -1.226520
4.886705 -8.651308 0.869291
3.205031 -5.676425 -1.032468
4.318433 -7.651487 1.078787
3.505568 -6.213772 -0.875997
5.458083 -9.678637 -0.972135
5.494509 -9.751182 -0.586581
5.438749 -9.656163 2.558593
5.485050 -9.742344 -0.195153
5.450806 -9.685475 2.977972
2.395680 -4.269051 -1.311695
4.743833 -8.456868 0.169253
2.701999 -4.818846 -1.275472
3.083153 -5.500860 -1.225757
4.180641 -7.462016 0.748319
3.163962 -5.649661 -1.025584
4.273274 -7.633604 1.074156
3.520692 -6.291800 -0.885259
6.380830 -11.407797 2.070254
5.448745 -9.749381 -0.585325
5.395504 -9.658077 2.554094
5.443209 -9.747464 -0.194874
5.386833 -9.650464 2.961408
2.383583 -4.282452 -1.313248
6.195943 -11.136487 0.222448
2.696527 -4.848685 -1.280871
3.066794 -5.516737 -1.226902
4.444894 -7.999035 0.800613
3.130793 -5.636494 -1.021204
4.275510 -7.700541 1.081469
3.509305 -6.323143 -0.887940
6.388885 -11.516369 2.085897
3.865185 -6.967241 -0.697072
5.401124 -9.743885 -0.583860
5.348537 -9.652987 2.547796
5.405275 -9.759409 -0.194734
5.334400 -9.635407 2.951055
2.372354 -4.297511 -1.315318
6.137711 -11.123030 0.221750
2.672056 -4.844417 -1.277272
3.052259 -5.536005 -1.228810
4.995869 -9.064955 0.905548
3.111099 -5.647388 -1.021204
3.380001 -6.140581 -0.860641
3.600728 -6.544288 -0.653494
5.349760 -9.731176 -0.581976
5.311055 -9.664767 2.545996
5.371177 -9.778216 -0.194734
5.297014 -9.647196 2.948984
2.358266 -4.307460 -1.315836
5.380771 -9.832251 0.195641
2.657000 -4.857134 -1.278172
3.035741 -5.551793 -1.229955
4.016269 -7.348039 0.732631
3.076214 -5.630477 -1.016198
3.344279 -6.126207 -0.856985
5.697083 -10.440517 1.883784
4.604744 -8.438689 -0.841053
5.303330 -9.726995 -0.580615
5.258635 -9.649025 2.536998
5.352317 -9.825003 -0.195292
5.250373 -9.641873 2.941737
2.347825 -4.324155 -1.318424
5.359770 -9.875578 0.196130
2.642817 -4.871518 -1.279522
5.344085 -9.854880 0.587524
3.014472 -5.558905 -1.229192
3.880458 -7.158827 0.712411
3.056540 -5.641181 -1.016198
4.170058 -7.699507 1.075131
3.414545 -6.307175 -0.880628
5.335315 -9.859230 1.775531
3.762619 -6.953014 -0.691668
5.333555 -9.860090 2.179039
5.258894 -9.726122 -0.579464
5.213802 -9.646750 2.531599
5.302781 -9.815476 -0.194734
5.214849 -9.656742 2.940702
2.327221 -4.322118 -1.315318
6.371553 -11.838209 0.234665
2.623950 -4.877282 -1.278622
2.995049 -5.569393 -1.229192
4.904443 -9.123793 0.906245
3.027481 -5.634415 -1.013070
4.191998 -7.804955 1.087806
3.263870 -6.079445 -0.847236
5.291527 -9.860389 1.772403
3.733615 -6.957328 -0.690796
5.284257 -9.850967 2.172933
5.212642 -9.721537 -0.578103
5.165369 -9.637408 2.524401
5.272264 -9.840977 -0.194874
5.161044 -9.637421 2.929314
2.314850 -4.335328 -1.316871
6.010056 -11.260566 0.222797
2.617917 -4.907043 -1.284021
6.231881 -11.686000 0.694080
2.981132 -5.590208 -1.231481
4.911928 -9.214701 0.913566
2.989216 -5.610082 -1.006812
4.151664 -7.795011 1.084394
3.265017 -6.132855 -0.853086
5.635696 -10.590282 1.900053
3.741129 -7.030119 -0.696723
5.707147 -10.729063 2.362215
5.166487 -9.716748 -0.576742
5.125294 -9.643335 2.521251
5.226622 -9.838129 -0.194455
5.114687 -9.631491 2.922067
2.306934 -4.357040 -1.321012
2.594393 -4.904093 -1.280871
6.176114 -11.679431 0.692405
2.960683 -5.598844 -1.231100
3.749415 -7.093383 0.701952
2.971461 -5.623975 -1.007438
6.212137 -11.762454 1.633293
3.269538 -6.193368 -0.859910
5.571037 -10.557478 1.890667
3.677513 -6.969127 -0.689402
6.492174 -12.308295 2.704908
5.110181 -9.692322 -0.574230
5.084333 -9.647376 2.517652
5.188521 -9.849236 -0.194315
5.073835 -9.635610 2.917926
2.291711 -4.365067 -1.321012
6.172898 -11.762626 0.231873
2.580879 -4.920022 -1.282671
6.450651 -12.302326 0.727993
2.940210 -5.607406 -1.230718
4.151943 -7.921717 0.782484
2.935311 -5.602817 -1.001806
4.762965 -9.095239 1.260617
3.247899 -6.204743 -0.859910
5.567121 -10.639870 1.901931
3.546941 -6.778907 -0.669356
6.449170 -12.330882 2.704908
5.062438 -9.683551 -0.572660
5.027160 -9.620159 2.505955
5.137444 -9.835384 -0.193687
5.020499 -9.615587 2.906538
2.280920 -4.381608 -1.323601
6.556403 -12.600101 0.247929
2.561891 -4.925544 -1.281771
6.203140 -11.931368 0.704756
2.907940 -5.593248 -1.225375
4.091190 -7.872516 0.776209
2.908451 -5.599005 -0.999304
4.772352 -9.191089 1.271585
3.165867 -6.099756 -0.843823
5.502656 -10.606634 1.892544
3.690244 -7.113123 -0.701081
5.024930 -9.694070 -0.572241
4.979206 -9.609963 2.498756
5.077331 -9.803538 -0.192709
4.983351 -9.626192 2.904467
2.262068 -4.382676 -1.321530
6.495877 -12.590923 0.247301
2.554508 -4.953509 -1.286720
5.894240 -11.434567 0.674192
2.882101 -5.591150 -1.222704
4.019881 -7.801736 0.767842
2.885270 -5.602099 -0.998052
4.771132 -9.267699 1.279872
3.203595 -6.225502 -0.859666
5.566796 -10.822518 1.927586
3.700934 -7.195060 -0.707879
6.362928 -12.375606 2.704908
4.981018 -9.692011 -0.571090
4.942068 -9.620352 2.496957
5.041252 -9.817643 -0.192640
4.925020 -9.595405 2.889974
2.243235 -4.383666 -1.319459
2.537201 -4.962395 -1.286720
6.008805 -11.757412 0.691986
2.853632 -5.583694 -1.218888
3.992623 -7.815721 0.767842
2.856715 -5.594543 -0.994923
4.749582 -9.305514 1.282797
3.048328 -5.974945 -0.823593
3.664934 -7.186636 -0.705787
6.246579 -12.254313 2.673616
4.935368 -9.686205 -0.569729
4.896075 -9.613235 2.490658
4.999694 -9.820924 -0.192360
4.877477 -9.584990 2.881691
2.234038 -4.403530 -1.323083
2.514577 -4.960793 -1.284021
5.566930 -10.987272 0.645512
2.834125 -5.593621 -1.218888
3.954515 -7.808280 0.765750
2.824678 -5.579807 -0.990543
4.717071 -9.322037 1.282797
3.020286 -5.971377 -0.821643
5.350284 -10.582582 1.878152
3.630836 -7.181604 -0.704044
6.198452 -12.265531 2.671326
4.890720 -9.681980 -0.568473
4.849313 -9.604173 2.483910
4.954570 -9.816894 -0.191942
4.838769 -9.591609 2.878586
2.219521 -4.413027 -1.323601
2.501620 -4.978246 -1.286270
5.605640 -11.160128 0.654514
2.805770 -5.585937 -1.215072
3.927235 -7.822037 0.765750
2.805184 -5.589633 -0.990543
5.524740 -11.013438 1.512886
3.006541 -5.996080 -0.823593
5.352257 -10.678897 1.891919
3.607532 -7.197797 -0.704393
6.058868 -12.094009 2.629348
4.840797 -9.666846 -0.566589
4.804420 -9.598388 2.478061
4.914904 -9.823399 -0.191732
4.796617 -9.591162 2.873409
2.204103 -4.420747 -1.323601
2.485965 -4.990436 -1.287170
5.545284 -11.136718 0.652001
2.777503 -5.578122 -1.211256
5.652335 -11.356678 1.109841
2.776856 -5.581705 -0.987414
5.498636 -11.057541 1.516299
2.980291 -5.995872 -0.822131
3.579725 -7.204993 -0.703870
5.971209 -12.023650 2.609504
4.796368 -9.662218 -0.565333
4.756161 -9.585423 2.470412
4.862813 -9.804667 -0.191034
4.757960 -9.597462 2.870303
2.185235 -4.421487 -1.321530
5.763216 -11.666104 0.227126
2.470256 -5.002578 -1.288070
5.511680 -11.166753 0.652629
2.747587 -5.566658 -1.206676
5.512166 -11.172647 1.089970
2.748619 -5.573647 -0.984286
3.846841 -7.804056 1.068307
2.988296 -6.065001 -0.830174
8.283356 -16.819180 2.969439
3.547511 -7.203146 -0.702475
5.901454 -11.988055 2.597292
4.757320 -9.668150 -0.564705
4.712351 -9.580982 2.465014
4.823267 -9.810814 -0.190825
4.712502 -9.589739 2.863056
2.175737 -4.441232 -1.325154
2.457062 -5.019922 -1.290319
6.058993 -12.384352 0.722550
2.728140 -5.576214 -1.206676
5.553658 -11.356484 1.106006
2.720472 -5.565461 -0.981157
5.607797 -11.477345 1.568459
2.972335 -6.086098 -0.831636
4.207586 -8.619192 -0.839135
5.415325 -11.098146 2.400377
4.715662 -9.668541 -0.563763
4.678878 -9.597373 2.465014
4.781983 -9.813210 -0.190545
4.668001 -9.583551 2.856327
2.159377 -4.447061 -1.324636
2.435272 -5.019701 -1.288070
5.426616 -11.190582 0.651792
2.696666 -5.560972 -1.201334
2.694137 -5.560702 -0.978654
5.546935 -11.453972 1.562609
2.968370 -6.132172 -0.836511
4.333664 -8.956635 1.575921
4.063794 -8.398880 -0.816301
5.399633 -11.164701 2.410681
4.663630 -9.647181 -0.561565
4.633479 -9.589083 2.458715
4.733784 -9.801031 -0.189987
4.627801 -9.585870 2.852186
2.153894 -4.475461 -1.330848
2.418579 -5.029929 -1.288520
2.674686 -5.565043 -1.200189
2.667870 -5.555826 -0.976151
2.962402 -6.174711 -0.840899
4.059437 -8.465113 -0.821356
5.374205 -11.211807 2.416787
4.621295 -9.645390 -0.560518
4.582304 -9.568288 2.449267
4.684001 -9.785028 -0.189359
4.582638 -9.577569 2.844939
2.134100 -4.474234 -1.328259
5.381182 -11.286953 0.218260
2.406037 -5.048895 -1.291219
2.642580 -5.547759 -1.194464
2.646763 -5.561537 -0.975525
5.062644 -10.642721 1.447077
2.887129 -6.072071 -0.825543
4.008482 -8.434244 -0.816998
5.730972 -12.063964 2.596147
4.579033 -9.643420 -0.559471
4.541354 -9.568381 2.445218
4.636104 -9.772412 -0.188800
4.534279 -9.562087 2.835622
2.119295 -4.483403 -1.328777
8.051496 -17.040766 0.328978
2.389230 -5.059025 -1.291669
8.078375 -17.113117 0.991766
2.618171 -5.546297 -1.192175
8.082907 -17.130461 1.657179
2.618906 -5.552876 -0.972397
5.044085 -10.699830 1.452439
2.823608 -5.992326 -0.813356
8.045794 -17.082703 2.990714
3.868653 -8.213863 -0.794337
5.720603 -12.151394 2.610649
4.535139 -9.637658 -0.558215
4.503780 -9.575357 2.442968
4.591753 -9.766819 -0.188381
4.491835 -9.558625 2.829928
2.101173 -4.485525 -1.327224
5.439623 -11.617628 0.223914
2.375687 -5.076160 -1.293918
5.021214 -10.728889 0.620809
2.595467 -5.548289 -1.190648
4.971478 -10.632285 1.026869
2.596162 -5.554825 -0.971145
3.694325 -7.908086 1.071719
2.803721 -6.001656 -0.813356
3.824791 -8.194819 -0.791200
5.459026 -11.701588 2.509902
4.493028 -9.635330 -0.557169
4.462943 -9.570812 2.438020
4.550892 -9.763868 -0.188032
4.445428 -9.541946 2.820610
2.094424 -4.509989 -1.332400
5.375809 -11.581189 0.222867
2.358020 -5.082242 -1.293469
5.377327 -11.589756 0.669586
2.573750 -5.549741 -1.189122
4.922786 -10.619791 1.024080
2.569423 -5.545481 -0.968017
4.899394 -10.579004 1.431477
2.792980 -6.030735 -0.816037
5.175635 -11.180594 1.951364
3.245400 -7.014041 -0.676154
5.413599 -11.705371 2.506849
4.447643 -9.621169 -0.555494
4.420551 -9.562564 2.432171
4.513456 -9.768013 -0.187823
4.401611 -9.530329 2.812846
2.081073 -4.520420 -1.333436
5.339882 -11.604403 0.222972
2.342783 -5.093574 -1.294368
5.118260 -11.133012 0.642162
2.550412 -5.547543 -1.186832
2.549370 -5.550381 -0.967391
5.379456 -11.717313 1.583083
2.682495 -5.845594 -0.789713
5.134929 -11.195001 1.950738
3.232090 -7.046496 -0.678246
5.374755 -11.723258 2.506849
4.405729 -9.614078 -0.554238
4.369291 -9.538959 2.422273
4.464347 -9.750982 -0.187195
4.360279 -9.528068 2.807669
2.066884 -4.531171 -1.334471
5.325060 -11.679375 0.224054
2.325797 -5.103495 -1.294818
4.991605 -10.958148 0.631067
2.518010 -5.527825 -1.180726
4.904876 -10.772730 1.035585
2.520162 -5.537671 -0.963636
5.310574 -11.674584 1.574796
2.649750 -5.827816 -0.786057
5.293605 -11.648063 2.026452
3.895791 -8.572309 -0.823796
5.333798 -11.741948 2.506849
4.365537 -9.614849 -0.553400
4.332745 -9.547054 2.420473
4.408805 -9.719157 -0.186287
4.325398 -9.539712 2.806634
2.053442 -4.543640 -1.336024
5.220048 -11.555745 0.221331
2.311176 -5.118687 -1.296618
4.940179 -10.946378 0.629392
2.495469 -5.529424 -1.179200
4.826279 -10.698977 1.026869
2.505688 -5.557239 -0.965514
5.279579 -11.714767 1.577721
2.638359 -5.856940 -0.788738
5.192898 -11.533181 2.003300
3.849484 -8.549521 -0.820310
4.323754 -9.611814 -0.552354
4.291402 -9.544347 2.415974
4.368296 -9.719895 -0.186008
4.278614 -9.524793 2.797834
2.037569 -4.550780 -1.336024
5.271166 -11.778324 0.225241
2.298864 -5.139174 -1.299767
4.890527 -10.938028 0.627927
2.474550 -5.534516 -1.178436
4.771019 -10.675742 1.023034
2.557172 -5.724670 -0.993046
5.196571 -11.638868 1.565046
2.696371 -6.041952 -0.812381
5.641877 -12.648089 2.193524
3.805820 -8.531974 -0.817347
5.582674 -12.521245 2.664839
4.283673 -9.612253 -0.551516
4.247752 -9.536126 2.410126
4.327832 -9.720471 -0.185729
4.239057 -9.525551 2.793693
2.020888 -4.556099 -1.335506
13.641172 -30.768551 0.587483
2.273016 -5.129352 -1.295268
5.622344 -12.693521 0.727575
2.442494 -5.514399 -1.172330
5.222503 -11.796360 1.128667
2.565951 -5.798591 -1.004309
5.127003 -11.591581 1.556272
2.775596 -6.278275 -0.842848
5.185710 -11.735382 2.032084
3.829163 -8.665485 -0.828851
5.334288 -12.077317 2.566381
4.235574 -9.594260 -0.549632
4.203425 -9.525935 2.403827
4.279350 -9.702585 -0.185100
4.201885 -9.531451 2.791105
2.006526 -4.566662 -1.336542
13.490264 -30.717110 0.585598
2.256664 -5.140823 -1.296168
5.151085 -11.740065 0.671889
2.424808 -5.526487 -1.173094
2.540143 -5.794849 -1.002119
2.718626 -6.207917 -0.832124
5.585124 -12.759555 2.206039
3.789304 -8.656897 -0.826759
5.296820 -12.106655 2.568671
4.197257 -9.598007 -0.549004
4.162342 -9.522694 2.399328
4.250259 -9.728457 -0.185310
4.160083 -9.526586 2.785411
1.993658 -4.580724 -1.338612
2.241813 -5.155818 -1.297968
5.114849 -11.768966 0.672517
2.400806 -5.524115 -1.170804
4.993958 -11.496287 1.096593
2.512032 -5.785560 -0.998991
4.475370 -10.312329 1.380292
2.721429 -6.273824 -0.839680
5.540551 -12.778972 2.206039
3.698037 -8.529317 -0.813337
5.190513 -11.977358 2.537378
4.152614 -9.586942 -0.547539
4.122883 -9.522859 2.395729
4.201979 -9.710201 -0.184681
4.119135 -9.523318 2.780234
1.976890 -4.585881 -1.338094
2.227657 -5.172561 -1.300217
5.048467 -11.728043 0.669168
2.370642 -5.507215 -1.165461
2.501967 -5.817885 -1.003058
2.707349 -6.301524 -0.842117
3.764939 -8.767353 -0.834778
5.117699 -11.923239 2.522113
4.111250 -9.583023 -0.546492
4.085008 -9.526446 2.393029
4.171211 -9.732161 -0.184821
4.073695 -9.509227 2.771952
1.960112 -4.590977 -1.337577
2.212646 -5.187475 -1.302017
5.002799 -11.734570 0.668540
2.349865 -5.511845 -1.164698
4.783923 -11.226608 1.067658
2.491706 -5.850209 -1.007125
2.663573 -6.259791 -0.835293
3.766284 -8.855613 -0.841924
5.077584 -11.944645 2.522877
4.071526 -9.582610 -0.545655
4.044113 -9.522710 2.388530
4.127836 -9.724574 -0.184402
4.032932 -9.505605 2.766776
1.947084 -4.604909 -1.339647
2.193008 -5.191577 -1.301117
4.630863 -10.968130 0.623949
2.324501 -5.505545 -1.161645
4.986396 -11.815954 1.122043
2.911938 -6.903603 -1.186712
3.631719 -8.622659 -0.818567
4.991677 -11.857348 2.500743
4.029530 -9.576514 -0.544503
4.000272 -9.511619 2.382231
4.089218 -9.727863 -0.184193
3.995237 -9.508938 2.763670
1.932491 -4.615242 -1.340683
5.025056 -12.006895 0.227195
2.173369 -5.195605 -1.300217
2.302997 -5.508191 -1.160500
2.896957 -6.935599 -1.190466
4.379898 -10.491049 1.395892
3.495115 -8.375863 -1.114373
3.612334 -8.661028 -0.821007
3.983018 -9.559181 -0.542724
3.958054 -9.503939 2.376833
4.055236 -9.742078 -0.184193
3.950889 -9.496072 2.755905
1.919329 -4.629097 -1.342753
7.180307 -17.326241 0.327372
2.157456 -5.208560 -1.301567
4.670307 -11.280686 0.639859
2.282254 -5.512568 -1.159737
2.422758 -5.857727 -1.003996
4.965124 -12.010577 1.595757
3.467373 -8.391683 -1.114861
3.602614 -8.723306 -0.825713
3.945055 -9.561948 -0.542096
3.915941 -9.496078 2.371434
4.005964 -9.719197 -0.183495
3.908887 -9.488370 2.749694
1.898756 -4.625046 -1.339647
5.202248 -12.678084 0.239203
2.144439 -5.228681 -1.304716
5.158156 -12.583139 0.712711
2.254061 -5.498703 -1.155158
4.261104 -10.399984 0.983291
2.425503 -5.922817 -1.013695
4.801349 -11.730216 1.556272
3.456098 -8.447829 -1.120710
3.582699 -8.761647 -0.828154
3.905612 -9.560869 -0.541259
3.879821 -9.502472 2.369634
3.972014 -9.733121 -0.183495
3.861880 -9.467970 2.739859
1.882600 -4.631645 -1.339647
7.087775 -17.446346 0.328699
2.130573 -5.246968 -1.307415
5.455199 -13.441262 0.760232
2.228947 -5.491984 -1.152105
2.374382 -5.856192 -1.000868
4.729061 -11.669635 1.546035
3.435531 -8.481920 -1.123635
3.565551 -8.807341 -0.831291
3.865475 -9.557779 -0.540316
3.836404 -9.490664 2.363336
3.938015 -9.746927 -0.183495
3.817956 -9.454524 2.732094
1.872190 -4.652526 -1.343789
7.070111 -17.578587 0.330723
2.111518 -5.252565 -1.306966
4.943598 -12.303789 0.694917
2.209763 -5.499732 -1.152105
4.249280 -10.581085 0.997585
2.353926 -5.864444 -1.000868
4.701601 -11.719234 1.550422
2.477961 -6.179698 -0.817500
4.903800 -12.235591 2.087775
3.545163 -8.845624 -0.833732
7.071935 -17.654285 3.696734
3.822438 -9.547110 -0.538956
3.796013 -9.485904 2.358837
3.829705 -9.574944 -0.180004
3.782062 -9.460618 2.730023
1.856653 -4.660828 -1.344306
3.799865 -9.543791 0.179306
2.093170 -5.259903 -1.306966
4.885856 -12.283854 0.692823
2.192003 -5.511060 -1.152868
5.120584 -12.880545 1.212685
2.351676 -5.918520 -1.008690
2.475417 -6.236282 -0.823837
3.517203 -8.865355 -0.834429
3.785410 -9.551110 -0.538432
3.750676 -9.468298 2.351188
3.784480 -9.558506 -0.179446
3.746884 -9.468373 2.728471
1.841791 -4.670875 -1.345341
3.762130 -9.545835 0.179097
2.073368 -5.263552 -1.306066
3.755680 -9.539233 0.537281
2.161245 -5.489450 -1.146762
3.763833 -9.564833 0.899273
2.336064 -5.939560 -1.010880
3.752530 -9.545889 1.259398
3.379915 -8.602421 -1.134847
3.738946 -9.521094 -0.894915
3.749858 -9.558688 -0.538118
3.714758 -9.474074 2.349389
3.742337 -9.549316 -0.179027
3.707468 -9.465205 2.723812
1.825475 -4.677275 -1.345341
3.720065 -9.536553 0.178678
2.063477 -5.292544 -1.311465
3.720184 -9.546701 0.536967
2.137793 -5.485985 -1.144472
3.713066 -9.533356 0.895089
2.326066 -5.975291 -1.015573
3.711987 -9.540429 1.256961
2.464915 -6.338517 -0.835049
3.706250 -9.535531 1.620348
2.762305 -7.106925 -0.667090
3.704601 -9.536219 1.988612
3.702735 -9.536345 -0.536130
3.678139 -9.477901 2.347139
3.702473 -9.545542 -0.178713
3.662535 -9.447469 2.715012
1.807745 -4.680015 -1.344306
3.680271 -9.532691 0.178364
2.050602 -5.314260 -1.315064
3.681088 -9.544722 0.536130
2.118631 -5.493413 -1.144472
3.676900 -9.538821 0.894392
2.300222 -5.970471 -1.013383
3.671530 -9.534804 1.254523
2.444914 -6.352640 -0.835780
3.670105 -9.541036 1.619097
3.663802 -9.524651 -0.892823
3.667063 -9.538096 1.986322
3.662977 -9.532433 -0.535188
3.640840 -9.479767 2.344440
3.659097 -9.532271 -0.178224
3.627458 -9.454784 2.713459
1.794156 -4.693514 -1.346377
3.642692 -9.534271 0.178154
2.025783 -5.305000 -1.311015
3.639202 -9.535120 0.534873
2.101542 -5.506278 -1.145617
3.635060 -9.529260 0.892300
2.277256 -5.972927 -1.012444
3.631156 -9.529012 1.252086
2.377504 -6.242410 -0.820181
3.626940 -9.527943 1.614717
3.624154 -9.520623 -0.891255
3.626766 -9.532488 1.982506
3.616191 -9.509690 -0.533199
3.603574 -9.481488 2.341741
3.619409 -9.528162 -0.177910
3.591005 -9.458359 2.710871
1.779812 -4.705170 -1.347930
3.601609 -9.526354 0.177770
2.010697 -5.321154 -1.313264
3.599545 -9.530950 0.533931
2.071904 -5.486031 -1.139893
3.597553 -9.530707 0.891255
2.250118 -5.964205 -1.009628
3.592268 -9.526770 1.250136
2.356400 -6.252528 -0.820424
3.586696 -9.522058 1.611588
3.587387 -9.523893 -0.890383
3.587244 -9.528555 1.979071
3.578755 -9.511039 -0.532571
3.561537 -9.470298 2.335892
3.580499 -9.525764 -0.177631
3.555930 -9.465410 2.709318
1.766764 -4.720400 -1.350518
3.563431 -9.525758 0.177526
1.997569 -5.342743 -1.316863
3.557864 -9.521006 0.532675
2.041746 -5.463805 -1.133787
3.551716 -9.509610 0.888117
2.212705 -5.927608 -1.002119
3.551358 -9.518792 1.247455
2.336642 -6.266295 -0.821156
3.543778 -9.508607 1.607208
3.549250 -9.523290 -0.889163
3.544367 -9.515263 1.973728
3.542744 -9.515986 -0.532152
3.516226 -9.449796 2.327794
3.534680 -9.504466 -0.177002
3.514789 -9.456036 2.703106
1.744909 -4.712045 -1.346377
3.524604 -9.523134 0.177247
1.982289 -5.358822 -1.319113
3.521838 -9.525873 0.532257
2.025385 -5.478265 -1.135314
3.512973 -9.506999 0.886723
2.159152 -5.846350 -0.987102
3.516049 -9.525544 1.246724
3.219630 -8.727190 -1.142160
3.505097 -9.506092 1.604705
3.508403 -9.515058 -0.887245
3.507736 -9.518365 1.971820
3.502604 -9.509554 -0.531105
3.481199 -9.456527 2.326444
3.491815 -9.490473 -0.176514
3.471093 -9.439238 2.694824
1.729114 -4.719922 -1.346894
3.478277 -9.499701 0.176583
1.960222 -5.356558 -1.316863
3.482391 -9.521227 0.531315
2.006250 -5.485301 -1.135314
3.474294 -9.504233 0.885328
2.106870 -5.766646 -0.972397
3.474606 -9.515384 1.243799
3.197995 -8.762617 -1.145328
3.467832 -9.507134 1.602828
3.466292 -9.502913 -0.884979
3.460368 -9.491817 1.963806
3.463919 -9.506710 -0.530268
3.440166 -9.446647 2.321045
3.458665 -9.502604 -0.176514
3.432839 -9.436771 2.690683
1.719868 -4.745908 -1.352588
3.440330 -9.498625 0.176339
1.942176 -5.365201 -1.317313
3.447398 -9.523333 0.530791
1.981747 -5.477501 -1.132261
3.437711 -9.506934 0.884456
2.093441 -5.792542 -0.975525
3.433951 -9.506916 1.241117
3.170083 -8.781196 -1.146303
3.432932 -9.509292 1.601263
3.441891 -9.539318 -0.887245
3.419889 -9.483522 1.959608
3.420554 -9.490559 -0.528698
3.401227 -9.442097 2.316996
3.420358 -9.495208 -0.176165
3.396292 -9.433561 2.686542
1.703944 -4.753700 -1.353106
3.404763 -9.498685 0.176130
1.923059 -5.367943 -1.316414
3.403363 -9.505222 0.529117
1.961954 -5.482537 -1.131879
3.401148 -9.509497 0.883585
2.066904 -5.778993 -0.972084
3.394388 -9.495821 1.238193
2.176557 -6.092285 -0.794344
3.392411 -9.500753 1.597822
3.390491 -9.500609 -0.882539
3.386442 -9.489264 1.958464
3.384367 -9.488681 -0.527965
3.362044 -9.431296 2.311597
3.383166 -9.495788 -0.175955
3.362693 -9.443542 2.686024
1.691399 -4.768428 -1.355694
3.366241 -9.495435 0.175850
1.910167 -5.391154 -1.320463
3.362829 -9.496335 0.527965
1.937864 -5.472358 -1.128445
3.363612 -9.503819 0.882016
2.087561 -5.901636 -0.991482
3.355927 -9.492639 1.236243
2.171149 -6.144767 -0.800194
3.346730 -9.477147 1.591877
3.355651 -9.502407 -0.881667
3.346110 -9.480663 1.954266
3.348567 -9.492903 -0.527547
3.323919 -9.428272 2.307998
3.342689 -9.486793 -0.175571
3.320726 -9.429710 2.678777
1.677302 -4.781595 -1.357765
3.330429 -9.499579 0.175711
1.895204 -5.408823 -1.323162
3.326359 -9.498590 0.527442
1.914856 -5.467971 -1.126155
3.323836 -9.496697 0.880273
2.023899 -5.785824 -0.970832
3.318841 -9.493052 1.234780
2.219750 -6.352825 -0.826274
3.311673 -9.483176 1.590939
3.311293 -9.482087 -0.878704
3.311054 -9.486724 1.953121
3.312779 -9.496990 -0.527128
3.285855 -9.425097 2.304399
3.304947 -9.485184 -0.175327
3.270637 -9.391986 2.664801
1.663134 -4.794722 -1.359835
3.289389 -9.488474 0.175292
1.877587 -5.419089 -1.324062
3.288608 -9.496932 0.526709
1.891903 -5.463491 -1.123865
3.282846 -9.485647 0.878181
1.963010 -5.675241 -0.951122
3.281143 -9.491446 1.233074
2.175521 -6.296742 -0.817987
3.272104 -9.476007 1.587810
3.272972 -9.478520 -0.877310
3.270235 -9.475955 1.948542
3.271792 -9.485838 -0.525872
3.247856 -9.421770 2.300799
3.269213 -9.489100 -0.175187
3.231542 -9.385078 2.659625
0.387938 -1.131141 -0.320418
3.249763 -9.480982 0.174943
1.858028 -5.423766 -1.323612
3.248968 -9.489459 0.525662
1.872820 -5.470062 -1.123865
3.245844 -9.485738 0.877135
1.937436 -5.665237 -0.948306
3.240288 -9.480302 1.230149
2.100909 -6.150259 -0.798001
3.233901 -9.472416 1.585307
3.237934 -9.484231 -0.876787
3.228261 -9.461298 1.943199
3.230926 -9.474517 -0.524616
3.212432 -9.425672 2.299000
3.230911 -9.485311 -0.174908
3.196273 -9.388988 2.657554
0.387709 -1.143466 -0.323524
3.212157 -9.479011 0.174699
1.840959 -5.435757 -1.324962
3.207500 -9.476149 0.524302
1.848680 -5.461688 -1.120812
3.207607 -9.481912 0.875741
1.961935 -5.802958 -0.970207
3.198915 -9.467106 1.226981
2.126428 -6.296730 -0.816037
3.197657 -9.474288 1.583743
3.198437 -9.476598 -0.875044
3.190823 -9.459488 1.940528
3.188264 -9.457349 -0.523046
3.168312 -9.403586 2.290901
3.190762 -9.475684 -0.174524
3.160397 -9.390933 2.654966
0.380032 -1.133822 -0.320418
3.173334 -9.473100 0.174384
1.821974 -5.442149 -1.324962
3.171233 -9.477817 0.523778
1.825866 -5.456938 -1.118522
3.168801 -9.476046 0.874172
1.947929 -5.828506 -0.973335
3.167107 -9.481980 1.227468
2.057292 -6.162894 -0.797757
3.158316 -9.466654 1.580614
3.161556 -9.476365 -0.873998
3.151575 -9.451943 1.936711
3.154600 -9.466526 -0.522941
3.132388 -9.405344 2.288652
3.150719 -9.465894 -0.174140
3.126379 -9.398241 2.653931
0.372426 -1.124139 -0.317312
3.137103 -9.474628 0.174210
1.809701 -5.468827 -1.329911
3.132486 -9.471763 0.522836
1.803108 -5.452094 -1.116233
3.130077 -9.470022 0.872603
1.948018 -5.897168 -0.983660
3.126521 -9.470357 1.224543
2.054427 -6.226591 -0.805069
3.121539 -9.466364 1.578737
3.120970 -9.464638 -0.871906
3.115488 -9.453564 1.934803
3.117788 -9.466097 -0.522313
3.093445 -9.397711 2.284153
3.114532 -9.467337 -0.173966
3.086314 -9.387074 2.647719
0.367298 -1.121760 -0.316277
3.092195 -9.449410 0.173547
1.788177 -5.467702 -1.328111
3.096922 -9.475045 0.522418
1.786505 -5.465819 -1.117759
3.090816 -9.461952 0.870860
1.934165 -5.924588 -0.987102
3.089750 -9.469890 1.223081
2.035142 -6.241273 -0.806044
3.083580 -9.462177 1.576234
3.082974 -9.460320 -0.870512
3.071527 -9.430779 1.927934
3.082252 -9.469326 -0.521894
3.057006 -9.397332 2.281454
3.077140 -9.464838 -0.173721
3.046363 -9.375743 2.641507
0.368733 -1.139577 -0.320936
3.055499 -9.448730 0.173337
1.763687 -5.457222 -1.324062
3.061988 -9.480096 0.522104
1.762588 -5.457076 -1.114706
3.054707 -9.463204 0.869989
1.913473 -5.931303 -0.987102
3.048148 -9.454166 1.219669
2.022475 -6.276681 -0.809700
3.045688 -9.457842 1.573731
3.050544 -9.472920 -0.870686
3.039190 -9.443314 1.928316
3.037561 -9.443901 -0.519905
3.019413 -9.393104 2.277854
3.041636 -9.467906 -0.173582
3.011256 -9.378963 2.639437
0.361811 -1.131657 -0.318347
3.019456 -9.449816 0.173163
1.745220 -5.465202 -1.324512
3.020984 -9.465991 0.520743
1.749497 -5.481899 -1.118522
3.017419 -9.460521 0.868768
1.913155 -6.001937 -0.997739
3.007896 -9.442053 1.216744
2.008984 -6.310184 -0.813112
3.006067 -9.447710 1.570289
3.007792 -9.453133 -0.867897
3.000854 -9.437026 1.924881
3.002763 -9.448737 -0.519591
2.979528 -9.381298 2.272455
2.999493 -9.449877 -0.173058
2.974409 -9.376526 2.635813
0.355531 -1.125545 -0.316277
2.983442 -9.450762 0.172988
1.722614 -5.460110 -1.321812
2.979514 -9.449811 0.519277
1.720905 -5.458014 -1.112417
2.983178 -9.467196 0.868420
1.909399 -6.063219 -1.006812
2.972536 -9.444921 1.215769
1.976819 -6.284967 -0.808969
2.964777 -9.431762 1.565909
2.962011 -9.428714 1.921065
2.968565 -9.455351 -0.519382
2.940346 -9.371190 2.267507
2.959309 -9.437391 -0.172639
2.942239 -9.388696 2.636331
0.344695 -1.104649 -0.310065
2.943885 -9.440120 0.172604
1.701225 -5.458647 -1.320013
2.946511 -9.460155 0.519277
1.700092 -5.458364 -1.111272
2.940639 -9.447114 0.865631
1.970371 -6.333918 -1.050614
2.937192 -9.447657 1.214794
1.938966 -6.240644 -0.802388
2.930665 -9.438281 1.565283
2.112204 -6.802409 -0.623164
2.930825 -9.444620 1.922210
2.110254 -6.804512 -0.373365
2.907040 -9.379534 2.267057
2.900880 -9.371225 2.628566
0.327180 -1.061538 -0.297642
1.680440 -5.458965 -1.318663
2.903486 -9.437929 0.517498
1.680450 -5.462389 -1.110890
2.905889 -9.451608 0.865108
1.950570 -6.348310 -1.051865
2.898951 -9.440773 1.212600
1.893294 -6.169567 -0.792395
2.893067 -9.433345 1.562780
2.080268 -6.783073 -0.620723
2.888635 -9.424761 1.916104
2.077714 -6.783192 -0.371795
2.870859 -9.378445 2.264357
2.077878 -6.792192 -0.123982
2.863066 -9.364669 2.623908
0.357226 -1.173561 -0.328700
2.063132 -6.782056 0.123738
1.655706 -5.446153 -1.314164
2.072189 -6.820375 0.373574
1.657378 -5.455072 -1.108219
2.068264 -6.811733 0.622815
2.050573 -6.757707 -1.118507
2.065233 -6.810299 0.873803
1.951774 -6.440206 -0.826274
2.056000 -6.788386 -0.620549
2.855151 -9.432907 1.915722
2.050554 -6.778933 -0.371167
2.838104 -9.388409 2.264357
2.048374 -6.780261 -0.123633
2.827569 -9.365358 2.621319
0.318649 -1.060096 -0.296607
2.035994 -6.777725 0.123528
1.634444 -5.444433 -1.312364
2.036890 -6.789307 0.371481
1.637762 -5.458944 -1.107837
2.038753 -6.799827 0.621072
2.018466 -6.736440 -1.113814
2.034045 -6.792746 0.870635
1.899119 -6.346186 -0.813356
2.031353 -6.792380 1.122887
2.081958 -6.961592 -0.635714
2.031201 -6.796194 1.378786
2.024593 -6.778394 -0.370748
2.027207 -6.791469 1.636294
2.021263 -6.775873 -0.123423
2.798723 -9.388130 2.624943
2.010049 -6.777122 0.123389
1.617091 -5.455710 -1.313714
2.006938 -6.775311 0.370329
1.614236 -5.449569 -1.104784
2.011611 -6.795439 0.620026
2.016234 -6.815425 -1.125703
2.003568 -6.776961 0.867710
2.119941 -7.175192 -0.918651
1.997562 -6.765328 1.117255
2.070621 -7.012766 -0.639723
1.998576 -6.773115 1.372680
1.998659 -6.777758 -0.370329
1.997428 -6.777942 1.631345
1.994210 -6.771377 -0.123214
2.004499 -6.810702 1.902320
1.990313 -6.797531 0.123633
1.597490 -5.459451 -1.313264
1.982716 -6.780357 0.370225
1.595755 -5.457054 -1.105166
1.979495 -6.773733 0.617411
1.982463 -6.788290 -1.120071
1.976008 -6.770574 0.866004
2.028184 -6.953866 -0.889403
1.967301 -6.749502 1.113501
2.060625 -7.069684 -0.644255
1.972175 -6.770626 1.370772
1.975547 -6.786611 -0.370434
1.971580 -6.777389 1.629545
1.969443 -6.774457 -0.123144
1.973706 -6.793541 1.895591
1.577883 -5.463122 -1.312814
1.573973 -5.453160 -1.103258
1.958047 -6.788260 0.618109
1.966963 -6.823641 -1.124764
1.950163 -6.769801 0.865029
1.997858 -6.939919 -0.886721
1.942637 -6.752531 1.112875
1.954410 -6.793454 -0.618457
1.944190 -6.762373 1.367719
1.952948 -6.797304 -0.370643
1.945759 -6.776738 1.627746
1.946888 -6.785135 -0.123214
1.937201 -6.755821 1.883168
1.936227 -6.788184 0.123214
1.553461 -5.449856 -1.308315
1.933690 -6.788272 0.369911
1.553854 -5.454845 -1.102494
1.931067 -6.783555 0.617063
1.970698 -6.927364 -1.140720
1.924349 -6.768929 0.864054
1.962227 -6.906750 -0.881603
1.921211 -6.766872 1.114126
1.938302 -6.827068 -0.620898
1.915751 -6.752121 1.364284
1.931933 -6.813688 -0.371167
1.918372 -6.770363 1.624596
1.931364 -6.820750 -0.123738
1.913607 -6.762542 1.883168
1.914146 -6.800677 0.123319
1.530734 -5.442113 -1.305166
1.911605 -6.800748 0.370225
1.533741 -5.456455 -1.101731
1.902527 -6.772991 0.615494
1.948106 -6.939907 -1.141659
1.885160 -6.720177 0.856985
1.925783 -6.869595 -0.875997
1.903974 -6.796363 1.117881
1.918759 -6.849140 -0.622292
1.895874 -6.772001 1.366956
1.912981 -6.837700 -0.372109
1.894204 -6.775142 1.624147
1.913462 -6.848636 -0.124122
1.888430 -6.763598 1.881615
1.897352 -6.832365 0.123772
1.514855 -5.458690 -1.307865
1.887853 -6.807380 0.370225
1.507864 -5.437182 -1.096770
1.885790 -6.804552 0.617760
1.927561 -6.959991 -1.143849
1.853219 -6.696106 0.853086
2.126154 -7.687500 -0.979342
1.877607 -6.793448 1.116316
2.397476 -8.674407 -0.787365
1.870133 -6.771008 1.365429
1.898134 -6.877066 -0.373888
1.867432 -6.770441 1.621447
1.890076 -6.857201 -0.124156
1.866349 -6.775736 1.883168
1.880887 -6.865947 0.124261
1.492704 -5.452667 -1.305166
1.873040 -6.846678 0.372004
1.494056 -5.461349 -1.100586
1.866756 -6.828389 0.619329
1.901171 -6.959055 -1.142597
1.863295 -6.825094 0.868685
2.126998 -7.796376 -0.992260
1.855441 -6.805677 1.117255
1.850099 -6.790754 1.368101
2.561958 -9.410096 -0.511113
1.846346 -6.786320 1.623697
2.547630 -9.370369 -0.169498
1.842180 -6.780345 1.882650
2.537601 -9.391733 0.169812
1.472646 -5.454082 -1.304266
1.855892 -6.878242 0.373365
1.470891 -5.451367 -1.097533
1.807637 -6.704053 0.607476
1.875841 -6.961834 -1.141972
1.806943 -6.710797 0.853329
2.066245 -7.679152 -0.976417
1.842958 -6.854081 1.124138
2.307889 -8.583186 -0.777604
1.835553 -6.831298 1.374970
2.523915 -9.399691 -0.510066
2.516459 -9.384998 -0.169602
1.823500 -6.805395 1.887826
2.501199 -9.387008 0.169568
1.453599 -5.459189 -1.304266
2.503095 -9.407324 0.510171
1.448825 -5.445085 -1.095244
2.498939 -9.398301 0.850814
1.940300 -7.302438 -1.196724
2.491612 -9.383935 1.192126
2.039936 -7.688237 -0.976661
2.487294 -9.380879 1.537125
2.270253 -8.562303 -0.774989
1.821251 -6.873722 1.382221
2.481888 -9.373691 -0.508182
1.811386 -6.846142 1.634944
2.482151 -9.387926 -0.169498
1.807629 -6.841603 1.896108
2.466385 -9.387945 0.169428
1.431564 -5.452921 -1.301567
2.461121 -9.381230 0.508287
1.432799 -5.461503 -1.097533
2.463591 -9.397331 0.849943
1.982879 -7.569048 -1.239274
2.455824 -9.381053 1.190664
2.041220 -7.802858 -0.990310
2.455534 -9.393328 1.537751
2.189458 -8.375485 -0.757383
2.451737 -9.385495 1.885575
2.446126 -9.370703 -0.507554
2.430851 -9.318844 2.223416
2.446843 -9.386859 -0.169323
1.791528 -6.877782 1.904391
2.429589 -9.381011 0.169149
2.428858 -9.391698 0.508392
1.407827 -5.443663 -1.092954
1.679009 -6.496920 0.587081
1.961880 -7.596962 -1.242715
2.425543 -9.399179 1.191882
2.068496 -8.021379 -1.017122
2.416816 -9.378886 1.533997
2.133362 -8.278892 -0.747971
2.416513 -9.384491 1.883667
2.410912 -9.369514 -0.507031
1.501975 -5.841341 1.392447
2.406598 -9.366291 -0.168800
2.390150 -9.309017 2.575250
2.393860 -9.377809 0.168939
1.621053 -6.359644 0.343952
1.387847 -5.444739 -1.092191
2.390058 -9.383410 0.847154
1.940708 -7.624822 -1.246157
2.389784 -9.396045 1.190420
2.004789 -7.888103 -0.999329
2.378227 -9.364290 1.530242
2.104449 -8.286288 -0.747971
2.378911 -9.373838 1.879850
2.376228 -9.370128 -0.506612
2.361426 -9.318585 2.219367
2.371434 -9.364941 -0.168625
2.349584 -9.285465 2.566450
2.356232 -9.366715 0.168590
2.360314 -9.396803 0.507764
1.370746 -5.457166 -1.093717
2.355833 -9.385898 0.846631
1.914562 -7.633466 -1.246470
2.353110 -9.388926 1.188470
1.987852 -7.937416 -1.004691
2.347444 -9.380200 1.531494
2.093892 -8.367028 -0.754594
2.340459 -9.359231 1.875271
2.342537 -9.374490 -0.506403
1.563133 -6.260073 1.489626
2.337761 -9.369281 -0.168555
2.317625 -9.295484 2.566967
2.324003 -9.376824 0.168625
2.321261 -9.379781 0.506403
1.356404 -5.480976 -1.097533
2.321621 -9.388261 0.846108
1.880323 -7.609418 -1.241464
2.312708 -9.366246 1.184570
1.959657 -7.942380 -1.004447
1.527834 -6.196878 1.010880
2.038440 -8.267892 -0.745007
2.305428 -9.357812 1.873363
2.305026 -9.363216 -0.505356
2.292123 -9.317814 2.215318
2.304088 -9.373501 -0.168486
2.283781 -9.297889 2.565414
2.286515 -9.365452 0.168276
1.570924 -6.444185 0.347615
1.329825 -5.455159 -1.091428
2.282235 -9.369207 0.843668
1.855150 -7.621695 -1.242403
2.276246 -9.358832 1.182620
1.938954 -7.978106 -1.008103
2.274908 -9.367565 1.526801
2.030257 -8.360147 -0.752677
2.270897 -9.358171 1.871836
2.268563 -9.355678 -0.504519
1.624019 -6.702652 1.592204
2.270884 -9.379543 -0.168451
2.251940 -9.365601 0.168136
2.248729 -9.366627 0.504833
1.318107 -5.490312 -1.097533
2.249981 -9.379054 0.843842
1.829456 -7.631966 -1.243028
2.241714 -9.358998 1.181645
1.943899 -8.121897 -1.025409
2.233926 -9.340868 1.521169
2.000599 -8.365244 -0.752503
2.234110 -9.348856 1.868402
2.234500 -9.357711 -0.504205
2.220234 -9.305156 2.208570
2.229317 -9.350454 -0.167787
2.215233 -9.298573 2.561274
2.216470 -9.361729 0.167927
2.213262 -9.362757 0.504205
1.326033 -5.609515 -1.120430
1.616776 -6.844780 0.615320
1.800988 -7.630615 -1.241777
2.215867 -9.395748 1.185301
1.900056 -8.062938 -1.017122
2.207191 -9.373605 1.525236
1.940789 -8.242240 -0.740824
2.200114 -9.350863 1.867257
2.199537 -9.355733 -0.503681
2.185065 -9.301466 2.205870
2.193008 -9.342605 -0.167508
2.176145 -9.278035 2.553509
2.179239 -9.349933 0.167578
1.558129 -6.695662 0.360281
2.175424 -9.355721 0.840356
1.545899 -6.653626 -1.081901
2.176772 -9.376354 1.181889
1.884459 -8.123666 -1.023946
2.164199 -9.336992 1.518040
1.894912 -8.175209 -0.734200
2.168346 -9.362312 1.868020
2.162812 -9.345841 -0.502739
1.481301 -6.406014 1.517970
2.160835 -9.352152 -0.167543
2.140702 -9.272399 2.549885
2.145246 -9.351637 0.167473
