# This PCD file was generated using the MATLAB® pcwrite function
# from Computer Vision Toolbox®.
# .PCD v.7 - Point Cloud Data file format
VERSION .7
FIELDS x y z
SIZE 4 4 4
TYPE F F F
COUNT 1 1 1
WIDTH 1623
HEIGHT 1
VIEWPOINT 0 0 0 1 0 0 0
POINTS 1623
DATA ascii
-34.296021 7.383738 -1.838562
-35.656200 7.683079 8.420817
-34.296177 7.396298 -0.612405
-35.065052 7.568517 9.612021
-7.749688 1.682623 -2.124904
-34.147732 7.420435 0.609962
-9.372597 2.038414 -2.214418
-36.679596 7.984035 1.967309
-11.721026 2.551312 -2.331686
-34.219612 7.454818 3.064047
-15.654500 3.413233 -2.537680
-22.925388 5.006921 -2.881235
-34.105579 7.454927 5.529333
-33.749199 7.377028 -3.022387
-34.194176 7.480546 6.803867
-33.704235 7.379519 -1.808208
-33.781834 7.408875 -0.603679
-34.377995 7.545910 9.430849
-7.743768 1.709662 -2.124904
-33.610046 7.426549 0.600817
-9.352104 2.068175 -2.211269
-36.807514 8.146544 1.975682
-11.715884 2.593056 -2.332449
-33.734306 7.472532 3.022910
-15.650205 3.469567 -2.538932
-33.757374 7.490004 4.245685
-22.527946 5.002572 -2.833462
-33.685966 7.486507 5.465508
-33.202000 7.378948 -2.975671
-33.581432 7.469425 6.687092
-33.124603 7.373880 -1.778481
-33.205368 7.404026 -0.593836
-7.749063 1.739221 -2.128010
-33.096146 7.434260 0.592090
-9.322013 2.095677 -2.205870
-39.043068 8.784410 2.097311
-11.702929 2.633075 -2.331686
-33.198753 7.475577 2.977240
-15.630289 3.522435 -2.537680
-33.250782 7.499480 4.185237
-22.177286 5.006004 -2.791539
-33.532455 7.575318 5.444859
-32.674641 7.381529 -2.930699
-33.114727 7.487014 6.599320
-32.646721 7.387199 -1.754197
-36.505089 8.266956 8.641270
-32.738571 7.419988 -0.585947
-7.727876 1.762823 -2.123869
-32.582611 7.438474 0.583364
-9.322239 2.129940 -2.207669
-39.008270 8.919752 2.097102
-11.682183 2.671284 -2.329396
-32.784027 7.502518 2.942378
-15.606346 3.574328 -2.535803
-32.740677 7.504625 4.124303
-21.846233 5.011484 -2.752054
-32.120487 7.374270 -2.883286
-32.598557 7.490024 6.501626
-32.176941 7.399064 -1.730332
-36.495003 8.398695 8.645769
-32.318836 7.443571 -0.578896
-32.979343 7.601758 9.068502
-7.714148 1.788043 -2.121799
-32.096722 7.445522 0.575127
-9.318544 2.163350 -2.208570
-11.688087 2.715604 -2.332449
-32.369511 7.526663 2.907516
-15.601469 3.630574 -2.537054
-32.188404 7.496402 4.058006
-21.480619 5.006598 -2.708181
-33.551857 7.826278 5.456748
-31.656042 7.384062 -2.843892
-32.136311 7.502011 6.414617
-31.703596 7.406824 -1.706257
-36.480644 8.529586 8.649367
-32.218666 7.539026 -0.577570
-32.298035 7.563535 8.888365
-7.715381 1.816731 -2.123869
-31.611193 7.449270 0.566889
-9.303350 2.194073 -2.206770
-38.976151 9.199204 2.098777
-11.667072 2.753678 -2.330160
-31.858284 7.525106 2.863938
-15.592546 3.685924 -2.537680
-31.690693 7.497200 3.998533
-21.248596 5.030786 -2.681126
-33.585850 7.957933 5.466760
-31.234575 7.400815 -2.808332
-31.613258 7.496361 6.315397
-31.226706 7.410455 -1.681973
-36.492355 8.666791 8.659266
-31.801584 7.564470 8.758955
-7.705235 1.842753 -2.122834
-31.192154 7.465538 0.559838
-9.308900 2.229714 -2.209919
-38.974876 9.342651 2.100451
-11.649752 2.792557 -2.328633
-31.223478 7.490321 2.809204
-15.556534 3.734793 -2.533926
-31.224251 7.502041 3.942961
-20.995434 5.048308 -2.651390
-33.623161 8.090826 5.477397
-30.801764 7.411906 -2.771727
-31.159351 7.503706 6.229914
-30.746298 7.409921 -1.657480
-31.274963 7.543098 7.427434
-31.512081 7.611936 8.686484
-7.710021 1.872372 -2.125940
-30.707323 7.462924 0.551601
-9.287806 2.258971 -2.206770
-38.984718 9.489024 2.102754
-11.639934 2.833203 -2.328633
-30.740294 7.487991 2.768066
-15.554919 3.791880 -2.535803
-30.789026 7.511248 3.891289
-20.950687 5.114974 -2.647977
-30.357643 7.417235 -2.734076
-30.736298 7.515436 6.150537
-30.340002 7.424149 -1.636964
-30.820667 7.547468 7.325756
-33.357670 8.174910 -0.599490
-7.684680 1.894649 -2.120763
-30.246197 7.462773 0.543782
-9.276079 2.290444 -2.205870
-11.629972 2.873817 -2.328633
-30.257511 7.482373 2.726929
-15.530082 3.843307 -2.533926
-30.346413 7.515591 3.838641
-20.828657 5.162288 -2.634815
-33.605656 8.329009 5.483654
-29.956411 7.430110 -2.700259
-30.424063 7.551737 6.093295
-30.355377 7.545938 7.221379
-33.345901 8.289342 -0.599769
-7.681767 1.922402 -2.121799
-29.802271 7.458173 0.536243
-9.270324 2.321666 -2.206320
-38.992847 9.772616 2.106732
-11.612253 2.912488 -2.327107
-29.914288 7.508400 2.698342
-15.498093 3.889977 -2.530797
-29.917013 7.514627 3.787456
-20.676661 5.197455 -2.617754
-33.610863 8.454939 5.489286
-29.026066 7.306995 -2.618681
-29.968582 7.544263 6.007049
-29.076361 7.325060 -1.571440
-29.933367 7.546518 7.126899
-32.083603 8.094562 -0.577570
-31.506954 7.954932 8.707191
-7.675350 1.947864 -2.121799
-29.407803 7.468634 0.529611
-9.256496 2.352569 -2.204970
-39.001080 9.919499 2.109035
-11.594920 2.949042 -2.325580
-29.503057 7.509271 2.663479
-15.499734 3.947949 -2.533300
-29.471258 7.512131 3.734321
-20.623770 5.260767 -2.613366
-33.650051 8.589793 5.500549
-29.048010 7.415038 -2.622865
-29.420866 7.515694 5.902486
-29.023523 7.419586 -1.569974
-29.480173 7.541799 7.025221
-32.171379 8.236270 -0.579664
-32.470844 8.318974 8.981540
-7.664762 1.973682 -2.120763
-29.002010 7.473432 0.522769
-9.248228 2.384866 -2.204970
-38.989426 10.061579 2.110291
-11.599763 2.993425 -2.328633
-29.040691 7.499615 2.624085
-15.478209 4.000052 -2.532048
-29.075857 7.519531 3.687523
-20.616812 5.335705 -2.614829
-29.022732 7.516593 4.748413
-28.678631 7.427474 -2.591837
-28.980152 7.510970 5.819293
-28.649456 7.430590 -1.551133
-29.083960 7.548709 6.937041
-28.720514 7.459727 -0.517953
-29.143412 7.574990 8.068425
-7.665303 2.002377 -2.122834
-28.623636 7.482576 0.516417
-9.247389 2.419107 -2.206770
-28.818008 7.544135 1.561182
-11.570251 3.028923 -2.324817
-28.748360 7.531263 2.600030
-15.467972 4.055063 -2.532674
-28.692291 7.527278 3.642188
-20.586540 5.404615 -2.613366
-28.625669 7.520487 4.687716
-28.367331 7.452617 -2.566039
-28.653759 7.533206 5.758997
-28.271809 7.438065 -1.532083
-28.631531 7.538055 6.835363
-28.365574 7.473320 -0.512019
-28.761868 7.583098 7.970074
-7.647062 2.026153 -2.119728
-28.233955 7.486096 0.509855
-9.229470 2.448873 -2.204520
-28.359097 7.529872 1.537735
-11.540633 3.064255 -2.321001
-28.456167 7.560963 2.575975
-15.472815 4.114104 -2.535803
-28.270664 7.522239 3.591977
-20.559875 5.474401 -2.612391
-28.377827 7.561360 4.651423
-27.959951 7.450016 -2.531526
-28.570379 7.618007 5.747549
-27.890596 7.441971 -1.512823
-28.247316 7.542427 6.749881
-28.285217 7.557836 -0.511041
-28.638172 7.657508 7.943157
-7.647764 2.053504 -2.121799
-27.838188 7.480053 0.503153
-9.226944 2.480984 -2.205870
-27.994524 7.532539 1.519313
-11.545573 3.106589 -2.324054
-28.411699 7.650106 2.574232
-15.424755 4.156142 -2.530171
-27.896732 7.521892 3.547617
-20.549274 5.544619 -2.613366
-27.849125 7.519483 4.568826
-27.573473 7.445055 -2.498755
-27.534145 7.444748 -1.494820
-27.887316 7.545463 6.669799
-28.310184 7.665181 -0.511949
-7.640549 2.080188 -2.121799
-27.414457 7.468893 0.495963
-9.210707 2.511127 -2.204070
-27.551865 7.516666 1.496704
-11.530872 3.145839 -2.323290
-15.417775 4.212041 -2.531423
-27.502661 7.518716 3.500819
-20.552771 5.622601 -2.616291
-27.434031 7.510247 4.505001
-27.216787 7.450775 -2.468774
-28.498928 7.807116 5.743732
-27.142012 7.440489 -1.474932
-27.477427 7.537594 6.578019
-28.306396 7.770308 -0.512368
-27.627886 7.589237 7.677091
-7.622070 2.103760 -2.118693
-27.045116 7.469785 0.489749
-9.198130 2.542225 -2.203171
-27.178961 7.516956 1.477863
-11.527390 3.188160 -2.324817
-28.445929 7.872717 2.582250
-15.395364 4.263726 -2.530171
-27.116608 7.514997 3.454996
-20.467981 5.676273 -2.608004
-27.061224 7.509827 4.448058
-26.843742 7.454513 -2.437397
-28.467720 7.905491 5.742970
-26.769493 7.438932 -1.456091
-27.105488 7.537398 6.495236
-28.298365 7.874437 -0.512717
-27.206682 7.575769 7.567351
-7.625468 2.134809 -2.121799
-26.683813 7.470342 0.483676
-9.196705 2.576418 -2.204970
-26.817934 7.517978 1.459650
-11.500504 3.226150 -2.321764
-28.439903 7.983379 2.584342
-15.364417 4.315850 -2.527668
-26.761492 7.517277 3.413073
-20.448042 5.747686 -2.608004
-26.780033 7.532564 4.406134
-26.487684 7.455329 -2.407416
-28.559496 8.043849 5.767393
-26.438314 7.451387 -1.439553
-26.751331 7.544654 6.416954
-28.301500 7.981847 -0.513275
-26.897470 7.590938 7.488671
-7.603102 2.157194 -2.117657
-26.352316 7.481793 0.478161
-9.194698 2.612241 -2.206770
-26.453390 7.515486 1.441228
-11.477843 3.263051 -2.319474
-28.450190 8.093509 2.587828
-15.341660 4.367293 -2.526417
-26.435940 7.530470 3.375050
-20.426840 5.822588 -2.608004
-26.373634 7.517698 4.343560
-26.093630 7.442815 -2.373948
-28.557676 8.151030 5.772736
-26.066462 7.444905 -1.420712
-26.514977 7.578012 6.366565
-26.477045 7.572163 7.378932
-7.586242 2.181052 -2.115069
-25.985273 7.470791 0.471948
-9.178493 2.640563 -2.204970
-26.158291 7.530420 1.426574
-11.481476 3.307445 -2.322527
-28.540457 8.226992 2.598636
-15.332786 4.419785 -2.527355
-26.151423 7.543272 3.341901
-20.407419 5.890295 -2.608004
-26.024601 7.516538 4.290372
-25.768900 7.447551 -2.346756
-28.579527 8.259859 5.782658
-25.780695 7.455835 -1.406477
-26.197678 7.581389 6.296380
-26.120169 7.568833 7.286792
-7.595663 2.211057 -2.119728
-25.644171 7.469737 0.466224
-9.139287 2.663858 -2.197772
-25.855745 7.541156 1.411501
-11.466675 3.344401 -2.321764
-29.465496 8.599566 2.685443
-15.283135 4.463309 -2.521724
-25.884851 7.564353 3.311190
-20.386732 5.961500 -2.608004
-25.713825 7.524117 4.243442
-25.436810 7.447878 -2.318866
-29.571728 8.658580 5.989495
-25.432508 7.451446 -1.388892
-25.744686 7.547789 6.193802
-25.774763 7.566378 7.197758
-7.587507 2.238882 -2.119728
-25.357101 7.482240 0.461477
-9.148623 2.701263 -2.202271
-25.492153 7.531763 1.393079
-11.450575 3.385293 -2.321001
-29.460526 8.715418 2.687883
-15.281827 4.523781 -2.524227
-25.538511 7.560001 3.270242
-20.331539 6.022474 -2.603617
-25.380587 7.522888 4.192757
-25.135595 7.455044 -2.293765
-29.569906 8.775852 5.995600
-25.087200 7.450218 -1.371516
-25.346983 7.532187 6.104722
-25.477844 7.575912 7.122183
-7.562987 2.260375 -2.115069
-25.030634 7.485746 0.456031
-9.133060 2.733098 -2.200921
-25.150591 7.531186 1.375912
-11.427402 3.421864 -2.318711
-29.449007 8.823920 2.689626
-15.243237 4.570289 -2.520473
-25.255848 7.577115 3.237581
-20.324541 6.101519 -2.605567
-25.050144 7.524939 4.142698
-24.811743 7.453325 -2.266572
-29.572937 8.889183 6.002470
-24.816227 7.464109 -1.358118
-25.033165 7.534130 6.035437
-25.816584 7.774820 -0.470622
-25.131760 7.573365 7.033149
-7.571692 2.291798 -2.119728
-24.740244 7.493077 0.451215
-9.130924 2.767225 -2.202721
-24.818340 7.526196 1.359165
-11.415389 3.461732 -2.318711
-29.471415 8.942856 2.694507
-15.242311 4.628062 -2.522975
-24.765799 7.524424 3.178109
-20.299320 6.171268 -2.605079
-24.740246 7.526094 4.095767
-24.484407 7.448267 -2.239031
-29.571779 9.001506 6.008575
-24.507252 7.464569 -1.342627
-24.771839 7.549877 5.978749
-32.082157 9.784009 -0.585458
-24.813225 7.571963 6.951362
-7.534094 2.309155 -2.111446
-24.415693 7.487932 0.445769
-9.113756 2.796794 -2.200921
-24.543715 7.536561 1.345558
-11.399483 3.500403 -2.317948
-29.474297 9.056216 2.697644
-15.226064 4.681240 -2.522975
-24.466167 7.526769 3.143011
-20.266270 6.238590 -2.603617
-24.441975 7.528672 4.050714
-24.225960 7.462135 -2.217765
-24.190945 7.460595 -1.326717
-24.715542 7.627107 5.971551
-32.074558 9.904198 -0.585947
-24.520855 7.576403 6.876822
-7.544438 2.341165 -2.116622
-24.133501 7.493652 0.441092
-9.089051 2.823963 -2.197322
-24.215916 7.528505 1.329019
-11.394693 3.542505 -2.319474
-15.220949 4.737880 -2.524853
-24.166822 7.527127 3.107912
-20.251951 6.311658 -2.604592
-24.136448 7.526908 4.004410
-23.925867 7.461240 -2.192664
-29.667517 9.257445 6.041013
-23.905474 7.464037 -1.312481
-24.696207 7.715659 5.973350
-32.089417 10.031613 -0.586855
-24.206635 7.571980 6.796071
-7.538062 2.368067 -2.117140
-23.851568 7.497489 0.436415
-9.077279 2.855088 -2.196872
-23.950758 7.533261 1.315831
-11.386003 3.583441 -2.320238
-29.486370 9.285696 2.704617
-15.181708 4.783858 -2.521098
-23.863991 7.524288 3.072326
-20.227123 6.377588 -2.604105
-23.858917 7.527267 3.962486
-23.664083 7.470334 -2.171050
-23.865273 7.538432 4.864866
-23.631699 7.469189 -1.298874
-24.655619 7.792815 5.969751
-32.090290 10.148825 -0.587483
-23.908802 7.565950 6.719460
-7.522804 2.390709 -2.115069
-23.590271 7.501402 0.432087
-9.065905 2.884583 -2.196422
-23.670609 7.531497 1.301805
-11.351609 3.614029 -2.315658
-29.493382 9.395529 2.708103
-15.158234 4.831778 -2.519847
-23.585482 7.522553 3.039665
-20.175602 6.434978 -2.600204
-23.562838 7.519862 3.917432
-23.358282 7.459065 -2.145251
-23.626949 7.549410 4.821362
-23.355684 7.467227 -1.285057
-24.618505 7.870973 5.967052
-32.090744 10.266145 -0.588111
-23.614956 7.559206 6.643885
-7.507478 2.413278 -2.112999
-23.371094 7.517136 0.428526
-9.061854 2.916422 -2.197772
-23.400833 7.535715 1.288407
-11.335824 3.650449 -2.314895
-29.443098 9.487171 2.706360
-15.119566 4.874744 -2.516092
-23.303476 7.517832 3.006517
-20.134127 6.499268 -2.597767
-23.292078 7.523132 3.876760
-23.109695 7.464224 -2.124683
-23.340248 7.543190 4.767935
-23.083748 7.464748 -1.271450
-32.081345 10.386732 -0.588600
-23.411993 7.584437 6.594192
-7.502683 2.440663 -2.114034
-23.131742 7.529351 0.424617
-9.046060 2.946226 -2.196422
-23.131315 7.538148 1.275009
-11.311811 3.686349 -2.312605
-29.459055 9.605943 2.710892
-15.042362 4.907884 -2.506080
-23.182737 7.568334 2.994330
-20.111319 6.569505 -2.597767
-23.077909 7.543021 3.845472
-22.825943 7.460665 -2.100976
-23.045071 7.536745 4.712982
-22.837358 7.473220 -1.259308
-25.374128 8.308247 6.164109
-32.090500 10.513597 -0.589438
-23.205477 7.607135 6.543463
-7.497787 2.468047 -2.115069
-22.892595 7.539986 0.420708
-9.028317 2.975343 -2.194623
-22.839312 7.531274 1.260355
-11.317521 3.731958 -2.316421
-29.466969 9.722449 2.714727
-15.040147 4.965313 -2.508584
-23.110941 7.634262 2.988480
-20.088264 6.639667 -2.597767
-22.770117 7.530500 3.798542
-22.580332 7.467734 -2.080756
-22.806147 7.546825 4.669478
-22.564651 7.471281 -1.245701
-25.374569 8.406581 6.171308
-23.386774 7.752550 -0.430062
-22.966082 7.617541 6.483418
-7.483628 2.492373 -2.113516
-22.649862 7.547775 0.416729
-9.010481 3.004376 -2.192823
-22.600687 7.540159 1.248631
-11.296976 3.768956 -2.314895
-29.474430 9.839129 2.718562
-15.000237 5.010277 -2.504829
-23.110508 7.723698 2.991893
-20.027311 6.697157 -2.592892
-22.507658 7.530955 3.759120
-22.334953 7.473169 -2.060536
-22.541367 7.546608 4.620631
-22.303598 7.471335 -1.232721
-25.444849 8.528542 6.195602
-32.099743 10.765344 -0.590973
-22.532759 7.561230 6.368502
-7.473052 2.517863 -2.112999
-22.384621 7.546303 0.412331
-9.009171 3.038925 -2.195072
-22.335789 7.538529 1.235443
-11.261429 3.800833 -2.310315
-14.926515 5.043637 -2.495443
-19.988768 6.761936 -2.590942
-22.241735 7.528410 3.719074
-22.116238 7.485932 -2.042756
-22.250835 7.535820 4.566441
-22.057955 7.474787 -1.220579
-25.381702 8.606045 6.187503
-32.084690 10.885036 -0.591392
-22.279394 7.562833 6.304315
-7.456903 2.541440 -2.110928
-22.127235 7.545657 0.408072
-8.989286 3.067208 -2.192823
-22.071184 7.535138 1.222254
-11.262958 3.845192 -2.313368
-29.454041 10.061405 2.723094
-14.777973 5.050988 -2.473542
-23.059784 7.886131 2.992380
-19.934994 6.821386 -2.587043
-22.009743 7.535618 3.684658
-21.837385 7.476607 -2.019399
-22.016378 7.542178 4.523700
-21.816345 7.477912 -1.208647
-25.366255 8.699651 6.191103
-32.084332 11.009950 -0.592090
-22.037254 7.566529 6.243233
-7.453466 2.569344 -2.112481
-21.870131 7.543303 0.403814
-8.984053 3.100473 -2.194173
-21.852180 7.545648 1.211578
-11.249465 3.884487 -2.313368
-29.467703 10.181075 2.727626
-14.599692 5.047034 -2.446635
-23.122164 7.997730 3.004080
-19.903557 6.888334 -2.586068
-21.766775 7.537416 3.648365
-21.602749 7.484845 -2.000224
-21.759890 7.539291 4.476379
-21.586302 7.483367 -1.197342
-25.379923 8.803464 6.201900
-32.098595 11.140237 -0.593068
-21.809961 7.573697 6.186293
-7.438526 2.594736 -2.110928
-21.635975 7.547145 0.399974
-8.960296 3.127320 -2.191023
-21.629606 7.553399 1.200692
-11.235153 3.925689 -2.313368
-29.479094 10.306101 2.732158
-14.467356 5.060728 -2.427550
-23.959782 8.381209 3.116687
-19.868149 6.953830 -2.584605
-21.546436 7.545456 3.615827
-21.362135 7.485100 -1.980353
-21.524611 7.546243 4.433638
-21.343878 7.487068 -1.185410
-25.376902 8.906759 6.209099
-32.082153 11.260160 -0.593487
-21.710485 7.624174 6.165587
-7.429423 2.620685 -2.110928
-21.404510 7.554522 0.396205
-8.948773 3.160140 -2.191023
-21.364500 7.548782 1.187503
-11.221382 3.964884 -2.313368
-29.518072 10.435511 2.739131
-14.293170 5.055860 -2.401269
-23.955101 8.478237 3.120099
-19.816330 7.017332 -2.581193
-21.384577 7.576872 3.593300
-21.131748 7.491443 -1.961527
-21.301992 7.551796 4.393187
-21.121849 7.492088 -1.174524
-25.367697 9.003102 6.214498
-32.097202 11.397748 -0.594534
-21.675114 7.701114 6.163517
-7.428865 2.651145 -2.113516
-21.178375 7.557943 0.392505
-8.926677 3.187426 -2.188324
-21.123606 7.546710 1.175570
-11.180893 3.996734 -2.308026
-21.138885 7.560490 1.964142
-14.155511 5.065621 -2.381246
-23.962742 8.575189 3.124974
-19.776764 7.081104 -2.579243
-21.172033 7.584851 3.562013
-20.921665 7.499283 -1.944445
-21.070890 7.556917 4.351209
-20.883701 7.493896 -1.162800
-25.378546 9.111830 6.225296
-32.091099 11.521883 -0.595162
-21.659010 7.780642 6.166623
-7.389603 2.663335 -2.104717
-20.961323 7.558940 0.388944
-8.912392 3.215688 -2.187424
-20.919434 7.547960 1.165522
-11.171974 4.033174 -2.308789
-20.882666 7.542933 1.942527
-13.976043 5.050980 -2.353713
-20.850229 7.539444 2.722318
-19.727039 7.137192 -2.575831
-20.947487 7.578747 3.528223
-20.695675 7.491727 -1.925619
-20.836611 7.546858 4.307704
-20.691055 7.498224 -1.153380
-20.864988 7.565375 5.123935
-20.658588 7.490537 -0.383569
-20.875355 7.573262 5.950250
-7.396599 2.695064 -2.109375
-20.710680 7.546254 0.384756
-8.905341 3.246560 -2.188324
-20.697821 7.549759 1.154636
-11.165206 4.074840 -2.310315
-20.654085 7.541975 1.923702
-13.818196 5.045805 -2.329935
-20.683407 7.556773 2.703794
-19.703264 7.202571 -2.575831
-20.727966 7.581254 3.495685
-20.467323 7.489974 -1.906793
-20.641853 7.553843 4.272595
-20.467274 7.494007 -1.142285
-20.766592 7.607712 5.105939
-20.493378 7.511679 -0.380986
-20.685556 7.586215 5.903663
-7.383995 2.718243 -2.108340
-20.432764 7.525893 0.380079
-8.901267 3.280321 -2.190123
-20.506437 7.561153 1.145425
-11.161964 4.117866 -2.312605
-20.486900 7.558016 1.910454
-13.693015 5.054335 -2.311789
-20.448343 7.551896 2.676495
-19.678001 7.271306 -2.575831
-20.479038 7.571362 3.458141
-20.257929 7.493634 -1.889711
-20.389402 7.546313 4.226038
-20.252375 7.499617 -1.131817
-20.454826 7.574586 5.035754
-20.287016 7.516477 -0.377635
-20.463318 7.585854 5.847758
-7.370361 2.743942 -2.107305
-20.183922 7.518361 0.375960
-8.876402 3.308160 -2.186974
-20.250277 7.551133 1.132655
-11.124725 4.150511 -2.308026
-20.246258 7.553654 1.890582
-13.552256 5.058895 -2.291139
-20.256878 7.565678 2.655046
-19.625189 7.333648 -2.572418
-20.155107 7.535685 3.408082
-20.047449 7.499422 -1.872628
-20.185093 7.554923 4.189403
-20.026485 7.499549 -1.120722
-20.237127 7.578431 4.988965
-20.098291 7.530439 -0.374633
-20.301516 7.610629 5.809453
-7.356639 2.769574 -2.106270
-19.976580 7.524624 0.372609
-8.866042 3.341357 -2.187424
-20.055592 7.558378 1.123234
-11.091799 4.182392 -2.304209
-20.039476 7.560300 1.873849
-13.478180 5.087600 -2.281753
-20.193726 7.626546 2.650415
-19.584610 7.396502 -2.570468
-19.951286 7.538962 3.378046
-19.838512 7.500301 -1.855546
-19.967625 7.553102 4.149714
-19.809656 7.497300 -1.110046
-20.021004 7.577288 4.942175
-20.049444 7.592047 -0.374215
-20.292894 7.688289 5.814629
-7.341996 2.791895 -2.104717
-19.764618 7.519721 0.369118
-8.842163 3.365886 -2.184275
-19.851223 7.556631 1.113186
-11.081538 4.220549 -2.304973
-19.816944 7.551508 1.855371
-13.435394 5.122416 -2.277373
-20.198002 7.704785 2.654315
-19.541428 7.454327 -2.568031
-19.749002 7.537462 3.348011
-19.616234 7.490706 -1.837069
-19.762743 7.550605 4.112316
-19.624241 7.501619 -1.101044
-19.802816 7.569882 4.894485
-20.065248 7.674208 -0.374982
-20.321413 7.776253 5.830158
-7.316467 2.809993 -2.100058
-19.556644 7.514924 0.365698
-8.841866 3.399386 -2.186974
-19.653227 7.559911 1.103556
-11.045492 4.248816 -2.300393
-19.624445 7.552777 1.839683
-13.407273 5.162683 -2.275496
-20.166784 7.769582 2.653583
-19.478243 7.508220 -2.563156
-19.541956 7.536691 3.317350
-19.416546 7.488325 -1.820683
-19.576410 7.553905 4.078733
-19.424114 7.499038 -1.091205
-19.634481 7.584191 4.859393
-20.058857 7.752132 -0.375366
-20.286940 7.844355 5.828088
-7.321022 2.841107 -2.104199
-19.355066 7.515108 0.362417
-8.813599 3.423879 -2.182925
-19.436838 7.554666 1.092880
-11.045233 4.293036 -2.303446
-19.419697 7.551905 1.822949
-13.378125 5.205154 -2.273619
-20.213535 7.868734 2.663333
-19.333534 7.530053 -2.547557
-19.349874 7.540308 3.289191
-19.234348 7.495289 -1.806041
-19.403591 7.565146 4.048204
-19.215471 7.495664 -1.080947
-19.437243 7.586078 4.817102
-19.975792 7.800288 -0.374319
-20.317013 7.937618 5.844652
-7.309262 2.865938 -2.103681
-19.161173 7.516898 0.359275
-8.792522 3.451063 -2.180676
-19.250467 7.559682 1.083878
-11.011906 4.324389 -2.299630
-19.267120 7.570103 1.811096
-13.264275 5.214241 -2.257349
-20.204416 7.946517 2.665770
-19.155661 7.537890 -2.527570
-19.158012 7.542677 3.261033
-19.036200 7.498561 -1.790004
-19.187094 7.558000 4.008516
-19.021957 7.496780 -1.071527
-19.207600 7.573817 4.766713
-20.067488 7.916936 -0.376553
-20.307152 8.015577 5.849828
-7.300504 2.893422 -2.104199
-18.978662 7.521848 0.356343
-8.785858 3.483887 -2.182025
-19.071732 7.566437 1.075295
-11.014230 4.371964 -2.303446
-19.117035 7.592130 1.799592
-13.193672 5.242399 -2.248589
-20.198692 8.025786 2.668695
-18.952141 7.534308 -2.504171
-18.973713 7.546724 3.234127
-18.839600 7.497185 -1.773968
-18.984163 7.558551 3.971880
-18.819937 7.496976 -1.061687
-19.009544 7.576346 4.724422
-20.071314 7.999519 -0.377147
-20.314938 8.100725 5.860181
-7.279599 2.914578 -2.101093
-18.791323 7.527408 0.353341
-8.773029 3.516068 -2.182025
-18.884447 7.572357 1.066293
-10.969748 4.398691 -2.297340
-18.842630 7.559412 1.776234
-13.160628 5.282535 -2.246086
-20.217037 8.118995 2.675032
-18.773357 7.543034 -2.484185
-18.894606 7.595581 3.225366
-18.665428 7.503452 -1.760023
-18.801014 7.561769 3.939061
-18.638014 7.499990 -1.052895
-18.838366 7.584432 4.688430
-20.062262 8.081254 -0.377530
-20.310196 8.185239 5.867428
-7.251472 2.932728 -2.095917
-18.586979 7.520950 0.349991
-8.751672 3.543012 -2.179776
-18.728315 7.585748 1.058966
-10.957965 4.438433 -2.298104
-18.675793 7.568269 1.762986
-13.131125 5.323986 -2.244209
-20.232719 8.207430 2.680882
-18.585049 7.542826 -2.462736
-18.860657 7.658517 3.224115
-18.469290 7.499600 -1.743986
-18.599894 7.556415 3.902426
-18.459997 7.503334 -1.044312
-18.649309 7.584075 4.647939
-20.078384 8.169317 -0.378368
-20.306551 8.266283 5.874675
-7.251921 2.962408 -2.099023
-18.416231 7.526772 0.347268
-8.757288 3.580915 -2.184275
-18.525585 7.575239 1.048917
-10.949673 4.479630 -2.299630
-18.498060 7.571526 1.748693
-13.097836 5.363801 -2.241706
-20.211296 8.281015 2.681857
-18.400644 7.542902 -2.441774
-18.842466 7.724017 3.225366
-18.288155 7.500518 -1.729344
-18.420834 7.558690 3.870370
-18.274799 7.502494 -1.035310
-18.474909 7.588415 4.611047
-20.071531 8.244214 -0.378752
-20.321911 8.351200 5.887098
-7.248679 2.990649 -2.101093
-18.243286 7.526788 0.344476
-8.725552 3.601757 -2.179326
-18.318117 7.565150 1.038659
-10.919454 4.511827 -2.296577
-18.331583 7.578197 1.735445
-13.083629 5.408715 -2.242332
-22.601442 9.347963 3.003105
-18.210445 7.535568 -2.419838
-18.819042 7.791250 3.225992
-18.107241 7.500265 -1.714702
-18.254189 7.561132 3.840604
-18.102213 7.501884 -1.026936
-18.280432 7.579474 4.568756
-30.652241 12.715380 -0.579245
-21.341795 8.857520 6.191469
-7.240506 3.015414 -2.101611
-18.061848 7.525817 0.341544
-8.725516 3.637442 -2.182475
-18.151503 7.570616 1.030704
-10.886312 4.540455 -2.292761
-18.137188 7.568357 1.719408
-13.064669 5.454353 -2.242332
-22.557682 9.422210 3.001642
-18.033842 7.536320 -2.399851
-18.780794 7.852326 3.224115
-17.952284 7.509604 -1.702500
-18.108147 7.574802 3.815417
-17.939577 7.507962 -1.019191
-18.117249 7.586041 4.534564
-30.648245 12.839298 -0.580013
-7.218721 3.037436 -2.098505
-17.895388 7.529878 0.338891
-8.703784 3.664099 -2.180226
-17.951944 7.561052 1.020865
-10.862361 4.577272 -2.291234
-17.966127 7.574415 1.705812
-13.033669 5.497595 -2.240455
-22.561239 9.516319 3.006517
-17.881231 7.545970 -2.383033
-17.764454 7.503995 -1.687161
-17.978994 7.598319 3.794046
-17.764771 7.511442 -1.010817
-17.949333 7.593169 4.499471
-30.632710 12.958661 -0.580572
-18.052206 7.640407 5.252474
-7.188517 3.054304 -2.092811
-17.720442 7.532832 0.336098
-8.693884 3.697499 -2.181125
-17.807814 7.573644 1.014166
-10.864382 4.622852 -2.295051
-17.803923 7.579328 1.692913
-13.007131 5.539961 -2.239203
-22.559078 9.612959 3.010904
-17.696411 7.544506 -2.362072
-19.768551 8.427921 3.403702
-17.598869 7.506551 -1.673913
-17.825960 7.607096 3.767333
-17.587822 7.509097 -1.002234
-17.777559 7.593772 4.463029
-30.649813 13.092219 -0.581759
-17.808702 7.610755 5.189322
-7.192013 3.085473 -2.096952
-17.555698 7.531637 0.333446
-8.670830 3.721697 -2.178426
-17.627113 7.569560 1.005374
-10.837357 4.656095 -2.292761
-17.638243 7.581633 1.679665
-12.985057 5.581504 -2.238577
-22.519783 9.684573 3.009929
-17.532713 7.543523 -2.343548
-19.769857 8.510153 3.409020
-17.449953 7.515140 -1.662234
-17.656385 7.604043 3.736804
-17.423424 7.507314 -0.994279
-17.603748 7.588655 4.425687
-30.647989 13.218141 -0.582596
-17.647223 7.614700 5.149981
-7.179970 3.108536 -2.096434
-17.389845 7.532465 0.330793
-8.639906 3.744193 -2.173927
-17.457651 7.569075 0.997209
-10.821856 4.692008 -2.292761
-17.481398 7.582995 1.667115
-12.969120 5.628370 -2.239203
-22.525898 9.780517 3.015291
-17.356974 7.539822 -2.323561
-19.769016 8.591708 3.414026
-17.276928 7.508636 -1.648115
-17.516310 7.616306 3.712761
-17.254255 7.505943 -0.986114
-17.423483 7.583176 4.386995
-30.645668 13.344195 -0.583434
-17.478848 7.614531 5.108571
-7.179696 3.138225 -2.099540
-17.224201 7.532229 0.328140
-8.637496 3.779014 -2.176626
-17.292070 7.569100 0.989254
-10.805412 4.729754 -2.292761
-17.305170 7.578434 1.652821
-12.949395 5.673604 -2.239203
-22.538891 9.879808 3.021629
-17.196020 7.541366 -2.305525
-19.762421 8.670981 3.418093
-17.111952 7.508059 -1.634867
-17.338612 7.611116 3.680706
-17.092628 7.506696 -0.978368
-17.266665 7.586724 4.354153
-30.642836 13.470402 -0.584272
-17.307154 7.611723 5.066124
-7.145721 3.153129 -2.092811
-17.077066 7.539001 0.325836
-8.617121 3.805994 -2.174827
-17.138987 7.569917 0.981927
-10.760103 4.754747 -2.286655
-17.129187 7.572730 1.638528
-12.931316 5.719573 -2.239516
-22.544203 9.976097 3.026991
-17.053423 7.549911 -2.289925
-19.766073 8.750858 3.423725
-16.950832 7.508036 -1.621968
-17.168344 7.607962 3.650176
-16.934860 7.508028 -0.970832
-17.101131 7.585320 4.319060
-17.517214 7.769876 -0.334493
-17.151148 7.611088 5.027819
-7.134671 3.178051 -2.092811
-16.909492 7.532124 0.323114
-8.597333 3.831374 -2.173027
-16.992064 7.576018 0.975019
-10.757787 4.798675 -2.289708
-16.982563 7.578890 1.627023
-12.905062 5.759204 -2.238265
-22.532749 10.060514 3.029916
-16.894169 7.546509 -2.271888
-19.769670 8.835121 3.429670
-16.784470 7.504541 -1.608546
-16.906443 7.559076 3.599803
-16.793188 7.511950 -0.964133
-16.942476 7.582285 4.285317
-30.641695 13.719530 -0.586017
-17.011642 7.620361 4.994690
-7.127617 3.203277 -2.093846
-16.766373 7.538622 0.320880
-8.576797 3.858165 -2.171227
-16.817488 7.565138 0.966436
-10.723911 4.826266 -2.285892
-16.833801 7.579538 1.615170
-12.857863 5.792047 -2.233572
-22.526453 10.152152 3.033816
-16.751905 7.553215 -2.256289
-19.781683 8.919302 3.436866
-16.655972 7.513462 -1.598611
-16.751112 7.559894 3.572326
-16.628517 7.508064 -0.956178
-16.796917 7.587629 4.255174
-30.665277 13.852348 -0.587343
-16.838404 7.609903 4.951209
-7.121670 3.230532 -2.095399
-16.617447 7.538006 0.318506
-8.569280 3.889000 -2.172577
-16.663677 7.565992 0.959109
-10.717723 4.868542 -2.288182
-16.680269 7.580554 1.602968
-12.827795 5.829750 -2.231694
-22.543259 10.249803 3.040640
-16.571369 7.538038 -2.235328
-18.596146 8.462997 3.236004
-16.495461 7.510458 -1.585711
-16.611599 7.563336 3.547903
-16.479935 7.506863 -0.949060
-16.672359 7.598034 4.229980
-30.674967 13.985847 -0.588460
-16.678158 7.607702 4.911868
-7.108026 3.255808 -2.094882
-16.490211 7.556771 0.316622
-8.557827 3.923499 -2.173477
-16.519638 7.573745 0.952410
-10.699807 4.907791 -2.288182
-16.525618 7.583467 1.590767
-12.816089 5.883904 -2.233572
-16.540024 7.597068 2.234840
-16.383572 7.528671 -2.213879
-18.575775 8.536044 3.237881
-16.454012 7.567997 3.520426
-16.345757 7.521661 -0.942989
-16.485519 7.589466 4.189939
-30.648926 14.109897 -0.588949
-16.523825 7.610591 4.874599
-7.087850 3.276547 -2.092293
-16.396090 7.579529 0.315295
-8.546538 3.952675 -2.173927
-16.358969 7.569300 0.944664
-10.657668 4.933565 -2.282839
-16.350796 7.572449 1.576473
-12.778582 5.918070 -2.230443
-16.385054 7.591787 2.217291
-16.225243 7.521181 -2.195842
-18.553032 8.604157 3.239132
-16.311287 7.567985 3.495239
-16.190287 7.515279 -0.935453
-16.341843 7.589095 4.159795
-30.661146 14.245444 -0.590136
-16.353506 7.601451 4.832151
-7.068191 3.295951 -2.089705
-16.326038 7.616426 0.314457
-8.541518 3.986603 -2.176177
-16.223864 7.575656 0.938384
-10.623460 4.960574 -2.279023
-16.231730 7.582779 1.567409
-12.754268 5.960964 -2.229817
-16.246965 7.596807 2.202179
-16.073023 7.518893 -2.178780
-18.540775 8.677242 3.242261
-16.098309 7.534146 -1.555033
-16.167421 7.569931 3.470052
-16.059053 7.522608 -0.929382
-16.195259 7.589864 4.129201
-30.665552 14.377846 -0.591183
-16.211437 7.604343 4.797987
-7.060138 3.322249 -2.090740
-16.321064 7.683585 0.314876
-8.506393 4.006433 -2.170778
-16.078077 7.576054 0.931475
-10.613184 5.000974 -2.280549
-16.089823 7.585015 1.556253
-12.715515 5.997026 -2.226688
-16.101860 7.597565 2.186093
-15.924612 7.517325 -2.162206
-16.013094 7.565934 3.442576
-15.900883 7.516307 -0.921741
-16.061207 7.595526 4.101758
-30.658560 14.505326 -0.592021
-16.076536 7.609647 4.765894
-7.038029 3.341900 -2.087634
-16.301371 7.743943 0.315016
-8.485316 4.032755 -2.168978
-15.928881 7.573808 0.924358
-10.585025 5.032930 -2.278260
-15.926506 7.576092 1.543005
-12.706990 6.047318 -2.228878
-15.949780 7.593987 2.169031
-15.747730 7.501163 -2.141732
-18.501144 8.816667 3.246016
-15.784521 7.522068 -1.529757
-15.889117 7.575311 3.421587
-15.762780 7.518459 -0.915251
-15.892136 7.583563 4.065315
-30.661879 14.638095 -0.593068
-15.941795 7.614093 4.733800
-7.033289 3.369786 -2.089705
-16.281450 7.804259 0.315156
-8.467674 4.060663 -2.168078
-15.797905 7.579257 0.918287
-10.546152 5.059658 -2.273680
-15.813747 7.590258 1.534638
-12.676902 6.087358 -2.227314
-15.819394 7.599759 2.154894
-15.614100 7.504493 -2.127108
-18.484499 8.888038 3.248518
-15.632477 7.516679 -1.517556
-15.790038 7.595838 3.405941
-15.621259 7.518004 -0.908552
-15.760220 7.588269 4.038321
-30.657433 14.767606 -0.593975
-15.807220 7.617697 4.701707
-7.004091 3.385909 -2.084529
-16.243309 7.855818 0.314946
-8.463974 4.095289 -2.170778
-15.677868 7.589109 0.912844
-10.489548 5.077624 -2.265285
-15.658047 7.582883 1.522088
-12.655575 6.131572 -2.227314
-15.682016 7.601254 2.139782
-15.480642 7.506978 -2.112484
-18.485352 8.968026 3.254150
-15.498590 7.519022 -1.507097
-15.752831 7.645767 3.403651
-15.490717 7.521888 -0.902481
-15.624960 7.590438 4.010427
-30.659655 14.900756 -0.595022
-15.645018 7.606938 4.661331
-6.995702 3.412031 -2.085564
-16.237354 7.922993 0.315365
-8.446124 4.123099 -2.169878
-15.557961 7.598208 0.907401
-10.402961 5.080606 -2.250401
-15.538397 7.592013 1.513024
-12.623446 6.170506 -2.225437
-15.551960 7.605365 2.125645
-15.354487 7.512116 -2.098834
-18.489418 9.049871 3.260407
-15.377402 7.526658 -1.497859
-15.733099 7.704162 3.405178
-15.360338 7.524948 -0.896410
-15.507372 7.600340 3.987032
-30.668499 15.037621 -0.596209
-15.521245 7.613854 4.632343
-6.990682 3.439841 -2.087634
-16.882381 8.310821 0.328454
-8.419443 4.146530 -2.166729
-15.439507 7.603873 0.901958
-10.330568 5.089989 -2.238571
-15.397427 7.589828 1.501868
-12.591199 6.209294 -2.223560
-15.400700 7.598124 2.108583
-15.235608 7.519980 -2.086159
-18.484106 9.123371 3.264788
-15.242061 7.526478 -1.487226
-15.709632 7.760769 3.405941
-15.228337 7.526310 -0.890235
-15.417860 7.623331 3.970836
-30.657898 15.158738 -0.596977
-15.385088 7.610464 4.599215
-6.968250 3.459069 -2.084529
-16.913837 8.396101 0.329606
-8.403901 4.173558 -2.166279
-15.319860 7.611510 0.896515
-10.245932 5.092812 -2.224070
-15.263799 7.590305 1.491409
-12.577613 6.254532 -2.224811
-15.277669 7.600523 2.095178
-15.096851 7.513855 -2.070560
-18.491047 9.207213 3.271671
-15.114045 7.528996 -1.477290
-15.680296 7.811071 3.405178
-15.090677 7.520644 -0.883640
-15.315759 7.636158 3.951040
-15.630764 7.796615 -0.304894
-15.275457 7.622718 4.574368
-6.956741 3.482158 -2.084529
-16.920189 8.472994 0.330304
-8.392766 4.204616 -2.167179
-15.207491 7.621984 0.891491
-10.157025 5.090694 -2.208423
-15.145935 7.594435 1.482345
-12.545112 6.293081 -2.222934
-15.142819 7.599494 2.080310
-14.960541 7.511280 -2.055449
-18.494101 9.289432 3.277928
-15.010656 7.539727 -1.469620
-15.652934 7.865759 3.405178
-14.980463 7.531115 -0.878721
-15.182817 7.636158 3.923596
-15.485558 7.791808 -0.302590
-15.138320 7.620406 4.541239
-6.934197 3.501194 -2.081423
-16.919067 8.546431 0.330863
-8.378037 4.233887 -2.167179
-15.091673 7.629961 0.886257
-10.062106 5.087142 -2.191632
-14.987764 7.580717 1.469446
-12.519543 6.335050 -2.222308
-15.015248 7.601196 2.066417
-14.845682 7.518616 -2.043262
-18.484470 9.365540 3.281996
-14.861615 7.529945 -1.457593
-15.639390 7.927451 3.408231
-14.850769 7.530965 -0.872650
-15.053532 7.637091 3.897052
-15.351273 7.791512 -0.300496
-14.994498 7.613724 4.506040
-6.921933 3.525378 -2.081423
-16.905167 8.613613 0.331177
-8.366680 4.264874 -2.168078
-14.954634 7.626339 0.879768
-9.984821 5.091908 -2.178657
-14.876023 7.589527 1.461079
-12.493834 6.376917 -2.221683
-14.910832 7.613842 2.055692
-14.730957 7.525239 -2.031075
-18.495640 9.452479 3.289817
-14.721695 7.523747 -1.446437
-15.625607 7.989145 3.411283
-14.731928 7.535463 -0.867207
-14.946981 7.648756 3.876356
-15.206503 7.784909 -0.298192
-14.864662 7.613179 4.474981
-6.909585 3.549520 -2.081423
-16.218708 8.335280 0.318297
-8.337877 4.286924 -2.164479
-14.844444 7.635561 0.874848
-9.897151 5.090813 -2.163393
-14.757317 7.594002 1.452015
-12.457449 6.413254 -2.219180
-14.790631 7.617676 2.042774
-14.605780 7.525696 -2.017425
-18.490627 9.531461 3.294823
-14.624507 7.538572 -1.439464
-15.726748 8.110229 3.439523
-14.604361 7.534645 -0.861241
-14.821485 7.649934 3.850712
-15.097502 7.795739 -0.296586
-14.738448 7.613595 4.444959
-6.900582 3.575395 -2.082458
-16.068790 8.329267 0.315923
-8.319402 4.314209 -2.163579
-14.698917 7.625707 0.867835
-9.823554 5.096399 -2.151181
-14.649375 7.603246 1.443996
-12.438492 6.458524 -2.219805
-14.644161 7.607034 2.026200
-14.466692 7.518047 -2.001826
-18.499304 9.617821 3.302332
-14.488499 7.532597 -1.428657
-15.738402 8.185912 3.448300
-14.466351 7.527493 -0.854646
-14.694434 7.649438 3.824618
-14.981518 7.802208 -0.294841
-14.626119 7.620361 4.419077
-6.894910 3.603039 -2.084529
-16.032528 8.381600 0.315784
-8.304291 4.343225 -2.163579
-14.583728 7.630669 0.862601
-9.734385 5.093339 -2.135534
-14.520365 7.600744 1.433886
-12.424621 6.506485 -2.221370
-14.522567 7.608356 2.013038
-14.352448 7.522424 -1.989639
-18.483114 9.691511 3.305461
-14.386244 7.543342 -1.421162
-15.741028 8.257213 3.455170
-14.367476 7.539896 -0.850355
-14.481301 7.602853 3.776028
-14.858596 7.804241 -0.292956
-14.505370 7.621949 4.390606
-6.854946 3.612673 -2.076247
-16.922998 8.922478 0.333934
-8.292528 4.374003 -2.164479
-14.472217 7.636789 0.857577
-9.633203 5.083309 -2.117217
-14.384503 7.593719 1.423079
-12.391354 6.544277 -2.219492
-14.411672 7.614490 2.001338
-14.241861 7.527954 -1.977940
-18.487593 9.776281 3.312344
-14.252386 7.536695 -1.410528
-14.240448 7.536749 -0.844388
-14.351340 7.598640 3.749034
-14.732306 7.803643 -0.291001
-14.405275 7.633640 4.368348
-6.849118 3.640205 -2.078317
-15.966559 8.489569 0.315644
-8.287533 4.408414 -2.167179
-14.355549 7.639408 0.852239
-9.566873 5.091080 -2.106531
-14.277009 7.600810 1.415061
-12.356230 6.580992 -2.217302
-14.283394 7.610610 1.987202
-14.124407 7.529062 -1.965265
-14.143363 7.542336 -1.402336
-15.747086 8.401100 3.469289
-14.134766 7.544089 -0.839678
-14.242215 7.604632 3.727439
-14.641475 7.821105 -0.289745
-14.252461 7.616497 4.330043
-6.839774 3.665917 -2.079352
-15.841662 8.494225 0.313759
-8.268659 4.435473 -2.166279
-14.237281 7.640362 0.846796
-9.490225 5.092879 -2.093556
-14.166133 7.605365 1.406694
-12.321001 6.617540 -2.215112
-14.162313 7.609684 1.974040
-14.017609 7.535084 -1.954053
-18.495440 9.946277 3.326110
-14.027458 7.543535 -1.393446
-15.747059 8.471826 3.475777
-14.006340 7.538482 -0.833607
-14.126362 7.606260 3.704044
-29.413027 15.843901 -0.583155
-14.145858 7.623127 4.305714
-6.820138 3.686096 -2.077282
-15.868203 8.579906 0.314876
-8.242842 4.458745 -2.163579
-14.112159 7.636783 0.840934
-9.424045 5.099814 -2.082871
-14.037874 7.599751 1.396584
-12.303037 6.663331 -2.216051
-14.044904 7.609897 1.961365
-13.889999 7.529103 -1.939916
-18.495338 10.029612 3.332367
-13.904712 7.540217 -1.383859
-15.750177 8.544529 3.483028
-13.895681 7.541598 -0.828583
-14.010669 7.607171 3.680649
-29.396200 15.967473 -0.583923
-14.024105 7.620805 4.276726
-6.820800 3.717277 -2.081423
-15.803046 8.616096 0.314178
-8.222095 4.484694 -2.162230
-14.004766 7.641989 0.836119
-9.340696 5.096944 -2.068370
-13.916828 7.597152 1.387171
-12.267567 6.699608 -2.213861
-13.931153 7.611289 1.949178
-13.790476 7.537551 -1.929679
-18.491413 10.111171 3.337999
-13.815373 7.554296 -1.377584
-15.740924 8.610763 3.487607
-13.778165 7.540199 -0.823140
-13.893435 7.606431 3.656804
-29.378874 16.091125 -0.584691
-13.909318 7.621444 4.249809
-6.787466 3.729897 -2.075211
-15.681751 8.621111 0.312363
-8.213221 4.517123 -2.164029
-13.888763 7.641723 0.830781
-9.281568 5.106802 -2.059211
-13.806441 7.599572 1.378804
-12.238915 6.739532 -2.212922
-13.817565 7.611977 1.936992
-13.673675 7.535823 -1.917005
-18.490601 10.194731 3.344256
-13.673765 7.538985 -1.366079
-15.738278 8.680824 3.493713
-13.678316 7.547721 -0.818744
-13.791733 7.613444 3.637009
-29.368038 16.218704 -0.585598
-13.804849 7.626973 4.225997
-6.781164 3.757312 -2.077282
-15.532630 8.609879 0.309990
-8.197403 4.545763 -2.164029
-13.774679 7.641713 0.825547
-9.232782 5.122026 -2.052342
-13.685759 7.595510 1.369391
-12.194592 6.770703 -2.209168
-13.716290 7.618715 1.926511
-13.577879 7.544940 -1.907255
-18.494614 10.281285 3.351453
-13.570745 7.544072 -1.358409
-15.740479 8.753842 3.500964
-13.564619 7.546870 -0.813510
-13.674828 7.611307 3.613164
-29.367147 16.352257 -0.586715
-13.680255 7.620587 4.195974
-6.754514 3.773424 -2.073141
-15.401237 8.607458 0.307965
-8.166177 4.565791 -2.159980
-13.669479 7.645878 0.820837
-9.242261 5.169561 -2.058447
-13.600047 7.610154 1.363464
-12.158817 6.806475 -2.206978
-13.594352 7.613204 1.913105
-13.457943 7.539893 -1.894094
-18.498245 10.367994 3.358648
-13.474808 7.552432 -1.351437
-15.738935 8.825057 3.507451
-13.458067 7.549223 -0.808695
-13.581898 7.621801 3.595618
-29.404051 16.507532 -0.588600
-13.576092 7.624775 4.172163
-6.748698 3.799592 -2.075211
-15.285494 8.609417 0.306220
-8.137409 4.585194 -2.156381
-13.553578 7.640163 0.815394
-9.204546 5.188610 -2.053868
-13.498377 7.612151 1.355795
-12.136179 6.846758 -2.206978
-13.484320 7.610433 1.901162
-13.349894 7.537632 -1.882394
-18.496443 10.447740 3.364593
-13.373360 7.553960 -1.343767
-15.743769 8.896518 3.515084
-13.349503 7.546631 -0.803671
-13.458165 7.611159 3.569523
-29.401360 16.634491 -0.589647
-13.475075 7.626936 4.148870
-6.732033 3.821219 -2.074176
-15.147536 8.601501 0.304056
-8.126437 4.616458 -2.157730
-13.427848 7.631178 0.809428
-9.169308 5.211008 -2.050052
-13.409369 7.623773 1.349519
-12.108772 6.887127 -2.206352
-13.373133 7.609349 1.889219
-13.247593 7.540977 -1.871670
-18.495907 10.532769 3.371163
-13.267267 7.555243 -1.335749
-15.745031 8.969881 3.522334
-13.251934 7.552638 -0.799379
-13.390883 7.634929 3.558726
-29.384804 16.760799 -0.590485
-13.377899 7.633710 4.127129
-6.705240 3.837019 -2.070035
-15.044532 8.612597 0.302590
-8.108582 4.643826 -2.157280
-13.307548 7.624388 0.803776
-9.149359 5.242008 -2.049670
-13.272047 7.607125 1.338364
-12.086370 6.930335 -2.206665
-13.291389 7.624376 1.881419
-13.152320 7.547652 -1.861920
-13.264804 7.615281 2.422544
-13.152692 7.550918 -1.326859
-15.769805 9.057054 3.534928
-13.147561 7.554074 -0.794669
-13.381046 7.691337 3.563225
-29.395462 16.903135 -0.591881
-13.285864 7.642794 4.106941
-6.681766 3.854610 -2.066929
-13.573384 7.833435 0.273549
-8.094010 4.673079 -2.157730
-13.177082 7.610858 0.797495
-9.098704 5.255257 -2.042420
-13.148808 7.597583 1.328602
-12.043293 6.961608 -2.203223
-13.175334 7.619051 1.868745
-13.046854 7.547788 -1.850708
-13.156075 7.614042 2.407527
-13.052103 7.553869 -1.319364
-15.727900 9.106144 3.532638
-13.055434 7.561886 -0.790692
-13.350745 7.736042 3.562325
-29.374338 17.027704 -0.592649
-13.212310 7.661991 4.092447
-6.678290 3.883735 -2.070035
-13.442249 7.820436 0.271455
-8.057439 4.689541 -2.152332
-13.064137 7.606557 0.792262
-9.065037 5.278092 -2.038985
-13.060225 7.607337 1.322327
-12.012091 6.999626 -2.201972
-13.064627 7.616004 1.856802
-12.955263 7.555285 -1.841446
-13.057755 7.618111 2.394386
-12.960261 7.561231 -1.312740
-15.724843 9.177809 3.539125
-12.949620 7.561084 -0.785877
-13.330391 7.786529 3.564125
-29.387236 17.172512 -0.594115
-13.125445 7.672962 4.073812
-6.661360 3.905070 -2.069000
-13.335521 7.820776 0.269849
-8.035978 4.714678 -2.150982
-12.956548 7.604598 0.787342
-9.039784 5.305728 -2.037459
-12.947686 7.602439 1.313611
-11.980775 7.037510 -2.200720
-12.967790 7.620331 1.846808
-12.839824 7.548149 -1.828771
-12.968083 7.626591 2.382810
-12.865093 7.566022 -1.305767
-15.755319 9.269484 3.553246
-12.845692 7.560652 -0.781167
-13.286337 7.823126 3.559625
-29.399485 17.317617 -0.595581
-13.032007 7.679502 4.053106
-6.649350 3.929283 -2.069517
-13.246171 7.830640 0.268593
-8.011085 4.737740 -2.148732
-12.845695 7.599950 0.782213
-9.011069 5.331255 -2.035169
-12.842200 7.600904 1.305593
-11.942537 7.071237 -2.198217
-12.862545 7.619014 1.835596
-12.741674 7.550417 -1.818534
-12.851323 7.618423 2.366228
-12.764909 7.567195 -1.298272
-15.746507 9.338443 3.558588
-12.753949 7.566720 -0.777189
-13.269002 7.875424 3.562325
-29.390434 17.450760 -0.596628
-12.928719 7.679563 4.029295
-6.633935 3.951480 -2.069000
-13.146607 7.833839 0.267127
-8.001194 4.769667 -2.150532
-12.755618 7.606890 0.778340
-8.992405 5.362676 -2.035169
-12.743727 7.602813 1.298272
-11.900816 7.102760 -2.195089
-12.760878 7.619090 1.824872
-12.640253 7.550058 -1.807810
-12.750038 7.618657 2.352462
-12.658030 7.563678 -1.290079
-15.745831 9.412492 3.565839
-12.650324 7.565063 -0.772479
-13.233070 7.916693 3.560076
-29.401407 17.596378 -0.598094
-12.822275 7.677009 4.004448
-6.616788 3.972624 -2.067964
-13.057468 7.842615 0.265870
-7.962780 4.784519 -2.144683
-12.651571 7.601829 0.773526
-8.975315 5.395044 -2.035550
-12.652226 7.608234 1.291648
-11.860717 7.135094 -2.192273
-12.659369 7.618547 1.814147
-12.552598 7.557276 -1.799035
-12.648550 7.615044 2.338383
-12.566694 7.568755 -1.283455
-12.618734 7.603095 2.863662
-12.555416 7.567936 -0.768292
-12.654645 7.630758 3.411608
-29.404543 17.730957 -0.599351
-12.722309 7.674583 3.981155
-6.599575 3.993696 -2.066929
-12.518140 7.575283 0.255399
-7.938533 4.805855 -2.142434
-12.570291 7.612837 0.770176
-8.956428 5.426341 -2.035550
-12.557436 7.611048 1.284676
-11.816718 7.162100 -2.188519
-12.557650 7.614171 1.803179
-12.462972 7.559739 -1.789773
-12.550960 7.616111 2.325242
-12.468668 7.569149 -1.276134
-12.538071 7.611279 2.851068
-12.458554 7.565985 -0.763896
-12.554324 7.627149 3.391362
-12.471107 7.579568 -0.254735
-12.621160 7.673782 3.957861
-6.586295 4.015559 -2.066929
-12.440407 7.587693 0.254351
-7.925038 4.835565 -2.143334
-12.451583 7.600477 0.764524
-8.931682 5.451921 -2.034024
-12.450511 7.602802 1.276309
-11.784904 7.199183 -2.187267
-12.458160 7.613449 1.792698
-12.358598 7.555570 -1.778561
-12.470376 7.626893 2.315230
-12.375510 7.568873 -1.269162
-12.441090 7.611966 2.835040
-12.353705 7.561468 -0.759081
-12.461148 7.630217 3.373366
-12.376365 7.581273 -0.253339
-12.497111 7.658240 3.927320
-6.567301 4.035490 -2.065376
-12.355923 7.595470 0.253165
-7.908111 4.863199 -2.143334
-12.363737 7.606217 0.760756
-8.897547 5.473804 -2.030589
-12.369597 7.612802 1.270731
-11.763067 7.242347 -2.187893
-12.362208 7.614206 1.782705
-12.264549 7.557008 -1.768812
-12.354551 7.615439 2.298648
-12.293044 7.577526 -1.263410
-12.364310 7.624433 2.823592
-12.274542 7.572034 -0.755836
-12.358152 7.626591 3.352670
-12.283463 7.583463 -0.251978
-12.368400 7.638876 3.895227
-6.553174 4.058390 -2.065376
-12.264737 7.598534 0.251838
-7.887774 4.888719 -2.142434
-12.267515 7.606178 0.756464
-8.881722 5.506898 -2.031353
-12.275222 7.613926 1.263758
-11.729322 7.278157 -2.186328
-12.298450 7.634279 1.777343
-12.200994 7.576734 -1.763450
-12.282589 7.630374 2.290201
-12.185284 7.569924 -1.255043
-12.260917 7.619876 2.806037
-12.193758 7.581089 -0.752486
-12.276848 7.635718 3.337824
-12.183909 7.580865 -0.250477
-12.261293 7.631982 3.869863
-6.524218 4.072036 -2.060717
-12.161810 7.593642 0.250268
-7.872313 4.917255 -2.142884
-12.186687 7.615088 0.753114
-8.865774 5.539951 -2.032116
-12.170855 7.608148 1.255740
-11.687098 7.308579 -2.183200
-12.177485 7.618206 1.763693
-12.090337 7.566621 -1.751263
-12.175514 7.622883 2.275183
-12.097994 7.574348 -1.248767
-12.172682 7.624071 2.791917
-12.094445 7.578008 -0.747986
-12.185722 7.638162 3.320277
-12.098078 7.586166 -0.249255
-12.164208 7.630593 3.847604
-6.519775 4.100956 -2.063823
-12.064145 7.591315 0.248801
-7.843556 4.937440 -2.139734
-12.086997 7.608643 0.748509
-8.836414 5.564588 -2.029826
-12.073422 7.605979 1.248419
-11.639788 7.335642 -2.179132
-12.083649 7.618320 1.753944
-11.989975 7.562181 -1.740538
-12.083337 7.621065 2.262668
-11.987226 7.563377 -1.240052
-12.072946 7.620407 2.775126
-12.000369 7.577523 -0.743799
-12.091436 7.637982 3.301831
-12.025517 7.596342 -0.248278
-12.073513 7.629608 3.826898
-6.489105 4.113346 -2.058647
-11.994991 7.603444 0.247894
-7.815620 4.956116 -2.136585
-11.976038 7.597295 0.743275
-8.810307 5.591189 -2.028300
-11.982882 7.607500 1.241795
-11.613731 7.373139 -2.178819
-11.982913 7.610457 1.742976
-11.889433 7.553996 -1.729570
-11.996642 7.625055 2.251405
-11.906951 7.570965 -1.234474
-11.991280 7.624586 2.762151
-11.890914 7.563679 -0.738565
-12.005209 7.639328 3.285185
-11.919642 7.587802 -0.246637
-11.988148 7.634347 3.808264
-6.494967 4.147318 -2.064858
-11.906026 7.605439 0.246603
-7.791704 4.979172 -2.134786
-11.892232 7.602474 0.739716
-8.780138 5.612972 -2.025628
-11.900518 7.610697 1.235868
-11.581266 7.409379 -2.177568
-11.916148 7.626554 1.737126
-11.799464 7.554778 -1.720308
-11.895099 7.618940 2.237326
-11.826771 7.578082 -1.228896
-11.951370 7.657921 2.759098
-11.820721 7.577116 -0.735844
-11.966988 7.673825 3.282036
-11.839225 7.594810 -0.245520
-11.899641 7.636501 3.788593
-6.456982 4.156455 -2.057611
-11.859228 7.633960 0.246184
-7.777553 5.008448 -2.135685
-11.800140 7.601756 0.735634
-8.759506 5.645115 -2.025628
