# This PCD file was generated using the MATLAB® pcwrite function
# from Computer Vision Toolbox®.
# .PCD v.7 - Point Cloud Data file format
VERSION .7
FIELDS x y z
SIZE 4 4 4
TYPE F F F
COUNT 1 1 1
WIDTH 1671
HEIGHT 1
VIEWPOINT 0 0 0 1 0 0 0
POINTS 1671
DATA ascii
3.368442 -6.142402 -0.860154
3.585656 -6.541201 -0.652622
5.333508 -9.737816 -0.581871
5.288381 -9.659424 2.542397
5.342371 -9.762083 -0.194245
5.263312 -9.621607 2.938632
2.351497 -4.311160 -1.315836
5.372977 -9.854736 0.195921
2.656828 -4.874991 -1.281771
5.362995 -9.844603 0.587524
3.020442 -5.544487 -1.227283
3.892289 -7.147864 0.712062
3.060755 -5.623158 -1.014008
4.247448 -7.806571 1.091218
3.361207 -6.180280 -0.863810
5.689168 -10.465072 1.886600
3.742654 -6.884511 -0.685567
5.284231 -9.728292 -0.580196
5.237893 -9.646999 2.534299
5.327339 -9.815822 -0.194943
5.231536 -9.643317 2.939667
2.341029 -4.327837 -1.318424
6.380954 -11.801327 0.234176
2.631455 -4.868806 -1.277722
5.336192 -9.877321 0.588361
3.006669 -5.565360 -1.229573
4.938991 -9.145915 0.909383
3.029847 -5.612947 -1.010254
4.159843 -7.709542 1.075619
3.386730 -6.279334 -0.875997
5.305760 -9.841517 1.770838
3.753583 -6.962424 -0.692017
5.296638 -9.828706 2.170262
5.239822 -9.727336 -0.579045
5.201416 -9.660075 2.532949
5.293042 -9.834358 -0.194943
5.185029 -9.637702 2.932420
2.326821 -4.337685 -1.318942
6.069463 -11.319501 0.224194
2.614445 -4.877962 -1.277722
6.307124 -11.772602 0.699941
2.990005 -5.581013 -1.230718
4.893867 -9.138511 0.906943
3.015830 -5.633939 -1.012131
4.196591 -7.843035 1.092193
3.213122 -6.007545 -0.836511
3.764952 -7.042251 -0.698640
5.299312 -9.916395 2.185526
5.188897 -9.713858 -0.577161
5.143799 -9.633477 2.521251
5.253033 -9.842191 -0.194734
5.140445 -9.635289 2.926208
2.315295 -4.352603 -1.321012
6.029914 -11.340618 0.224194
2.606547 -4.904266 -1.282221
6.191028 -11.653442 0.691567
2.972347 -5.594883 -1.231481
3.759288 -7.079133 0.701255
2.979475 -5.613025 -1.006500
4.920962 -9.274500 1.289134
3.256310 -6.139730 -0.853329
5.588520 -10.541527 1.889729
3.774876 -7.120482 -0.705090
5.143738 -9.710732 -0.575905
5.093727 -9.620375 2.513153
5.207421 -9.839257 -0.194315
5.097745 -9.636097 2.921032
2.300087 -4.360659 -1.321012
6.180548 -11.722452 0.231314
2.591229 -4.916783 -1.283121
2.949140 -5.598277 -1.229955
3.732698 -7.088686 0.700907
2.959863 -5.623392 -1.006500
6.239866 -11.860037 1.645480
3.252414 -6.184441 -0.857960
5.559042 -10.574958 1.892232
3.564584 -6.780903 -0.670228
5.531312 -10.526668 2.311460
5.097737 -9.705642 -0.574544
5.056490 -9.631195 2.511353
5.156317 -9.825502 -0.193687
5.046130 -9.619617 2.910679
2.286642 -4.372085 -1.322048
2.576758 -4.930979 -1.284470
6.336999 -12.131873 0.717317
2.929580 -5.608537 -1.229955
4.109985 -7.871712 0.776906
2.925592 -5.605669 -1.001494
4.769789 -9.143188 1.266223
3.245492 -6.223919 -0.861860
5.525748 -10.601306 1.893483
3.564837 -6.839241 -0.674760
5.050912 -9.698576 -0.573079
5.012042 -9.628044 2.505955
5.116450 -9.832798 -0.193477
5.003606 -9.620035 2.905503
2.266031 -4.369750 -1.318942
6.523720 -12.585529 0.247440
2.555048 -4.931293 -1.282221
5.943738 -11.476436 0.677332
2.901859 -5.603040 -1.226520
4.023860 -7.772772 0.765750
2.900560 -5.605321 -0.999616
4.756084 -9.195046 1.271097
3.132577 -6.058875 -0.837486
5.541310 -10.722312 1.911629
3.753160 -7.262281 -0.715200
5.001448 -9.685979 -0.571299
4.965891 -9.621237 2.499656
5.074760 -9.836381 -0.193198
4.952287 -9.603102 2.895150
2.257831 -4.391378 -1.323083
6.503514 -12.654468 0.248348
2.540490 -4.945381 -1.283571
5.845252 -11.383404 0.670633
2.876005 -5.600910 -1.223849
4.005803 -7.804495 0.767493
2.879172 -5.611897 -0.998991
3.195623 -6.234059 -0.860154
5.615547 -10.959586 1.950425
3.685993 -7.193772 -0.707182
6.310367 -12.320931 2.690789
4.958506 -9.685600 -0.570253
4.917185 -9.609020 2.492008
5.018540 -9.811308 -0.192360
4.909941 -9.603129 2.889974
2.244243 -4.402674 -1.324118
2.529403 -4.966375 -1.286720
5.606137 -11.012162 0.647605
2.842186 -5.582921 -1.217743
3.992992 -7.846841 0.770282
2.852402 -5.607827 -0.996488
4.740357 -9.323580 1.284259
3.004763 -5.912477 -0.814331
3.653641 -7.192384 -0.705787
6.247766 -12.304372 2.682393
4.914723 -9.683259 -0.569101
4.874796 -9.608748 2.487509
4.975217 -9.810931 -0.192011
4.865908 -9.599532 2.883762
2.222761 -4.398412 -1.320495
2.511173 -4.973434 -1.286270
5.574862 -11.045929 0.648443
2.820912 -5.589303 -1.216980
3.963783 -7.857175 0.769934
2.825694 -5.603639 -0.993985
4.695274 -9.315252 1.280847
3.044843 -6.043480 -0.830905
5.345205 -10.613910 1.882220
3.621343 -7.190858 -0.704393
6.215370 -12.347150 2.686972
4.873711 -9.686082 -0.568264
4.828091 -9.599591 2.480760
4.928366 -9.803226 -0.191523
4.818491 -9.588840 2.875480
2.208260 -4.407872 -1.321012
2.498158 -4.990883 -1.288520
5.591678 -11.176064 0.654932
2.790843 -5.578046 -1.212400
4.481732 -8.961529 0.876612
2.791984 -5.585198 -0.988979
5.514532 -11.036309 1.514836
2.978492 -5.963501 -0.818475
5.357535 -10.731476 1.899740
3.593551 -7.198107 -0.703870
6.003924 -12.031487 2.613702
4.825606 -9.674438 -0.566589
4.786727 -9.600690 2.476711
4.892331 -9.816790 -0.191453
4.783268 -9.602144 2.874444
2.193720 -4.417284 -1.321530
2.476391 -4.990844 -1.286270
4.184219 -8.436448 0.493528
2.774844 -5.594790 -1.213927
5.514137 -11.122773 1.086135
2.758437 -5.566590 -0.983973
5.583467 -11.272511 1.544572
2.956777 -5.972083 -0.818231
3.563984 -7.201678 -0.702998
5.916624 -11.960866 2.593858
4.779414 -9.666161 -0.565124
4.740235 -9.591135 2.469963
4.847407 -9.812292 -0.191034
4.739458 -9.597996 2.868233
2.185113 -4.438779 -1.325671
5.750180 -11.685908 0.227335
2.462395 -5.006453 -1.288070
5.465935 -11.118041 0.649280
2.739707 -5.572728 -1.207058
2.738989 -5.576185 -0.983973
3.859074 -7.859983 1.075131
2.991010 -6.094636 -0.833586
5.881751 -11.995547 2.596910
4.735974 -9.663057 -0.563972
4.688723 -9.570872 2.460515
4.813126 -9.829153 -0.191034
4.693186 -9.588454 2.860468
2.168758 -4.444644 -1.325154
2.446612 -5.018521 -1.288970
5.442841 -11.169371 0.651164
2.713357 -5.568139 -1.204005
5.541047 -11.375941 1.107052
2.710861 -5.567952 -0.980844
5.581076 -11.468290 1.566021
2.965376 -6.096115 -0.832368
4.333576 -8.912768 1.569664
4.304686 -8.853352 -0.861273
5.398744 -11.108405 2.400759
4.690871 -9.656176 -0.562612
4.650177 -9.576663 2.457815
4.754338 -9.795523 -0.190057
4.644510 -9.573491 2.851151
2.157436 -4.460883 -1.327742
2.428231 -5.025276 -1.288520
5.113692 -10.587611 0.616204
2.687073 -5.563433 -1.200952
2.684541 -5.563148 -0.978341
5.575507 -11.559220 1.575771
2.969941 -6.160072 -0.839680
4.044542 -8.392689 -0.815080
5.400832 -11.212081 2.419076
4.648470 -9.654495 -0.561565
4.608271 -9.575276 2.453316
4.711448 -9.794039 -0.189708
4.599343 -9.565272 2.843904
2.138511 -4.461418 -1.325671
5.394201 -11.258567 0.217911
2.414884 -5.042509 -1.290769
2.663399 -5.563925 -1.199044
6.182124 -12.920446 1.253125
2.658288 -5.558228 -0.975838
5.011148 -10.482539 1.426603
2.934727 -6.141744 -0.835780
4.005776 -8.386980 -0.813163
5.659391 -11.854508 2.553406
4.602700 -9.645427 -0.560099
4.564751 -9.570198 2.447917
4.666904 -9.788765 -0.189289
4.557615 -9.563828 2.838727
2.127070 -4.477581 -1.328259
5.360015 -11.288165 0.218120
2.395596 -5.047387 -1.289869
5.094442 -10.738541 0.622903
2.634704 -5.553676 -1.194846
8.112364 -17.107710 1.656482
2.628716 -5.546053 -0.972084
5.035720 -10.629132 1.444152
2.847852 -6.013805 -0.817012
8.049842 -17.006519 2.980077
3.936412 -8.316272 -0.804970
5.691864 -12.030359 2.586988
4.558757 -9.639768 -0.558843
4.524654 -9.571979 2.444318
4.619039 -9.776066 -0.188730
4.516778 -9.563958 2.834069
2.118832 -4.500709 -1.332918
8.046857 -17.100435 0.329885
2.380451 -5.061008 -1.291219
8.036188 -17.093252 0.989882
2.611961 -5.555732 -1.193320
5.005438 -10.651573 1.029658
2.607662 -5.551620 -0.971458
5.045833 -10.747272 1.457801
2.812505 -5.993160 -0.812869
3.839671 -8.185658 -0.791025
5.746515 -12.256352 2.631256
4.514909 -9.633921 -0.557587
4.482947 -9.570067 2.439819
4.578102 -9.777642 -0.188451
4.466989 -9.544671 2.823716
2.099842 -4.501075 -1.330848
5.407845 -11.597161 0.223356
2.366887 -5.078119 -1.293469
4.997419 -10.726774 0.620181
2.579287 -5.536343 -1.187214
4.954771 -10.640081 1.026869
2.581598 -5.546361 -0.968955
4.932923 -10.602835 1.435865
2.814169 -6.051540 -0.819450
5.425749 -11.678101 2.503033
4.474524 -9.635130 -0.556750
4.433104 -9.550306 2.430821
4.527111 -9.757284 -0.187753
4.425518 -9.542679 2.818539
2.083282 -4.504507 -1.329812
5.250208 -11.357282 0.218399
2.350034 -5.085939 -1.293469
5.303494 -11.483078 0.662887
2.557621 -5.537736 -1.185687
4.929481 -10.678161 1.028961
2.563192 -5.554891 -0.968955
4.877782 -10.575871 1.430015
2.745052 -5.954477 -0.805069
5.157765 -11.193199 1.951990
3.238987 -7.032362 -0.677374
5.403420 -11.731692 2.510665
4.427513 -9.617258 -0.554866
4.395708 -9.552563 2.427672
4.488045 -9.757709 -0.187474
4.382551 -9.532730 2.811293
2.070781 -4.520894 -1.332400
5.337109 -11.651882 0.223705
2.334700 -5.099427 -1.294818
5.289975 -11.559636 0.666237
2.535674 -5.543502 -1.184924
5.336013 -11.671006 1.122740
2.531320 -5.539095 -0.964575
5.766594 -12.618598 1.703490
2.666516 -5.837627 -0.788007
5.290954 -11.588492 2.017692
5.337571 -11.701404 2.499979
4.388920 -9.626153 -0.554447
4.350161 -9.545556 2.421823
4.435713 -9.733284 -0.186706
4.340438 -9.528631 2.805598
2.057383 -4.533372 -1.333953
5.467844 -12.053795 0.231035
2.312775 -5.100851 -1.293019
4.963964 -10.953157 0.630230
2.509824 -5.538014 -1.181871
4.843079 -10.691382 1.026869
2.505451 -5.533501 -0.962072
5.279966 -11.666674 1.572358
2.644284 -5.845553 -0.787763
5.280998 -11.679805 2.030207
5.460016 -12.081349 2.577066
4.337204 -9.601370 -0.552144
4.307993 -9.541146 2.416874
4.401654 -9.753121 -0.186776
4.299926 -9.532148 2.801975
2.044715 -4.547574 -1.336024
5.260153 -11.704367 0.223984
2.298150 -5.116003 -1.294818
5.004236 -11.145332 0.640278
2.488869 -5.543159 -1.181108
4.795939 -10.686411 1.024777
2.508758 -5.592679 -0.970832
5.299310 -11.819072 1.590395
2.613308 -5.831199 -0.784595
5.110989 -11.409724 1.980148
3.807814 -8.500529 -0.814906
4.298765 -9.605513 -0.551516
4.265908 -9.536557 2.411925
4.346362 -9.720963 -0.185868
4.258743 -9.529463 2.796799
2.030401 -4.558213 -1.337059
5.259931 -11.813999 0.225729
2.281070 -5.125775 -1.295268
4.869803 -10.942898 0.627717
2.459931 -5.530288 -1.176528
4.784510 -10.761345 1.030355
2.573452 -5.790944 -1.003684
5.158099 -11.612540 1.560171
2.760484 -6.217663 -0.835293
5.194962 -11.701037 2.027704
3.900957 -8.790580 -0.841402
5.590465 -12.603724 2.680103
4.253878 -9.594897 -0.550051
4.219173 -9.521103 2.404277
4.314102 -9.735322 -0.185868
4.219295 -9.525869 2.791622
2.012917 -4.561738 -1.336024
2.268779 -5.144009 -1.297968
5.218297 -11.837055 0.677960
2.434278 -5.524468 -1.173475
5.222332 -11.857418 1.133548
2.559012 -5.810292 -1.005561
4.526105 -10.281488 1.379317
2.761436 -6.275841 -0.841874
5.177944 -11.773345 2.037090
3.772430 -8.581624 -0.820136
5.297399 -12.050663 2.558749
4.218823 -9.601638 -0.549632
4.180523 -9.518983 2.400228
4.267232 -9.721025 -0.185310
4.175152 -9.515772 2.784375
1.997005 -4.566618 -1.335506
2.256270 -5.164398 -1.301117
5.074637 -11.620914 0.664562
2.414373 -5.528912 -1.172712
2.531605 -5.802895 -1.002745
4.477493 -10.268109 1.375417
2.715719 -6.230849 -0.834561
5.554955 -12.751173 2.202910
3.718488 -8.535636 -0.814558
5.244328 -12.043881 2.553406
4.178905 -9.601654 -0.548795
4.141051 -9.519221 2.396628
4.223705 -9.713856 -0.184891
4.138829 -9.523203 2.782305
1.984123 -4.580651 -1.337577
2.232037 -5.157934 -1.297518
5.095887 -11.781541 0.672726
2.387265 -5.519287 -1.168896
2.505065 -5.797190 -1.000242
4.458940 -10.323769 1.380780
2.719916 -6.300435 -0.842605
3.728138 -8.640030 -0.823273
5.130726 -11.896261 2.518297
4.137456 -9.597843 -0.547748
4.104714 -9.526460 2.394829
4.185026 -9.717520 -0.184681
4.097160 -9.518072 2.776611
1.968884 -4.589324 -1.338094
2.215555 -5.169276 -1.298417
5.010687 -11.696447 0.666865
2.363346 -5.516759 -1.166606
2.683860 -6.277036 -0.838217
3.780168 -8.845362 -0.841576
5.106136 -11.953818 2.526693
4.091382 -9.582838 -0.546073
4.060727 -9.515636 2.388530
4.149510 -9.728391 -0.184612
4.058609 -9.519876 2.772987
1.956630 -4.605060 -1.340683
2.202065 -5.187742 -1.301117
2.337940 -5.510516 -1.163553
2.927065 -6.905786 -1.187963
4.885447 -11.531769 1.537748
2.597687 -6.134645 -0.817987
3.657633 -8.641994 -0.821007
5.010835 -11.845001 2.499979
4.051682 -9.582344 -0.545236
4.021417 -9.515394 2.384931
4.101521 -9.709659 -0.183983
4.014832 -9.509070 2.765740
1.937546 -4.604739 -1.338612
2.184699 -5.197193 -1.301567
4.590052 -10.924638 0.621018
2.313368 -5.505973 -1.160882
4.962678 -11.817291 1.121346
2.903707 -6.917782 -1.188276
4.401274 -10.490711 1.396867
2.981580 -7.110261 -0.946681
3.609731 -8.612448 -0.816998
4.999802 -11.934851 2.515244
4.008181 -9.572478 -0.543875
3.982911 -9.516789 2.381782
4.069146 -9.727606 -0.184053
3.968947 -9.492726 2.756941
1.922946 -4.615041 -1.339647
5.014855 -12.041492 0.227684
2.173284 -5.220979 -1.305616
4.702264 -11.302022 0.641534
2.291117 -5.506764 -1.159356
2.882574 -6.935172 -1.189528
4.364628 -10.506010 1.396867
3.485058 -8.392950 -1.115836
3.581938 -8.630515 -0.817521
3.967859 -9.569807 -0.542933
3.940714 -9.509031 2.376383
4.022921 -9.712191 -0.183495
3.926180 -9.483319 2.750211
1.908299 -4.625297 -1.340683
7.140910 -17.316563 0.326953
2.150590 -5.217724 -1.302917
5.167937 -12.544570 0.711036
2.270386 -5.511098 -1.158592
2.408019 -5.850986 -1.002119
4.910926 -11.938448 1.585033
3.461778 -8.419753 -1.117786
3.601773 -8.764594 -0.829025
3.926843 -9.565123 -0.541887
3.897881 -9.499291 2.370534
4.010242 -9.777978 -0.184472
3.879131 -9.463002 2.740376
1.895064 -4.639083 -1.342753
5.187670 -12.705660 0.239552
2.132365 -5.225198 -1.302917
5.139205 -12.599520 0.713130
2.248169 -5.511717 -1.157066
2.401744 -5.894114 -1.008064
3.439852 -8.450171 -1.120223
3.584672 -8.810331 -0.832163
4.893776 -12.033837 2.525166
3.884407 -9.556569 -0.540631
3.851496 -9.480342 2.362436
3.955019 -9.740039 -0.183495
3.844623 -9.472906 2.739341
1.882481 -4.654624 -1.345341
7.061810 -17.469812 0.328908
2.119952 -5.247065 -1.306516
5.150533 -12.754429 0.720876
2.217153 -5.490405 -1.150960
2.361941 -5.854831 -0.999929
3.423692 -8.495269 -1.124610
3.559107 -8.835728 -0.833383
3.845805 -9.557100 -0.539898
3.813290 -9.481073 2.359287
3.894146 -9.686992 -0.182238
3.805051 -9.470136 2.734682
1.860477 -4.646820 -1.341200
4.433164 -11.078089 0.208277
2.103071 -5.258051 -1.307415
4.893943 -12.241925 0.690939
2.193602 -5.487174 -1.148670
2.344419 -5.870378 -1.001181
0.938289 -2.350646 0.310767
2.506157 -6.281734 -0.830418
3.526767 -8.844397 -0.833035
3.805769 -9.553766 -0.538956
3.776566 -9.485273 2.357037
3.799680 -9.548171 -0.179376
3.761974 -9.458229 2.727435
0.888313 -2.241335 -0.646012
3.778784 -9.539254 0.179097
2.088291 -5.274420 -1.309665
4.889398 -12.355504 0.696382
2.177325 -5.502099 -1.150197
5.108355 -12.915401 1.215125
2.344248 -5.929963 -1.009941
0.928619 -2.350215 0.310279
2.432446 -6.159354 -0.813112
3.514161 -8.902985 -0.837392
3.767269 -9.553987 -0.538223
3.737004 -9.482080 2.352988
3.760463 -9.546492 -0.179097
3.725398 -9.462316 2.724847
0.880483 -2.244423 -0.646012
3.733784 -9.522598 0.178538
2.068445 -5.278049 -1.308765
3.742668 -9.555071 0.537804
2.153093 -5.496870 -1.147525
3.738417 -9.549124 0.897181
2.323534 -5.938110 -1.009941
0.913179 -2.334955 0.307842
2.415267 -6.178901 -0.814575
3.727200 -9.540089 1.622226
2.773979 -7.100237 -0.666916
3.728380 -9.548025 1.992428
3.723730 -9.541030 -0.536758
3.701050 -9.487806 2.351188
3.720580 -9.542791 -0.178782
3.686032 -9.459062 2.720188
0.868448 -2.236677 -0.642907
3.703415 -9.543032 0.178678
3.697741 -9.538281 0.536130
0.933179 -2.407124 -0.501828
3.699301 -9.547253 0.895787
2.312779 -5.971973 -1.014321
0.896424 -2.315913 0.304917
2.455280 -6.346512 -0.835536
3.693876 -9.553041 1.622226
3.693354 -9.551692 -0.895961
3.690783 -9.549994 1.990138
3.678888 -9.524161 -0.535083
3.660187 -9.480669 2.346240
3.683646 -9.546392 -0.178608
3.652297 -9.470069 2.719671
0.856478 -2.228875 -0.639801
3.661477 -9.533500 0.178259
0.866672 -2.257758 -0.558329
3.655122 -9.526890 0.534769
0.932506 -2.430530 -0.506025
3.658820 -9.541504 0.894044
2.282022 -5.954186 -1.009941
0.884074 -2.307906 0.303455
2.372072 -6.195612 -0.814575
3.653448 -9.547427 1.619097
3.647886 -9.532891 -0.892998
3.643397 -9.526144 1.982506
3.642055 -9.527617 -0.534560
3.618031 -9.469723 2.340391
3.638174 -9.527435 -0.178015
3.610263 -9.459296 2.712941
0.843199 -2.217406 -0.635660
3.623204 -9.533138 0.178015
0.859478 -2.262592 -0.558778
3.617592 -9.528387 0.534141
0.913564 -2.406239 -0.500301
3.611354 -9.516962 0.890557
0.914157 -2.410335 -0.408294
0.876012 -2.310977 0.303455
0.905851 -2.390953 -0.313935
3.604708 -9.519481 1.612214
3.610123 -9.538804 1.982506
3.603121 -9.525329 -0.533722
3.582884 -9.476826 2.339041
3.594293 -9.512016 -0.177491
3.569031 -9.450153 2.706730
0.833413 -2.214911 -0.634107
3.580050 -9.519525 0.177526
0.846090 -2.250985 -0.555179
3.582204 -9.535348 0.533827
0.903088 -2.403899 -0.499156
3.572509 -9.514589 0.889163
0.886304 -2.361727 -0.399534
0.867940 -2.314021 0.303455
0.986692 -2.632023 -0.345134
3.567299 -9.520906 1.610337
0.877311 -2.341489 -0.218761
3.563721 -9.516416 1.975255
3.542273 -9.469198 2.334092
3.556865 -9.513268 -0.177282
3.534669 -9.458935 2.705694
0.825676 -2.217807 -0.634107
3.540523 -9.515095 0.177212
0.830076 -2.232006 -0.549780
3.545416 -9.538433 0.533303
0.894007 -2.405197 -0.498775
3.567029 -9.601707 0.896135
0.859490 -2.314806 -0.391086
0.854332 -2.302148 0.301505
0.934698 -2.520057 -0.330022
3.528551 -9.518482 1.607834
3.520251 -9.501183 1.969531
0.855177 -2.309366 -0.129060
3.496345 -9.446781 2.325544
3.527799 -9.536878 -0.177491
3.492922 -9.447660 2.698965
0.815259 -2.213424 -0.632036
3.500379 -9.508630 0.176863
0.815551 -2.216601 -0.545281
3.499003 -9.515135 0.531315
0.864601 -2.351182 -0.486945
0.883201 -2.403058 0.223990
0.850042 -2.314085 -0.390460
0.844923 -2.301390 0.301017
0.966925 -2.635120 -0.344647
3.498023 -9.538159 1.609085
0.942578 -2.570154 -0.239504
3.487065 -9.513412 1.969531
0.851920 -2.325465 -0.129793
3.453968 -9.433309 2.319245
0.850085 -2.322966 -0.043177
3.455276 -9.447095 2.695342
0.808189 -2.218072 -0.632554
3.461692 -9.505757 0.176583
0.810474 -2.226760 -0.547081
3.460988 -9.514153 0.530582
0.829542 -2.280386 -0.471680
0.867319 -2.385529 0.222073
0.837911 -2.305898 -0.388583
0.836884 -2.304325 0.301017
0.954335 -2.629149 -0.343428
0.854893 -2.356474 0.397031
0.930883 -2.565937 -0.238807
3.441120 -9.490459 1.962280
0.834270 -2.302136 -0.128328
3.418365 -9.437978 2.317446
0.824954 -2.278911 -0.042305
3.414392 -9.437299 2.689130
0.795201 -2.206340 -0.628413
3.424424 -9.506495 0.176374
0.797416 -2.214907 -0.543482
3.423699 -9.514899 0.529954
0.816259 -2.268490 -0.468627
0.859661 -2.390417 0.222247
0.828521 -2.305091 -0.387958
0.830178 -2.310969 0.301505
0.959238 -2.671700 -0.348546
0.831984 -2.318539 0.390148
0.899040 -2.505410 -0.232880
3.407309 -9.500565 1.961898
0.822186 -2.293753 -0.127700
3.379483 -9.433343 2.313397
0.813624 -2.272364 -0.042130
3.374921 -9.430971 2.683954
0.786846 -2.207283 -0.627895
3.383166 -9.495788 0.175955
0.791640 -2.223185 -0.544831
3.383099 -9.506094 0.528803
0.807678 -2.269476 -0.468245
0.840628 -2.363368 0.219458
0.808559 -2.274466 -0.382326
0.824765 -2.321334 0.302480
0.924000 -2.602076 -0.339041
0.827189 -2.330738 0.391712
0.833647 -2.348933 -0.218064
3.361654 -9.477244 1.954647
0.802829 -2.264607 -0.125920
3.343280 -9.435897 2.311147
0.801015 -2.261995 -0.041886
3.329732 -9.408092 2.674119
3.344682 -9.492451 0.175676
0.778050 -2.209391 -0.540782
3.341938 -9.495238 0.527547
0.797795 -2.266726 -0.467100
0.834357 -2.371926 0.219981
0.796029 -2.264230 -0.380136
0.817314 -2.326072 0.302723
0.928066 -2.642745 -0.343915
0.816432 -2.326155 0.390460
0.828742 -2.361228 -0.218935
3.325303 -9.479659 1.952739
0.790294 -2.254202 -0.125188
3.305168 -9.432797 2.307548
0.787166 -2.247792 -0.041572
3.293681 -9.410541 2.671530
0.405105 -1.161998 -0.329735
3.305605 -9.487072 0.175362
0.769051 -2.208413 -0.539883
3.308464 -9.500609 0.527232
0.788588 -2.265788 -0.466337
0.818217 -2.352243 0.217889
0.778390 -2.239007 -0.375443
0.810493 -2.332661 0.303211
0.877810 -2.527828 -0.328560
0.804825 -2.317653 0.388583
0.836172 -2.409281 -0.223119
3.287689 -9.478225 1.950068
0.779804 -2.249399 -0.124769
3.265202 -9.424022 2.302599
0.774470 -2.235274 -0.041292
3.256135 -9.403156 2.666354
0.398529 -1.156100 -0.327665
0.762993 -2.214636 -0.540782
3.280481 -9.527207 0.528070
0.777479 -2.259245 -0.464429
0.808057 -2.349432 0.217366
0.768391 -2.234104 -0.374191
0.800172 -2.327827 0.302236
0.781707 -2.275400 -0.295411
0.792881 -2.309239 0.386706
0.850392 -2.478143 -0.229220
3.254328 -9.483504 1.948923
0.774284 -2.257640 -0.125083
3.228878 -9.420051 2.299000
0.756942 -2.209587 -0.040769
3.218286 -9.399844 2.662213
0.384716 -1.128160 -0.319383
0.779919 -2.288378 0.042200
0.755258 -2.217286 -0.540782
0.811640 -2.384177 0.131991
0.766820 -2.252518 -0.462521
0.795128 -2.337009 0.215972
0.757408 -2.227422 -0.372627
0.792042 -2.330606 0.302236
0.891866 -2.625846 -0.340503
0.784181 -2.310122 0.386393
0.839607 -2.473403 -0.228522
3.213636 -9.472495 1.944344
0.765116 -2.256546 -0.124874
3.192224 -9.420191 2.296300
0.745375 -2.200852 -0.040559
3.176165 -9.383573 2.654448
0.379542 -1.125834 -0.318347
0.771288 -2.289191 0.042165
0.753110 -2.236531 -0.544831
0.813506 -2.417283 0.133666
0.758952 -2.255181 -0.462521
0.785060 -2.334105 0.215449
0.752776 -2.239414 -0.374191
0.780108 -2.322066 0.300774
0.881431 -2.625180 -0.340016
0.776112 -2.312845 0.386393
0.825898 -2.461208 -0.227128
3.176181 -9.470626 1.941672
0.752157 -2.244054 -0.124036
3.153752 -9.414645 2.292251
0.736419 -2.199647 -0.040490
3.143390 -9.394603 2.654448
0.374388 -1.123487 -0.317312
0.755710 -2.269102 0.041746
0.730528 -2.194769 -0.534034
0.797498 -2.397367 0.132410
0.747357 -2.246639 -0.460231
0.776908 -2.336832 0.215449
0.746200 -2.245777 -0.374817
0.770121 -2.319123 0.300042
0.786599 -2.370126 -0.306623
0.768656 -2.317415 0.386706
0.760222 -2.291987 -0.211266
3.127660 -9.435066 1.932132
0.741806 -2.239082 -0.123618
3.116581 -9.412647 2.289102
0.724967 -2.190814 -0.040280
3.107545 -9.396346 2.651860
0.372881 -1.132127 -0.319383
0.744033 -2.260330 0.041537
0.700939 -2.130665 -0.517837
0.787877 -2.396341 0.132201
0.732766 -2.228719 -0.456034
0.767502 -2.335743 0.215100
0.738973 -2.250245 -0.375130
0.764497 -2.329342 0.301017
0.726350 -2.214416 -0.286149
0.759947 -2.318207 0.386393
0.739183 -2.254869 -0.207605
3.100818 -9.464584 1.935948
0.732122 -2.235963 -0.123304
3.072797 -9.390130 2.281004
0.722288 -2.208536 -0.040559
3.071125 -9.396119 2.648754
0.372515 -1.144443 -0.322489
0.728097 -2.238192 0.041083
0.682652 -2.099740 -0.509739
0.773335 -2.380081 0.131154
0.698287 -2.149108 -0.439242
0.760574 -2.342198 0.215449
0.729894 -2.249053 -0.374504
0.753912 -2.324443 0.300042
0.749222 -2.311356 -0.298336
0.748197 -2.309570 0.384516
0.728852 -2.249853 -0.206908
3.055063 -9.436126 1.927934
0.723697 -2.236605 -0.123199
3.039999 -9.400800 2.281004
0.707195 -2.188210 -0.040141
3.035933 -9.399428 2.646684
0.363194 -1.129185 -0.317830
0.715384 -2.225490 0.040804
0.682471 -2.124375 -0.515138
0.765023 -2.382766 0.131154
0.684780 -2.132839 -0.435426
0.748133 -2.331559 0.214229
0.695497 -2.168822 -0.360738
0.748823 -2.336512 0.301261
0.739938 -2.310176 -0.297849
0.740131 -2.312168 0.384516
0.717957 -2.242896 -0.206036
3.022105 -9.446733 1.927934
0.713453 -2.231508 -0.122780
3.001828 -9.394648 2.276955
0.703810 -2.204000 -0.040385
2.993707 -9.380522 2.638402
0.356325 -1.121240 -0.315242
0.701558 -2.208915 0.040455
0.675052 -2.126744 -0.515138
0.747038 -2.354962 0.129479
0.675550 -2.129603 -0.434281
0.741796 -2.339854 0.214752
0.671814 -2.120392 -0.352290
0.740662 -2.339112 0.301261
0.806134 -2.547426 -0.328072
0.735034 -2.324154 0.386080
0.722740 -2.285281 -0.209697
2.980237 -9.429145 1.922210
0.684002 -2.165422 -0.119012
2.963738 -9.388343 2.272905
0.694308 -2.200722 -0.040280
2.956297 -9.376175 2.634260
0.348937 -1.111418 -0.312136
0.687856 -2.192271 0.040106
0.665875 -2.123509 -0.513788
0.666938 -2.128201 -0.433518
0.736006 -2.350034 0.215449
0.661458 -2.113298 -0.350726
0.730715 -2.336000 0.300530
0.790722 -2.529383 -0.325391
0.725738 -2.322935 0.385455
0.740900 -2.371467 -0.217366
2.944965 -9.431994 1.920684
0.671680 -2.152544 -0.118175
2.922245 -9.370726 2.266157
0.679482 -2.180223 -0.039861
2.921828 -9.380905 2.632708
0.345055 -1.112630 -0.312136
0.677832 -2.187018 0.039966
0.657881 -2.123959 -0.513338
0.731761 -2.363936 0.129689
0.661247 -2.136142 -0.434663
0.730153 -2.360203 0.216146
0.653493 -2.113707 -0.350413
0.719040 -2.327157 0.299067
0.774860 -2.509367 -0.322466
0.717625 -2.325454 0.385455
0.674661 -2.187584 -0.200284
2.906816 -9.425332 1.917249
0.660632 -2.143423 -0.117547
2.887223 -9.373421 2.264357
0.671867 -2.182582 -0.039861
2.886791 -9.383661 2.630637
0.329665 -1.076942 -0.301783
0.667267 -2.179810 0.039791
0.655594 -2.143014 -0.517387
0.710657 -2.324456 0.127386
0.648823 -2.123531 -0.431610
0.718589 -2.353335 0.215275
0.644012 -2.110420 -0.349475
0.713809 -2.339145 0.300286
0.643914 -2.111419 -0.271037
0.705472 -2.314718 0.383264
0.657152 -2.157525 -0.197321
2.868820 -9.424653 1.914959
0.654515 -2.151563 -0.117861
2.848880 -9.370887 2.261208
0.656101 -2.158128 -0.039373
2.848965 -9.377045 2.625978
0.340438 -1.126165 -0.315242
0.663322 -2.195641 0.040036
0.662380 -2.193907 -0.529085
0.695210 -2.304100 0.126130
0.641974 -2.127663 -0.431992
0.709219 -2.352014 0.214926
0.638351 -2.118329 -0.350413
0.705804 -2.343647 0.300530
0.633883 -2.106161 -0.270062
0.699259 -2.324855 0.384516
0.667406 -2.218952 -0.202724
0.644128 -2.144270 -0.117337
2.823997 -9.406906 2.267507
0.648187 -2.160519 -0.039373
2.806809 -9.361516 2.618731
0.651080 -2.182613 0.039757
0.665852 -2.233556 -0.538083
0.684312 -2.296942 0.125606
0.636225 -2.135535 -0.433136
0.702142 -2.358295 0.215275
0.627573 -2.109185 -0.348536
0.699316 -2.351804 0.301261
0.628789 -2.115973 -0.271037
0.696764 -2.346218 0.387645
0.628461 -2.116221 -0.193137
2.011446 -6.777495 1.374206
0.637775 -2.150335 -0.117547
2.016933 -6.804691 1.638543
0.641209 -2.164685 -0.039408
2.015194 -6.807545 1.902320
0.626364 -2.125462 -0.593731
0.639503 -2.171445 0.039512
0.654200 -2.222780 -0.534934
0.668232 -2.270458 0.124036
0.628213 -2.135860 -0.432755
0.696153 -2.368377 0.215972
0.617423 -2.101886 -0.346972
0.692780 -2.359945 0.301992
0.621958 -2.120059 -0.271281
0.688423 -2.346620 0.387332
0.622752 -2.124138 -0.193660
1.983912 -6.771287 1.371535
0.625775 -2.137214 -0.116709
1.985507 -6.785505 1.632245
0.631781 -2.159123 -0.039268
1.986103 -6.791940 1.896108
0.624337 -2.146185 -0.598907
0.632299 -2.173553 0.039512
0.646825 -2.224938 -0.534934
0.648044 -2.230582 0.121733
0.619659 -2.134269 -0.431992
0.686771 -2.366966 0.215623
0.612651 -2.111510 -0.348223
0.682739 -2.354603 0.301017
0.609952 -2.104950 -0.269088
0.684623 -2.364188 0.389835
0.614779 -2.124385 -0.193486
1.958718 -6.768399 1.369627
0.616465 -2.131603 -0.116291
1.954878 -6.763970 1.625496
0.623131 -2.157473 -0.039198
1.953274 -6.767278 1.887309
0.607614 -2.114822 -0.589590
0.625811 -2.179591 0.039582
0.640130 -2.230928 -0.535833
0.640804 -2.234750 0.121838
0.609331 -2.124989 -0.429702
0.680565 -2.374976 0.216146
0.606365 -2.117434 -0.348849
0.687624 -2.402776 0.306867
0.600962 -2.101341 -0.268356
0.676910 -2.368463 0.390148
0.609374 -2.132159 -0.194009
1.932923 -6.767644 1.368101
0.606828 -2.126060 -0.115872
1.930721 -6.768879 1.625046
0.610662 -2.142327 -0.038884
1.926465 -6.762908 1.884203
0.606552 -2.139233 -0.595801
0.617654 -2.179839 0.039547
0.633401 -2.236899 -0.536733
0.636263 -2.248504 0.122466
0.600840 -2.123324 -0.428939
0.669018 -2.365834 0.215100
0.597895 -2.115736 -0.348223
0.681390 -2.412803 0.307842
0.594163 -2.105336 -0.268600
1.907789 -6.764512 1.113188
0.594896 -2.109344 -0.191743
1.904495 -6.757344 1.364666
0.600486 -2.132010 -0.116081
1.908665 -6.781205 1.626396
0.605346 -2.152145 -0.039024
1.899188 -6.756572 1.880579
0.585548 -2.092967 -0.582343
0.607888 -2.174278 0.039408
0.627161 -2.244727 -0.538083
0.626261 -2.243017 0.122047
0.594481 -2.129191 -0.429702
0.652188 -2.337450 0.212311
0.588384 -2.110199 -0.346972
0.672964 -2.415166 0.307842
0.588941 -2.115047 -0.269575
1.890520 -6.793966 1.116942
0.586462 -2.107569 -0.191394
1.877214 -6.750710 1.361995
0.595179 -2.141790 -0.116500
1.883419 -6.782193 1.625046
0.596226 -2.148465 -0.038919
1.874041 -6.757576 1.879026
0.581323 -2.106171 -0.585449
0.598699 -2.170604 0.039303
0.616215 -2.235631 -0.535384
0.617368 -2.241338 0.121838
0.597993 -2.171001 -0.437716
0.646669 -2.349317 0.213183
0.583110 -2.119858 -0.348223
1.870468 -6.804605 0.866491
0.583657 -2.124746 -0.270550
1.869408 -6.810049 1.118507
0.581738 -2.119210 -0.192266
1.859351 -6.778048 1.366192
0.583475 -2.128445 -0.115662
1.858188 -6.783087 1.623697
0.588723 -2.150533 -0.038919
1.853501 -6.775257 1.882132
0.571938 -2.100732 -0.583378
0.592169 -2.176539 0.039373
0.612498 -2.252812 -0.538983
0.607969 -2.237697 0.121524
0.614605 -2.262120 -0.455652
0.638464 -2.351560 0.213183
0.577776 -2.129507 -0.349475
1.850859 -6.826420 0.868441
0.573122 -2.115275 -0.269088
1.849239 -6.829880 1.120697
0.574858 -2.123151 -0.192440
1.840808 -6.803448 1.370009
0.576042 -2.130469 -0.115662
1.836024 -6.795177 1.625046
0.582255 -2.156436 -0.038989
1.832355 -6.791011 1.884720
0.564601 -2.102715 -0.583378
0.585086 -2.180524 0.039408
0.607154 -2.264347 -0.541232
0.596536 -2.226301 0.120791
0.605688 -2.260459 -0.454889
0.632828 -2.363397 0.214054
0.574424 -2.146776 -0.351978
1.773691 -6.633396 0.843092
0.564710 -2.113427 -0.268600
1.829973 -6.853469 1.123512
0.567444 -2.125144 -0.192440
1.821604 -6.826904 1.373443
0.570660 -2.140186 -0.116081
1.605074 -6.023848 1.439237
0.573695 -2.154590 -0.038919
1.816090 -6.825369 1.892485
0.556269 -2.100938 -0.582343
0.576959 -2.180620 0.039373
0.599744 -2.268337 -0.541682
0.591822 -2.239956 0.121419
0.596289 -2.256865 -0.453744
0.625083 -2.367518 0.214229
0.589604 -2.234719 -0.366057
2.479279 -9.403625 1.194076
0.602846 -2.288148 -0.290537
2.471422 -9.387116 1.537438
0.560022 -2.127112 -0.192440
2.470112 -9.388797 1.887101
0.565217 -2.149891 -0.116500
1.806862 -6.877565 1.641693
0.564139 -2.148844 -0.038779
1.796667 -6.848485 1.897144
0.551860 -2.114083 -0.585449
0.567325 -2.174881 0.039233
0.596738 -2.289274 -0.546181
0.581986 -2.234277 0.121001
0.590882 -2.268432 -0.455652
0.621332 -2.387039 0.215798
0.584286 -2.246323 -0.367621
1.746814 -6.720546 0.852598
0.662226 -2.549619 -0.323441
2.434669 -9.380389 1.534935
0.555597 -2.140625 -0.193486
2.431902 -9.376457 1.882903
0.558711 -2.155718 -0.116709
2.413606 -9.319300 2.222516
0.558639 -2.158543 -0.038919
2.405909 -9.302960 2.574732
0.537737 -2.089803 -0.578202
0.561721 -2.184595 0.039373
0.592138 -2.304555 -0.549330
0.578157 -2.251771 0.121838
0.584913 -2.278087 -0.457178
0.621909 -2.423931 0.218935
0.575460 -2.244521 -0.366995
2.403716 -9.382245 1.189201
0.637075 -2.488454 -0.315398
2.401911 -9.388831 1.534935
0.598983 -2.341365 -0.211440
2.395268 -9.369672 1.879850
0.549205 -2.149915 -0.116291
2.380579 -9.325779 2.222066
0.553078 -2.168231 -0.039058
2.370559 -9.300070 2.571626
0.542786 -2.140355 -0.591660
0.556057 -2.194296 0.039512
0.579306 -2.287717 -0.544831
0.567843 -2.244095 0.121315
0.581292 -2.297244 -0.460613
0.611490 -2.418361 0.218238
0.568590 -2.250347 -0.367621
2.366577 -9.373257 1.187008
0.628385 -2.490663 -0.315398
2.364778 -9.379920 1.532119
0.604931 -2.399468 -0.216495
2.359189 -9.364651 1.877179
0.544623 -2.163440 -0.116919
1.569778 -6.240327 1.485577
0.547456 -2.177905 -0.039198
2.339963 -9.315782 2.573697
0.547426 -2.192343 0.039442
0.582640 -2.335103 -0.555629
0.563389 -2.259629 0.122047
0.567570 -2.276400 -0.456034
2.344266 -9.409328 0.848374
0.561208 -2.254235 -0.367934
2.330969 -9.369903 1.185545
0.556952 -2.240475 -0.283468
1.532933 -6.171196 1.007125
0.611442 -2.461507 -0.221899
2.323649 -9.361395 1.874889
0.538029 -2.169205 -0.117128
2.309320 -9.317581 2.216218
0.536005 -2.164275 -0.038919
2.299541 -9.292014 2.564897
0.543591 -2.209775 0.039722
0.556927 -2.267400 0.122361
0.561026 -2.284087 -0.457178
2.298108 -9.363276 0.843493
0.553806 -2.258099 -0.368247
2.294469 -9.362557 1.183595
0.627979 -2.564401 -0.324172
2.290315 -9.359744 1.526175
0.562593 -2.299127 -0.207082
2.289558 -9.363729 1.873744
0.532350 -2.178830 -0.117547
2.272623 -9.308548 2.212169
0.530342 -2.173903 -0.039058
1.535034 -6.296962 1.736676
0.534932 -2.207772 0.039652
0.553165 -2.284764 0.123199
0.553049 -2.286032 -0.457178
2.262602 -9.359619 0.842447
0.546849 -2.263858 -0.368872
2.260375 -9.364720 1.182864
0.557587 -2.311850 -0.291999
2.253707 -9.344243 1.522420
0.586307 -2.432788 -0.218935
2.250883 -9.346851 1.868783
0.542031 -2.252523 -0.121419
2.237838 -9.306951 2.209919
0.525001 -2.183427 -0.039198
1.511888 -6.292625 1.734088
0.528072 -2.211479 0.039687
0.546576 -2.292510 0.123513
0.552346 -2.318505 -0.463284
2.229455 -9.365522 0.842273
0.542083 -2.277189 -0.370750
1.645912 -6.919527 0.873316
0.538901 -2.267335 -0.286149
1.649602 -6.945812 1.130708
0.545608 -2.299121 -0.206733
1.423857 -5.999947 1.198662
0.533176 -2.248478 -0.121105
2.206962 -9.314321 2.209919
0.521522 -2.202760 -0.039512
2.197512 -9.288880 2.557650
0.522181 -2.221096 0.039826
0.540852 -2.304126 0.124036
0.555422 -2.366195 -0.472443
1.611938 -6.872529 0.617586
0.537737 -2.294454 -0.373253
2.189337 -9.348965 1.178964
0.530079 -2.265337 -0.285662
2.185719 -9.348208 1.520543
0.539796 -2.308678 -0.207431
0.526232 -2.254215 -0.121315
1.505549 -6.454400 1.530117
0.517915 -2.222094 -0.039826
2.164196 -9.292731 2.556615
0.517129 -2.234594 0.040036
0.535504 -2.317676 0.124664
2.161621 -9.363009 0.840704
0.530169 -2.298242 -0.373566
2.154015 -9.344943 1.177502
0.571177 -2.479963 -0.312473
2.147315 -9.330754 1.516476
0.550500 -2.392097 -0.214752
1.600159 -6.958748 1.387945
0.520149 -2.263825 -0.121733
1.469492 -6.400736 1.516170
0.514627 -2.243379 -0.040175
2.127861 -9.283282 2.551956
0.511102 -2.244185 0.040175
0.532281 -2.340953 0.125816
1.703405 -7.497563 0.672668
0.524767 -2.311636 -0.375443
2.120942 -9.350470 1.177258
0.565150 -2.493557 -0.313935
2.113422 -9.332414 1.515537
0.536426 -2.368742 -0.212486
2.115732 -9.350189 1.863441
0.511803 -2.263678 -0.121629
2.099857 -9.295102 2.200021
0.507673 -2.249063 -0.040245
1.453633 -6.445037 1.770322
0.503703 -2.247906 0.040210
0.537188 -2.401270 0.128956
2.086205 -9.333151 0.836695
0.518847 -2.323094 -0.377007
2.085697 -9.346191 1.175796
0.606988 -2.722204 -0.342453
2.080834 -9.339734 1.515537
0.518190 -2.325872 -0.208477
2.074976 -9.321107 1.856190
0.507367 -2.281048 -0.122466
1.459862 -6.568732 1.553512
0.502854 -2.264487 -0.040490
2.058815 -9.279052 2.546779
0.497144 -2.255509 0.040315
2.056834 -9.347240 0.501588
2.053615 -9.340376 0.836695
0.513702 -2.338396 -0.379197
2.048378 -9.332087 1.173114
0.598758 -2.730123 -0.343184
1.361956 -6.215214 1.007751
0.511792 -2.337487 -0.209348
1.424323 -6.505257 1.294448
0.499829 -2.284756 -0.122571
2.028671 -9.280977 2.193273
0.495373 -2.268182 -0.040524
2.023119 -9.271082 2.542638
0.491386 -2.267003 0.040490
2.019125 -9.330938 0.500332
2.019367 -9.347840 0.836695
0.512630 -2.375020 -0.384829
2.013696 -9.329477 1.171896
0.593828 -2.753541 -0.345865
2.009754 -9.326999 1.511157
0.555628 -2.580782 -0.230963
2.006570 -9.328038 1.854663
0.495228 -2.304147 -0.123513
1.988096 -9.257866 2.186074
0.491231 -2.287493 -0.040839
1.991554 -9.281866 2.543674
0.493485 -2.317685 0.041362
1.458737 -6.856932 0.367398
1.985070 -9.347036 0.835998
0.508027 -2.394186 -0.387645
1.977018 -9.325144 1.170433
0.588257 -2.777061 -0.348546
1.973909 -9.318497 1.508654
0.558580 -2.639233 -0.236018
1.973592 -9.333065 1.854282
0.490898 -2.323449 -0.124455
1.952949 -9.251403 2.182925
0.486134 -2.302890 -0.041083
1.955156 -9.269857 2.538497
0.496865 -2.372154 0.042305
1.949847 -9.325256 0.499285
1.948766 -9.336355 0.834429
0.508157 -2.434531 -0.393902
1.944868 -9.325819 1.169702
0.589978 -2.831467 -0.355127
1.334642 -6.410923 1.037161
0.549363 -2.641166 -0.236018
1.941831 -9.335714 1.853519
0.489287 -2.354396 -0.126025
1.334331 -6.426291 1.515270
0.476468 -2.296741 -0.040943
1.920041 -9.263384 2.534874
0.513172 -2.493351 0.044434
1.916881 -9.330050 0.499180
1.395781 -6.805745 -1.100360
1.325741 -6.469972 0.810919
1.621226 -7.919046 -0.992504
1.236647 -6.045899 0.977403
0.545793 -2.668349 -0.238284
1.901371 -9.303966 1.845886
0.489855 -2.399141 -0.128328
1.888374 -9.256844 2.181125
0.479631 -2.353254 -0.041921
1.884610 -9.254887 2.530733
1.880748 -9.302334 0.165658
1.882327 -9.326896 0.498657
1.364214 -6.771846 -1.094103
1.275731 -6.338336 0.793857
1.600618 -7.959688 -0.996891
1.174291 -5.844891 0.944239
1.752668 -8.723689 -0.778475
1.287005 -6.411707 1.271170
0.500721 -2.496792 -0.133457
1.852605 -9.246181 2.177076
0.502422 -2.509816 -0.044678
1.849642 -9.248149 2.527109
1.849046 -9.312765 0.165728
1.846651 -9.317736 0.497820
1.263525 -6.381262 0.569127
1.330601 -6.726184 -1.085968
1.258986 -6.370014 0.797269
1.591667 -8.060655 -1.008835
1.838640 -9.319955 1.504587
1.827096 -9.261437 -0.825888
1.834472 -9.307382 1.843978
1.831408 -9.300388 -0.496773
1.815804 -9.229647 2.171677
1.830006 -9.310411 -0.165623
1.816604 -9.250757 2.526074
1.813848 -9.305424 0.165484
1.812209 -9.314322 0.497296
1.813010 -9.327132 0.831291
1.308620 -6.738544 -1.087220
1.807665 -9.316986 1.165315
1.554832 -8.021338 -1.003229
1.803467 -9.312740 1.502397
1.841727 -9.510309 -0.847502
1.802346 -9.315656 1.844360
1.798932 -9.306725 -0.496773
1.782467 -9.230190 2.170328
1.794086 -9.299070 -0.165309
1.782107 -9.245660 2.522968
1.781731 -9.313663 0.165519
1.780060 -9.322554 0.497401
1.775962 -9.309919 0.829200
1.287309 -6.754714 -1.089097
1.259410 -6.614606 0.826762
1.606577 -8.445993 -1.055632
1.767630 -9.301514 1.499581
1.787689 -9.407067 -0.837741
1.769084 -9.318034 1.843597
1.765319 -9.307060 -0.496459
1.748787 -9.228697 2.168528
1.760127 -9.297419 -0.165170
1.746233 -9.232843 2.517792
1.743677 -9.290344 0.164995
1.397784 -7.461791 0.397858
1.196265 -6.392186 0.568953
1.253921 -6.706739 -1.080649
1.111662 -5.951602 0.743403
1.539579 -8.250554 -1.030527
1.353946 -7.262784 1.170130
1.754111 -9.409333 -0.837392
1.731875 -9.299060 1.838636
1.730263 -9.299420 -0.495726
1.716204 -9.232829 2.168078
1.294652 -6.971731 -0.123772
1.710822 -9.221786 2.513133
1.710151 -9.290475 0.164890
1.710602 -9.311181 0.496145
1.183296 -6.447273 0.573485
1.231214 -6.714961 -1.081275
1.704278 -9.304164 1.161415
1.523633 -8.326176 -1.039302
1.698388 -9.290309 1.495826
1.725913 -9.440877 -0.839658
1.696230 -9.287667 1.835201
1.694564 -9.287721 -0.494784
1.166091 -6.397542 1.501323
1.691593 -9.289805 -0.164821
1.678622 -9.227702 2.513133
1.677710 -9.296388 0.164890
1.678088 -9.317096 0.496145
1.200080 -6.676445 -1.074392
1.667227 -9.284656 1.158246
1.467921 -8.182946 -1.020778
1.664903 -9.290348 1.494888
1.684865 -9.401738 -0.835649
1.660339 -9.274207 1.831385
1.661782 -9.291614 -0.494680
1.644167 -9.202381 2.158180
1.661616 -9.309434 -0.165065
1.645045 -9.225900 2.511063
1.642115 -9.284465 0.164576
1.165082 -6.600768 0.351279
1.639921 -9.300452 0.826236
1.181907 -6.709775 -1.079085
1.476123 -8.397217 -1.046858
1.634854 -9.309722 1.497078
1.469050 -8.365547 -0.743090
1.632028 -9.303150 1.835964
1.626925 -9.283587 -0.493947
1.612369 -9.209984 2.158630
1.622220 -9.275781 -0.164367
1.613162 -9.233487 2.511580
1.611061 -9.298022 0.164716
1.125019 -6.506392 0.346045
1.604055 -9.286486 0.824493
1.165868 -6.756685 -1.085968
1.399712 -8.120366 1.011759
1.447139 -8.404274 -1.047101
1.598999 -9.295903 1.493949
1.441530 -8.380443 -0.743961
1.596882 -9.293312 1.832911
1.594510 -9.289209 -0.493947
1.588481 -9.273503 -0.164227
1.577011 -9.216212 2.505368
1.573244 -9.272044 0.164157
1.083295 -6.398033 0.340079
1.301495 -7.694901 0.682778
1.152807 -6.823042 -1.095980
1.567266 -9.285947 1.156296
1.424394 -8.448424 -1.051976
1.563261 -9.281950 1.490821
1.405981 -8.348093 -0.740649
1.268029 -7.537027 1.485639
1.560088 -9.282900 -0.493319
1.546419 -9.211407 2.156381
1.558416 -9.292797 -0.164471
1.541002 -9.198797 2.499157
1.541524 -9.281425 0.164227
1.542288 -9.306121 0.494365
1.534955 -9.271905 0.822227
1.296573 -7.840457 -1.258672
1.531932 -9.273733 1.154103
1.396834 -8.465096 -1.053439
1.527637 -9.267859 1.487692
1.368730 -8.303803 -0.736292
1.525905 -9.267427 1.825661
1.160424 -7.055395 -0.374725
1.512993 -9.209057 2.154581
1.522730 -9.278447 -0.164122
1.508258 -9.200308 2.498122
1.506871 -9.272934 0.163983
1.502761 -9.268074 0.492063
1.504810 -9.290974 0.823447
1.275507 -7.883936 -1.264929
1.498600 -9.273147 1.153372
1.368542 -8.477760 -1.054414
1.494335 -9.267284 1.486753
1.332442 -8.263291 -0.732283
1.493546 -9.272697 1.825661
1.134519 -7.051515 -0.374307
1.111325 -6.915040 1.616948
1.490967 -9.287655 -0.164192
1.474909 -9.197886 2.496051
1.475434 -9.284061 0.164088
1.471025 -9.277207 0.492272
1.132639 -7.151203 0.633448
1.265266 -7.997601 -1.282450
1.464053 -9.264595 1.151665
1.332752 -8.443269 -1.049539
1.461360 -9.268541 1.486127
1.292107 -8.195072 -0.725833
1.459032 -9.264278 1.822989
1.456587 -9.259269 -0.491225
0.982212 -6.250862 1.460832
1.454507 -9.267121 -0.163738
0.943412 -6.017625 1.632113
1.033841 -6.655153 0.117559
1.436492 -9.268471 0.491539
1.433205 -9.257936 0.819613
1.239755 -8.017588 -1.284953
1.232630 -7.980727 0.991529
1.144703 -7.428631 1.190466
1.262280 -8.191657 -0.725136
1.247789 -8.107012 1.594400
1.422740 -9.254426 -0.490702
0.962162 -6.265809 1.463532
1.419725 -9.256329 -0.163459
0.916549 -5.982690 1.621760
1.022006 -6.733849 0.118886
1.403232 -9.267505 0.491225
1.098477 -7.263345 0.642686
1.396969 -9.258886 1.149715
1.201004 -7.969488 -0.989579
1.391916 -9.247263 1.481122
1.228934 -8.164489 -0.722347
1.055153 -7.018291 1.379549
1.395172 -9.290937 -0.492377
0.903285 -6.022450 1.405944
1.388887 -9.271117 -0.163634
1.374222 -9.184169 2.488286
1.065627 -7.190358 0.126879
0.945562 -6.395607 0.338823
0.913620 -6.187018 0.547164
1.362906 -9.251924 1.148253
1.167977 -7.938280 -0.985192
1.360488 -9.257930 1.482060
1.166534 -7.938098 -0.701952
0.941125 -6.412004 1.259721
0.880563 -6.013997 1.403245
1.351886 -9.244250 -0.163075
0.884253 -6.053937 1.639360
1.339368 -9.260217 0.163320
1.335326 -9.266521 0.819090
0.859483 -5.979178 0.741697
1.136874 -7.918729 -0.982267
1.327604 -9.258711 1.481435
1.137404 -7.932260 -0.701081
1.325087 -9.252652 1.816883
1.094988 -7.655474 -0.405290
1.322151 -9.266729 -0.163389
1.306801 -9.170588 2.482075
1.306196 -9.258895 0.163215
0.894766 -6.358541 0.336520
1.011266 -7.195529 0.635714
0.845771 -6.033255 0.748034
1.109226 -7.922650 -0.982267
0.836254 -5.980544 0.956440
1.007070 -7.202154 -0.636237
0.846648 -6.062595 1.189885
0.903619 -6.487083 1.512121
0.947577 -6.811356 -0.120038
0.843031 -6.067617 1.641430
0.897103 -6.523603 0.114942
0.874194 -6.373498 0.337148
1.267358 -9.251930 0.816998
1.074885 -7.867279 0.974955
1.084249 -7.946141 -0.984704
0.799102 -5.864031 0.937355
0.967935 -7.102970 -0.627173
1.258341 -9.246115 1.813830
1.077294 -7.926147 -0.419211
0.834838 -6.150336 1.432938
0.911976 -6.727433 -0.118502
1.240414 -9.162258 2.477416
1.239668 -9.253914 0.162971
0.774972 -5.808144 0.512650
0.071230 -0.534553 -0.085413
1.073865 -8.069727 0.999572
1.070625 -8.056139 -0.997866
0.937421 -7.063249 1.128518
0.828808 -6.253250 1.226139
0.950029 -7.177464 -0.379436
0.878739 -6.647789 1.548113
1.220853 -9.248347 -0.162831
1.206657 -9.153126 2.473793
1.205031 -9.240339 0.162656
1.201371 -9.237422 0.488190
1.201966 -9.254624 0.816475
0.925847 -7.148160 0.885015
1.197829 -9.260729 -1.146547
0.856581 -6.631558 1.059062
1.191676 -9.225822 -0.813860
0.802705 -6.223004 1.219651
0.885420 -6.873698 -0.363212
1.186014 -9.232718 -0.162482
1.173717 -9.149616 2.471722
1.171763 -9.236553 0.162517
1.168618 -9.237597 0.487980
1.169156 -9.254810 0.816126
0.908829 -7.214374 0.892815
1.165990 -9.268793 -1.147034
0.781478 -6.220953 0.993046
1.160955 -9.241786 -0.814906
0.710114 -5.660852 1.108982
1.156338 -9.231090 -0.487562
1.152074 -9.210073 2.142884
0.818428 -6.552077 -0.115256
0.865833 -6.941444 1.874368
1.139023 -9.236618 0.162447
0.959159 -7.800466 0.411884
1.135142 -9.244992 0.814906
1.130664 -9.235171 1.142403
0.090093 -0.736938 -0.091158
0.809546 -6.631494 1.058123
0.078948 -0.646710 -0.057000
1.128172 -9.254987 1.812304
1.122420 -9.221191 -0.486829
0.826947 -6.803648 1.582306
0.786877 -6.483430 -0.113999
0.844852 -6.971274 1.881615
1.104527 -9.235420 0.487457
0.727773 -6.103284 0.537751
0.063759 -0.535495 -0.085413
1.098186 -9.237091 1.142160
0.082840 -0.697823 -0.086283
0.662968 -5.584684 0.890738
0.072937 -0.615325 -0.054211
0.698959 -5.905478 1.155921
1.090460 -9.227038 -0.486934
0.805020 -6.821975 1.585905
0.764436 -6.478059 -0.113859
1.076499 -9.136275 2.464993
0.892301 -7.665062 0.134698
1.072053 -9.237236 0.487352
1.068282 -9.232901 0.813163
0.061983 -0.535704 -0.085413
1.065271 -9.220962 1.139722
0.076886 -0.666542 -0.082384
0.742691 -6.448460 1.028087
0.070789 -0.615576 -0.054211
1.060216 -9.219543 1.803908
1.059400 -9.226634 -0.486724
0.935764 -8.162425 1.896787
0.737498 -6.442941 -0.113196
1.042189 -9.118865 2.459299
0.862849 -7.644286 0.134279
0.880794 -7.827792 0.412826
0.900862 -8.018733 0.705962
0.896984 -8.009405 0.989579
0.074117 -0.662860 -0.081896
0.734861 -6.582546 1.049050
0.069632 -0.623728 -0.054908
1.026070 -9.205627 1.800474
0.828596 -7.445756 -0.392624
1.025839 -9.232830 2.144683
0.710374 -6.403738 -0.112463
1.011627 -9.133969 2.462405
1.007652 -9.215662 0.161819
0.851301 -7.810964 0.411779
0.876961 -8.059462 0.709273
0.706774 -6.516559 0.804825
0.070094 -0.647326 -0.079946
0.070452 -0.651699 -0.057348
0.993719 -9.207200 1.800092
0.990895 -9.196075 -0.484736
0.989435 -9.197603 2.135685
0.989103 -9.209629 -0.161679
0.978914 -9.129761 2.460334
0.784632 -7.415469 0.130160
0.841522 -7.993124 0.703173
0.060500 -0.575615 -0.091671
0.683609 -6.515038 0.804338
0.067834 -0.647567 -0.079946
0.963787 -9.216235 1.467668
0.069006 -0.659867 -0.058046
0.843135 -8.076128 1.578372
0.960032 -9.211397 -0.485364
0.798697 -7.689455 -0.134942
0.945842 -9.121593 2.457228
0.942681 -9.216505 0.161714
0.937913 -9.201630 0.484736
0.804943 -7.910779 0.695677
0.058889 -0.579753 -0.092296
0.649849 -6.408762 0.790932
0.066372 -0.655700 -0.080921
0.929228 -9.195960 1.463914
0.065901 -0.652175 -0.057348
0.928236 -9.202194 1.797803
0.926870 -9.204757 -0.484840
0.924617 -9.198471 2.134336
0.922987 -9.198401 -0.161365
0.913997 -9.124839 2.457228
0.908537 -9.199840 0.161365
0.730928 -7.427882 0.391159
0.666306 -6.783319 0.596320
0.057636 -0.587819 -0.093548
0.066013 -0.675685 -0.083359
0.785533 -8.054906 1.281824
0.064204 -0.658350 -0.057871
0.894776 -9.191700 1.795131
0.894735 -9.207936 -0.484840
0.891184 -9.188064 2.131186
0.684486 -7.069861 -0.123982
0.881212 -9.118360 2.454640
0.876419 -9.202955 0.161365
0.705184 -7.432375 0.391264
0.640933 -6.767751 0.594751
0.054469 -0.576217 -0.091671
0.756131 -8.013958 0.988360
0.063282 -0.671958 -0.082871
0.867593 -9.229756 1.468294
0.060600 -0.644685 -0.056651
0.861769 -9.184995 1.793223
0.861283 -9.197083 -0.484108
0.858744 -9.187238 2.130286
0.651445 -6.982610 -0.122411
0.848659 -9.113686 2.452569
0.626722 -6.859978 0.361013
0.700709 -7.684644 0.675108
0.052815 -0.580338 -0.092296
0.668716 -7.362176 0.907683
0.060936 -0.672175 -0.082871
0.580469 -6.415497 1.020266
0.058170 -0.642908 -0.056477
0.828642 -9.176215 1.790933
0.634655 -7.041755 -0.370539
0.825796 -9.180475 2.128037
0.665689 -7.415045 -0.129951
0.816325 -9.110820 2.451016
0.537041 -6.089434 0.106704
0.601199 -6.844217 0.360071
0.678405 -7.738647 0.679640
0.051478 -0.588390 -0.093548
0.802384 -9.189762 1.132654
0.059279 -0.680294 -0.083846
0.797831 -9.174582 1.458595
0.056443 -0.649062 -0.057000
0.797285 -9.186874 1.792460
