# This PCD file was generated using the MATLAB® pcwrite function
# from Computer Vision Toolbox®.
# .PCD v.7 - Point Cloud Data file format
VERSION .7
FIELDS x y z
SIZE 4 4 4
TYPE F F F
COUNT 1 1 1
WIDTH 1667
HEIGHT 1
VIEWPOINT 0 0 0 1 0 0 0
POINTS 1667
DATA ascii
5.548364 -7.653508 1.837491
5.829451 -8.044200 -0.520638
5.037108 -6.953380 1.982269
5.702593 -7.872036 -0.169672
5.621099 -7.762391 2.568003
2.821525 -3.907826 -1.291507
5.564792 -7.710100 0.165972
3.169774 -4.393384 -1.250728
3.618674 -5.017415 -1.202478
5.517135 -7.652510 0.825365
4.242141 -5.886203 -1.149168
5.062616 -7.027241 1.063432
4.263260 -5.919862 -0.895740
6.166427 -8.565708 1.671659
5.886616 -8.177025 -0.881493
5.359922 -7.448142 1.783683
5.803669 -8.067741 -0.520847
5.054902 -7.029460 1.998915
5.778749 -8.039018 -0.172814
2.804491 -3.912941 -1.289954
5.749809 -8.025328 0.172325
3.165766 -4.420264 -1.255227
5.756282 -8.040290 0.518231
3.609138 -5.041191 -1.205150
5.569237 -7.781898 0.837218
4.223867 -5.904188 -1.149794
4.924892 -6.886631 1.039546
4.224099 -5.908870 -0.891840
5.494473 -7.688765 1.496765
5.770829 -8.081450 -0.520429
5.744844 -8.051002 -0.172639
5.669739 -7.948681 2.616143
2.790815 -3.922707 -1.289954
5.744940 -8.077942 0.173023
3.149187 -4.429699 -1.254777
5.712229 -8.034917 0.516661
3.593793 -5.056958 -1.205913
5.679349 -7.994576 0.857961
4.175782 -5.880242 -1.142285
4.928401 -6.942629 1.045395
4.201149 -5.920341 -0.891352
5.686149 -8.013030 1.556210
5.179243 -7.301388 -0.783181
5.677999 -8.007466 1.908090
7.039632 -9.931397 -0.637975
6.994240 -9.871012 2.792992
5.752798 -8.118958 -0.173686
2.789364 -3.949782 -1.295648
3.128862 -4.432158 -1.252527
5.793546 -8.209832 0.526604
3.574988 -5.067868 -1.205531
4.135768 -5.864998 -1.136653
4.905351 -6.958934 1.045395
4.174634 -5.924503 -0.889890
5.141108 -7.301504 -0.781264
5.642373 -8.013409 1.905037
6.974472 -9.908957 -0.635045
6.948011 -9.875026 2.787593
6.981817 -9.926753 -0.211837
5.518837 -7.849597 2.571108
2.774032 -3.955847 -1.294613
3.112253 -4.441457 -1.252078
5.175879 -7.389174 0.472803
3.559289 -5.081303 -1.205913
5.511665 -7.871474 0.840704
4.103943 -5.863216 -1.133524
4.172132 -5.965066 -0.893790
4.884147 -6.985659 1.350030
5.110017 -7.308714 -0.780218
6.915820 -9.898860 -0.632846
5.527676 -7.914902 2.228815
6.916217 -9.906792 -0.210895
5.444969 -7.802279 2.549368
2.759103 -3.963921 -1.294095
7.036558 -10.112977 0.215049
3.104520 -4.463493 -1.255227
6.324408 -9.096241 0.580615
3.542651 -5.095308 -1.206295
5.709298 -8.214602 0.875218
4.067672 -5.854794 -1.129144
5.705912 -8.215849 1.228199
4.167133 -6.002423 -0.897202
5.580528 -8.041300 1.550266
5.125367 -7.385433 -0.786493
5.976839 -8.615578 2.038222
6.865289 -9.899962 -0.631381
6.820061 -9.838408 2.763749
5.691381 -8.213270 -0.174419
2.746348 -3.975117 -1.294613
6.998942 -10.134187 0.214979
3.094456 -4.482320 -1.257476
6.941504 -10.058527 0.640487
3.527073 -5.110875 -1.207058
5.972481 -8.657603 0.920190
4.044968 -5.865704 -1.128518
6.918770 -10.036820 1.496799
4.152914 -6.026740 -0.898665
6.144085 -8.919674 1.715461
5.071146 -7.364785 -0.782310
5.979018 -8.683281 2.049289
6.811439 -9.895898 -0.629602
6.766898 -9.834862 2.756100
5.643411 -8.205078 -0.173826
5.681502 -8.263546 2.687060
2.728483 -3.980376 -1.293060
5.603382 -8.174347 0.172988
3.080994 -4.496310 -1.258376
5.759618 -8.408563 0.534141
3.514972 -5.133488 -1.209347
6.215293 -9.080607 0.962722
3.998902 -5.844624 -1.121635
4.145299 -6.060861 -0.901589
5.530942 -8.089848 1.552143
5.029667 -7.359412 -0.779870
6.766685 -9.904728 2.331686
6.750343 -9.884511 -0.627299
5.036568 -7.377799 2.062351
5.611354 -8.219771 -0.173721
5.712512 -8.371091 2.715529
2.720005 -3.997862 -1.295648
3.057920 -4.497903 -1.255677
4.998093 -7.351708 0.465895
3.497032 -5.145726 -1.209347
3.954061 -5.822595 -1.114752
5.598052 -8.246568 1.223812
4.129745 -6.085870 -0.903052
4.841595 -7.134901 1.365673
5.726467 -8.442078 -0.892475
6.013688 -8.868836 2.082871
6.694508 -9.876602 -0.625310
6.654811 -9.821728 2.739004
6.695340 -9.881543 -0.208347
6.668023 -9.844926 3.186063
2.712521 -4.016939 -1.298754
3.041897 -4.506403 -1.255227
4.976869 -7.375733 0.466313
3.481244 -5.161157 -1.210111
5.338644 -7.917846 0.835475
3.923687 -5.819297 -1.111623
5.350998 -7.939157 1.175552
4.085138 -6.063313 -0.897690
5.412536 -8.036510 1.534622
4.346160 -6.455592 -0.680861
5.521557 -8.201474 1.921828
6.639416 -9.865608 -0.623217
5.680215 -8.443499 2.349389
6.641835 -9.876644 -0.207753
5.657166 -8.415578 2.717082
2.697033 -4.022703 -1.297719
8.409806 -12.548200 0.263671
3.032656 -4.526709 -1.257926
5.302281 -7.917463 0.499390
3.461925 -5.169410 -1.209347
5.312358 -7.935506 0.835475
3.894562 -5.819823 -1.109120
5.493226 -8.211883 1.213088
4.024225 -6.018129 -0.888915
5.428360 -8.121046 1.547137
4.324729 -6.469969 -0.680861
5.501621 -8.233757 1.924881
6.592735 -9.870455 -0.622065
5.700484 -8.537827 2.370084
6.586227 -9.868165 -0.207090
5.627756 -8.435273 2.717082
2.681905 -4.030484 -1.297201
3.017915 -4.538889 -1.258376
3.446033 -5.184733 -1.210111
5.154522 -7.758179 0.814906
3.869852 -5.826801 -1.107869
4.016365 -6.051988 -0.891840
5.306067 -7.998381 1.520230
5.689898 -8.576970 -0.900493
5.522757 -8.328175 1.942436
6.544999 -9.873431 -0.620809
5.687871 -8.583665 2.377283
6.532968 -9.862756 -0.206497
5.613209 -8.477418 2.724329
2.671013 -4.044657 -1.298754
3.005273 -4.554276 -1.259726
3.432238 -5.203286 -1.211637
3.821223 -5.797391 -1.099734
5.756862 -8.737375 1.284747
3.949356 -5.996342 -0.881603
5.432363 -8.251140 1.564658
5.755243 -8.741556 -0.915658
6.529783 -9.921765 2.308789
6.490735 -9.866182 -0.618925
5.706057 -8.676736 2.397528
6.482024 -9.860435 -0.205973
6.434434 -9.791765 3.139475
2.660055 -4.058804 -1.300307
5.524107 -8.432082 0.175955
2.985087 -4.558218 -1.257926
5.083434 -7.765343 0.486410
3.416205 -5.218520 -1.212400
3.787987 -5.790856 -1.095980
5.369995 -8.212467 1.204800
3.931659 -6.015076 -0.882334
5.265225 -8.058380 1.524610
5.810787 -8.893358 -0.929429
6.108625 -9.352759 2.171407
6.430051 -9.848642 -0.616413
5.706621 -8.743928 2.410576
6.425712 -9.849505 -0.205275
6.395994 -9.807693 3.137405
2.643764 -4.064826 -1.299272
5.505541 -8.468078 0.176304
2.975529 -4.578413 -1.260626
5.049768 -7.772991 0.485782
3.403316 -5.238645 -1.214309
3.754843 -5.784161 -1.092226
5.489335 -8.459296 1.238193
3.897675 -6.008779 -0.879409
5.144639 -7.934170 1.497704
5.881601 -9.070728 -0.945814
5.448058 -8.405322 1.947015
6.372828 -9.835829 -0.614215
5.902767 -9.113822 2.506855
6.370644 -9.839981 -0.204612
6.338629 -9.794280 3.126017
2.635846 -4.083767 -1.302377
2.959529 -4.588772 -1.260626
5.007454 -7.767069 0.484317
3.377563 -5.238942 -1.211637
3.723932 -5.780627 -1.089097
5.349072 -8.306501 1.213088
3.885273 -6.035701 -0.881359
5.127602 -7.968691 1.500832
5.891950 -9.156548 -0.952612
6.400037 -9.949972 2.299630
6.320092 -9.829453 -0.612435
6.277626 -9.767154 2.680517
6.316801 -9.831877 -0.203984
6.268907 -9.761078 3.108417
2.621574 -4.092944 -1.302377
2.947696 -4.605640 -1.262425
4.960137 -7.749988 0.482224
3.367718 -5.263930 -1.214690
5.748279 -8.988331 0.933438
3.690964 -5.773618 -1.085342
5.305080 -8.301704 1.209675
3.886622 -6.084358 -0.886478
5.167079 -8.088865 1.520230
5.877108 -9.203927 -0.955401
6.358929 -9.962322 2.297340
6.276074 -9.836302 -0.611493
5.604265 -8.786777 2.406076
6.269108 -9.829165 -0.203495
6.217810 -9.752492 3.099099
2.605199 -4.098808 -1.301342
2.935541 -4.620324 -1.263775
5.387062 -8.482104 0.526604
3.347219 -5.272338 -1.213927
5.456380 -8.597878 0.890906
3.650628 -5.752469 -1.079085
5.483815 -8.644444 1.256961
3.915325 -6.174329 -0.897690
4.215483 -6.652800 -0.689053
5.678560 -8.961802 2.062264
6.230597 -9.836813 -0.610237
5.598030 -8.841535 2.415974
6.222995 -9.832402 -0.203111
5.328522 -8.422378 2.670495
2.594685 -4.112327 -1.302895
30.066950 -47.671669 0.983792
2.917317 -4.627246 -1.262875
5.075568 -8.050513 0.498762
3.338091 -5.296697 -1.216980
4.949942 -7.857332 0.812466
3.617895 -5.745119 -1.075331
5.472643 -8.693773 1.261348
3.791199 -6.024984 -0.874047
5.463285 -8.682268 1.624729
4.087317 -6.498092 -0.671622
5.463320 -8.689054 1.995099
6.173903 -9.822991 -0.608039
6.135249 -9.765275 2.662521
6.174397 -9.827586 -0.202588
5.258438 -8.372926 2.649272
2.585441 -4.129546 -1.305483
2.902990 -4.638547 -1.263325
5.072858 -8.108817 0.501274
3.322704 -5.313310 -1.218125
4.914036 -7.861048 0.811071
3.586258 -5.736984 -1.071576
5.462718 -8.742176 1.265735
3.710203 -5.939872 -0.859910
5.648463 -9.046454 1.689180
4.194365 -6.720214 -0.693062
4.363798 -6.991680 1.602033
6.120152 -9.809521 -0.605946
6.082209 -9.752496 2.653523
6.115725 -9.810049 -0.201785
5.226113 -8.386312 2.647719
2.575383 -4.147200 -1.308071
4.798616 -7.730334 0.158817
2.885158 -4.649659 -1.263325
3.296998 -5.315443 -1.215835
3.553797 -5.733922 -1.068448
5.405064 -8.724274 1.260129
3.685278 -5.950700 -0.859423
5.715114 -9.228320 1.719215
5.804659 -9.376566 -0.964814
5.419600 -8.757976 2.001968
6.068781 -9.810866 -0.604585
6.062900 -9.805186 -0.201226
5.227844 -8.457995 2.664284
2.554811 -4.146297 -1.304966
4.784494 -7.764932 0.159201
2.873812 -4.665838 -1.265125
3.282541 -5.333607 -1.217361
7.141896 -11.608984 1.192465
3.526483 -5.732214 -1.065945
5.383382 -8.753986 1.261835
3.637456 -5.917228 -0.852842
5.753191 -9.362659 1.740490
5.722881 -9.316979 -0.956621
5.435740 -8.849506 2.018759
6.018447 -9.802003 -0.602806
5.973530 -9.732656 2.636426
6.011906 -9.799017 -0.200668
5.967882 -9.731071 3.058724
2.542055 -4.156394 -1.305483
2.869701 -4.695795 -1.270524
5.285062 -8.651528 0.531315
3.268929 -5.351164 -1.218888
3.498218 -5.731001 -1.063442
4.093434 -6.708754 0.964962
3.607477 -5.914636 -0.850648
5.261849 -8.630449 1.600950
5.689879 -9.332502 -0.956273
5.971725 -9.802483 -0.601550
5.933438 -9.743462 2.633727
5.965187 -9.799447 -0.200249
5.522151 -9.075204 2.846492
2.534546 -4.176803 -1.309107
2.844199 -4.690786 -1.266474
5.011550 -8.268538 0.506717
3.251248 -5.364221 -1.219270
4.675781 -7.717591 0.789457
3.457726 -5.709384 -1.057184
4.631298 -7.650194 1.098043
3.596058 -5.942477 -0.852842
5.710181 -9.439779 1.747373
5.742860 -9.493802 -0.970741
5.923009 -9.799338 -0.600084
5.881254 -9.734092 2.625629
5.919572 -9.801380 -0.199865
5.871845 -9.726189 3.044230
2.518955 -4.183969 -1.308589
2.826804 -4.699016 -1.266025
5.048530 -8.395525 0.513416
3.244644 -5.395728 -1.223849
4.240284 -7.054228 0.720081
3.433706 -5.714646 -1.055933
4.550395 -7.576123 1.085125
3.585511 -5.972013 -0.855279
5.173007 -8.619549 1.592190
5.637917 -9.394207 -0.958539
5.866169 -9.782270 -0.597781
5.815177 -9.701076 2.611232
5.871962 -9.799684 -0.199411
5.526162 -9.226232 2.881691
2.505325 -4.194395 -1.309107
2.819372 -4.723915 -1.270074
5.123568 -8.588049 0.524092
3.220760 -5.398591 -1.221941
4.211553 -7.062142 0.719384
3.401600 -5.706235 -1.052178
4.676344 -7.847754 1.121686
3.575818 -6.003253 -0.857960
5.157036 -8.661316 1.596570
5.592859 -9.393287 -0.956447
5.825860 -9.792389 -0.597153
5.747411 -9.664368 2.595935
5.824435 -9.797775 -0.198957
5.736693 -9.654013 3.009030
2.491654 -4.204777 -1.309624
2.806837 -4.740435 -1.271873
5.048252 -8.525936 0.519277
3.201897 -5.409801 -1.221941
4.209195 -7.114524 0.723218
3.379649 -5.714674 -1.051553
4.701451 -7.952889 1.134360
3.575083 -6.047546 -0.862591
4.018790 -6.803531 -0.691319
5.280467 -8.943026 2.018759
5.772355 -9.779984 -0.595165
5.719294 -9.690085 2.597735
5.769557 -9.779146 -0.198190
5.708573 -9.679640 3.011101
2.476717 -4.211351 -1.309107
2.793076 -4.753078 -1.272773
4.588889 -7.809077 0.474687
3.184933 -5.422081 -1.222322
4.807009 -8.186800 0.830594
3.336682 -5.684963 -1.044044
4.709208 -8.026649 1.142647
3.555010 -6.059368 -0.862591
5.480426 -9.348634 -0.948080
9.771021 -16.674295 3.756648
5.725758 -9.774945 -0.593699
5.687129 -9.708998 2.597735
5.732045 -9.789596 -0.198015
5.629601 -9.618487 2.986254
2.468581 -4.229552 -1.312213
2.773372 -4.755579 -1.270973
33.879581 -58.117580 3.525560
3.173857 -5.444485 -1.224994
4.679523 -8.030551 0.813163
3.307869 -5.678927 -1.040915
4.301008 -7.386904 1.049539
3.531840 -6.068308 -0.862104
5.472800 -9.410767 -0.952438
6.109306 -10.505271 2.362215
5.677251 -9.766253 -0.592024
5.647329 -9.718682 2.595035
5.674737 -9.769774 -0.197212
5.628974 -9.694883 3.003854
2.454030 -4.240243 -1.312730
2.758707 -4.768605 -1.271873
3.151916 -5.452682 -1.224231
5.124534 -8.868802 0.896135
3.279129 -5.677329 -1.038412
4.572057 -7.915843 1.122417
3.460016 -5.992924 -0.849673
5.533503 -9.592039 -0.968823
5.623465 -9.755849 -0.590140
5.588321 -9.698792 2.584238
5.627621 -9.766998 -0.196758
5.579671 -9.687688 2.995572
2.443061 -4.255486 -1.314801
2.747998 -4.790517 -1.275023
33.363483 -58.185265 3.515092
3.135793 -5.468761 -1.225375
4.614012 -8.050002 0.811769
3.253400 -5.678457 -1.036535
4.324002 -7.550132 1.068307
3.474519 -6.069307 -0.858692
5.460717 -9.546536 -0.962199
5.575496 -9.751144 -0.588675
5.527355 -9.670866 2.571640
5.572937 -9.754569 -0.196095
5.530714 -9.684588 2.988325
2.419802 -4.250979 -1.310660
2.736079 -4.808548 -1.277272
33.135494 -58.257969 3.512476
3.114757 -5.478510 -1.224994
3.946568 -6.944393 0.698815
3.224759 -5.676602 -1.034032
4.336841 -7.634221 1.078056
3.493501 -6.152173 -0.868685
5.427360 -9.565540 -0.962199
5.531840 -9.757614 -0.587838
5.478421 -9.667324 2.565342
5.522093 -9.744388 -0.195502
5.485449 -9.683663 2.982113
2.406848 -4.262765 -1.311695
4.762026 -8.437454 0.169114
2.719393 -4.820242 -1.277722
3.096579 -5.491060 -1.225375
4.874261 -8.646892 0.868420
3.191348 -5.663731 -1.029652
4.318573 -7.667360 1.080494
3.502093 -6.220289 -0.876484
5.443772 -9.672977 -0.971089
5.484040 -9.752492 -0.586372
5.429364 -9.659207 2.558143
5.480465 -9.754101 -0.195292
5.427216 -9.663280 2.969690
2.397618 -4.281254 -1.314801
4.707148 -8.408658 0.168206
2.699695 -4.824603 -1.276372
3.080268 -5.506976 -1.226520
4.951003 -8.855146 0.887594
3.159994 -5.654144 -1.025897
4.258865 -7.623466 1.072207
3.523911 -6.310468 -0.887453
6.405533 -11.475457 2.081517
4.785560 -8.573289 -0.859007
5.431479 -9.738434 -0.584383
5.388024 -9.664484 2.554544
5.426914 -9.738236 -0.194594
5.372769 -9.645035 2.958302
2.381720 -4.287908 -1.314283
6.182341 -11.134897 0.222309
2.684730 -4.837405 -1.277272
3.061979 -5.519411 -1.226902
4.985767 -8.990859 0.899447
3.130661 -5.647863 -1.022769
6.512381 -11.753480 1.649867
3.481800 -6.283918 -0.882090
6.382756 -11.524283 2.086523
3.869718 -6.989786 -0.698989
5.382951 -9.731118 -0.582813
5.340853 -9.655014 2.547346
5.400397 -9.766680 -0.194804
5.335148 -9.652655 2.955196
2.370285 -4.300858 -1.315836
6.133802 -11.134319 0.221890
2.674313 -4.856524 -1.279971
3.043659 -5.529535 -1.226902
4.992422 -9.073677 0.906071
3.104300 -5.644366 -1.020266
4.239391 -7.711423 1.080494
3.372961 -6.135392 -0.859666
3.594241 -6.543308 -0.653145
5.339121 -9.727904 -0.581557
5.295681 -9.648755 2.541047
5.362208 -9.774014 -0.194594
5.290104 -9.646579 2.947949
2.356010 -4.308695 -1.315836
5.383293 -9.849105 0.195921
2.658194 -4.865365 -1.279971
5.396276 -9.881049 0.590036
3.027188 -5.543044 -1.227665
3.965643 -7.264451 0.724090
3.076103 -5.637290 -1.017137
3.334419 -6.115756 -0.855279
5.710522 -10.478188 1.890041
3.651441 -6.702782 -0.667787
5.298236 -9.729770 -0.580615
5.256377 -9.656912 2.538348
5.329970 -9.796185 -0.194664
5.239786 -9.634439 2.938632
2.335599 -4.308809 -1.313248
5.352693 -9.874866 0.196060
2.643980 -4.879755 -1.281321
5.346533 -9.871727 0.588361
3.011524 -5.562734 -1.229573
4.968781 -9.181903 0.913392
3.047902 -5.634626 -1.014634
4.173581 -7.715657 1.077081
3.410299 -6.307215 -0.880384
5.326395 -9.855072 1.774280
3.753028 -6.946875 -0.690796
5.317342 -9.846537 2.175223
5.255898 -9.736820 -0.579882
5.208918 -9.653818 2.532499
5.299541 -9.821772 -0.194804
5.202456 -9.645869 2.936561
2.327862 -4.330548 -1.317389
6.363288 -11.842654 0.234665
2.625155 -4.887696 -1.280871
6.366701 -11.853968 0.705175
2.997660 -5.583591 -1.231863
4.908436 -9.146524 0.908163
3.015142 -5.620860 -1.010254
4.184672 -7.804381 1.087318
3.247434 -6.058977 -0.844067
5.308760 -9.904943 1.779912
3.739105 -6.979251 -0.692714
5.273670 -9.847732 2.171407
5.198314 -9.711087 -0.577266
5.165994 -9.654759 2.528000
5.265224 -9.840210 -0.194804
5.159642 -9.646935 2.931385
2.315457 -4.343762 -1.318942
6.011685 -11.277828 0.223077
2.608016 -4.894655 -1.280421
6.208861 -11.657529 0.692195
2.980920 -5.599219 -1.233008
4.932637 -9.269135 0.918622
2.987206 -5.613390 -1.007125
4.112156 -7.730586 1.075131
3.254350 -6.120542 -0.851136
5.611609 -10.558344 1.893796
3.736220 -7.032729 -0.696723
5.688633 -10.707778 2.356873
5.152030 -9.701813 -0.575696
5.115676 -9.637411 2.519002
5.223344 -9.844398 -0.194525
5.106023 -9.627340 2.919997
2.305556 -4.359955 -1.321530
2.595466 -4.912343 -1.282671
6.688593 -12.664608 0.750602
2.956834 -5.598658 -1.230718
3.750351 -7.104155 0.702824
2.965750 -5.620289 -1.006500
6.218943 -11.790286 1.636705
3.256111 -6.175764 -0.857229
5.572876 -10.574373 1.893170
3.594644 -6.823621 -0.674760
6.485729 -12.311693 2.704908
5.109759 -9.703832 -0.574754
5.067482 -9.627619 2.511803
5.170327 -9.827177 -0.193826
5.068790 -9.638265 2.917926
2.286870 -4.363243 -1.319977
2.582825 -4.930005 -1.284920
6.357113 -12.139385 0.718154
2.932652 -5.602500 -1.229192
4.136250 -7.905193 0.780567
2.937806 -5.617118 -1.003996
4.762801 -9.106526 1.261835
3.233614 -6.185333 -0.856985
3.551432 -6.799041 -0.671099
6.440560 -12.335382 2.704908
5.059373 -9.694164 -0.573079
5.024950 -9.632305 2.508204
5.123044 -9.820342 -0.193338
5.019037 -9.625067 2.908609
2.268953 -4.366056 -1.318424
6.534700 -12.579832 0.247440
2.568330 -4.946356 -1.286720
5.951911 -11.467698 0.677123
2.905843 -5.598762 -1.226139
4.033395 -7.774563 0.766273
2.903631 -5.599280 -0.998991
4.772329 -9.206755 1.273291
3.133298 -6.047326 -0.836268
5.522502 -10.663096 1.901931
3.695027 -7.137574 -0.703173
5.015406 -9.692254 -0.571927
4.973390 -9.615169 2.499206
5.077833 -9.821290 -0.192989
4.965987 -9.609074 2.898256
2.255589 -4.379496 -1.319977
6.492579 -12.606122 0.247510
2.545696 -4.944895 -1.284021
5.880773 -11.428024 0.673564
2.877221 -5.593663 -1.222704
4.012161 -7.803469 0.767668
2.872255 -5.588802 -0.995236
4.746514 -9.235716 1.274997
3.203784 -6.236565 -0.860885
5.615183 -10.935352 1.946984
3.694654 -7.198287 -0.707879
6.309109 -12.297308 2.686591
4.967089 -9.685691 -0.570462
4.932781 -9.622928 2.496507
5.027100 -9.806924 -0.192360
4.921843 -9.605719 2.892044
2.248852 -4.400322 -1.324118
2.531058 -4.956781 -1.284920
5.995384 -11.746324 0.691149
2.857848 -5.599177 -1.221941
4.005734 -7.851530 0.771154
2.861862 -5.611876 -0.997739
4.746512 -9.311537 1.283284
3.032582 -5.951777 -0.820181
5.756396 -11.302438 2.008932
3.660820 -7.190968 -0.705962
6.249069 -12.275077 2.677432
4.928484 -9.685227 -0.569520
4.888391 -9.610585 2.489308
4.992738 -9.819977 -0.192291
4.874208 -9.590986 2.882727
2.237073 -4.417152 -1.326707
2.514620 -4.967324 -1.285370
5.553962 -10.975930 0.644674
2.823130 -5.581583 -1.215835
3.948164 -7.809262 0.765576
2.830582 -5.601171 -0.993985
4.706817 -9.313875 1.281334
3.013578 -5.965870 -0.820668
5.335840 -10.567749 1.875024
3.630311 -7.193031 -0.704916
6.205805 -12.301405 2.678195
4.883061 -9.683609 -0.568369
4.838222 -9.598855 2.481660
4.944029 -9.808773 -0.191732
4.838962 -9.604492 2.881691
2.213840 -4.409396 -1.322048
2.496397 -4.976507 -1.285370
5.603220 -11.174751 0.655142
2.807149 -5.598423 -1.217361
4.492229 -8.962957 0.877135
2.802165 -5.593357 -0.990856
5.529494 -11.042142 1.516299
2.976587 -5.946698 -0.816525
5.334194 -10.661432 1.888164
3.602506 -7.200314 -0.704393
6.020567 -12.038535 2.616373
4.835834 -9.673799 -0.566799
4.793362 -9.593022 2.475811
4.900897 -9.812515 -0.191453
4.795098 -9.604879 2.876515
2.199295 -4.418826 -1.322565
2.483349 -4.993916 -1.287620
4.173800 -8.397022 0.491435
2.775356 -5.583575 -1.212019
5.611605 -11.294602 1.103392
2.761537 -5.560642 -0.983347
5.580946 -11.242741 1.541160
2.955811 -5.957052 -0.816525
3.571153 -7.200351 -0.703173
5.948861 -11.999672 2.603398
4.793167 -9.672723 -0.565752
4.757252 -9.604459 2.474462
4.855967 -9.808058 -0.191034
4.751258 -9.600781 2.870303
2.184712 -4.428209 -1.323083
5.751531 -11.662951 0.226986
2.468486 -5.007798 -1.288970
5.512897 -11.183969 0.653467
2.750642 -5.582663 -1.209729
2.735130 -5.556070 -0.980844
3.855415 -7.835238 1.072207
2.999143 -6.095063 -0.834074
8.302448 -16.880238 2.979451
3.546877 -7.214561 -0.703347
5.872303 -11.949884 2.588133
4.744405 -9.658920 -0.563972
4.713347 -9.595692 2.468163
4.819890 -9.816928 -0.190894
4.704076 -9.585267 2.860986
2.176807 -4.449312 -1.327224
2.448443 -5.008952 -1.287170
5.454730 -11.159123 0.650955
2.723495 -5.574114 -1.205913
5.548585 -11.361181 1.106181
2.723623 -5.579310 -0.983347
5.598305 -11.473144 1.567484
2.966727 -6.079999 -0.830662
8.355534 -17.131382 3.018872
4.266809 -8.752130 -0.851860
5.399194 -11.079802 2.395798
4.701854 -9.653053 -0.562716
4.665288 -9.577982 2.459615
4.776805 -9.811282 -0.190476
4.667192 -9.590392 2.857880
2.164571 -4.461720 -1.328777
2.436069 -5.025813 -1.289419
5.407033 -11.160123 0.649908
2.688620 -5.551782 -1.199044
2.699942 -5.577643 -0.981470
5.603457 -11.580992 1.579671
2.969687 -6.140356 -0.837486
4.335697 -8.968818 1.577798
4.055929 -8.393831 -0.815603
5.401470 -11.183437 2.414115
4.656843 -9.646025 -0.561356
4.617424 -9.564375 2.451967
4.721672 -9.784673 -0.189638
4.622776 -9.584005 2.851151
2.148203 -4.469624 -1.328777
2.419319 -5.038221 -1.290319
2.665705 -5.556288 -1.197899
2.665815 -5.559003 -0.976464
3.669848 -7.656134 1.042470
2.936010 -6.127926 -0.834318
4.031159 -8.421221 -0.816824
5.379086 -11.242123 2.422511
4.618010 -9.655820 -0.560937
4.572248 -9.560138 2.446568
4.680602 -9.791088 -0.189428
4.574291 -9.572995 2.842868
2.129315 -4.472234 -1.327224
5.366428 -11.276261 0.217981
2.405022 -5.055853 -1.292569
2.643765 -5.560240 -1.196754
8.112751 -17.070032 1.653519
2.636946 -5.550894 -0.973335
5.065431 -10.667770 1.450002
2.866920 -6.037718 -0.820668
3.973558 -8.375837 -0.811071
5.725072 -12.073284 2.597292
4.574009 -9.650225 -0.559681
4.534675 -9.567236 2.444318
4.625848 -9.763996 -0.188591
4.528446 -9.562713 2.835104
2.116947 -4.484512 -1.328777
8.045986 -17.052214 0.329118
2.384087 -5.054988 -1.290319
8.058768 -17.087034 0.990092
2.611917 -5.540564 -1.190648
2.616840 -5.556034 -0.972710
5.063848 -10.756351 1.459751
2.824898 -6.000495 -0.814331
8.031423 -17.067636 2.987586
3.858416 -8.203267 -0.793117
5.705051 -12.134843 2.606451
4.526693 -9.632803 -0.557797
4.496293 -9.568111 2.440719
4.591744 -9.775661 -0.188521
4.485215 -9.553196 2.827857
2.105340 -4.498506 -1.330848
5.425399 -11.597791 0.223496
2.368137 -5.064631 -1.290769
5.020669 -10.742373 0.621437
2.595193 -5.552752 -1.191411
4.977043 -10.653876 1.028786
2.593387 -5.553942 -0.970832
3.693244 -7.912972 1.072207
2.826595 -6.058892 -0.820912
3.840700 -8.240162 -0.795383
5.442501 -11.676801 2.504177
4.486291 -9.629657 -0.556750
4.448059 -9.551949 2.432621
4.542404 -9.758998 -0.187893
4.440432 -9.544272 2.820610
2.091275 -4.511450 -1.332400
5.310875 -11.457005 0.220424
2.356997 -5.087012 -1.294368
5.355806 -11.564510 0.667912
2.566576 -5.544410 -1.187595
4.932941 -10.661198 1.027740
2.568038 -5.552652 -0.968955
4.907186 -10.610397 1.435377
2.767112 -5.985835 -0.809700
5.156229 -11.159100 1.946984
3.249691 -7.036201 -0.678072
5.411186 -11.721624 2.509520
4.442599 -9.627898 -0.555703
4.408123 -9.557570 2.429921
4.493236 -9.742109 -0.187264
4.394957 -9.533399 2.812846
2.073901 -4.515212 -1.331365
5.338933 -11.629046 0.223356
2.337524 -5.093846 -1.293918
5.260427 -11.463328 0.661003
2.542296 -5.542629 -1.185306
2.540411 -5.543625 -0.965827
5.688323 -12.418646 1.677166
2.682350 -5.858763 -0.791176
5.128756 -11.202176 1.951364
3.218478 -7.033009 -0.676677
5.340839 -11.676169 2.495782
4.397336 -9.617919 -0.554238
4.360155 -9.540995 2.421823
4.445904 -9.728634 -0.186706
4.348811 -9.520565 2.804563
2.061329 -4.529457 -1.333436
5.325189 -11.701290 0.224403
2.330302 -5.122856 -1.299317
4.982302 -10.957994 0.630858
2.519684 -5.544319 -1.183779
4.888056 -10.760680 1.034016
2.510576 -5.526840 -0.961446
5.304064 -11.681903 1.575283
2.653884 -5.847742 -0.788495
5.285471 -11.651756 2.026452
3.911345 -8.626514 -0.828677
5.368568 -11.840435 2.527074
4.358823 -9.617895 -0.553400
4.326883 -9.551851 2.420923
4.408618 -9.736806 -0.186566
4.309974 -9.523369 2.800940
2.047092 -4.538028 -1.333953
5.258008 -11.661472 0.223286
2.300395 -5.104308 -1.292569
5.004723 -11.110074 0.638603
2.496446 -5.541904 -1.181489
4.817989 -10.700527 1.026695
2.504240 -5.564391 -0.966452
5.297457 -11.776382 1.585520
2.633455 -5.856970 -0.788495
5.144359 -11.446713 1.987656
3.843654 -8.556513 -0.820658
4.313771 -9.607543 -0.551935
4.282344 -9.542006 2.414624
4.364782 -9.730242 -0.186147
4.268802 -9.520726 2.795763
2.035173 -4.556084 -1.337059
5.271099 -11.800260 0.225590
2.290509 -5.130101 -1.297068
4.879633 -10.934145 0.627508
2.472918 -5.543846 -1.179963
4.794964 -10.754510 1.030181
2.565845 -5.757572 -0.998365
5.185211 -11.635241 1.564071
2.722038 -6.110926 -0.821399
5.577332 -12.538667 2.667510
4.268791 -9.601388 -0.550679
4.236263 -9.532706 2.408326
4.322670 -9.727145 -0.185798
4.232406 -9.528508 2.793693
2.018475 -4.561393 -1.336542
2.272479 -5.140245 -1.297518
5.198386 -11.758516 0.673773
2.442442 -5.527303 -1.174620
5.203351 -11.780866 1.126749
2.564081 -5.808057 -1.005561
5.113681 -11.588787 1.555297
2.760504 -6.258899 -0.839924
5.166356 -11.713696 2.027704
3.808741 -8.639654 -0.826062
5.318204 -12.069391 2.563710
4.228811 -9.601607 -0.549842
4.191969 -9.522466 2.402027
4.274187 -9.709231 -0.185170
4.192117 -9.527309 2.789034
2.000989 -4.564873 -1.335506
2.260113 -5.158462 -1.300217
5.099622 -11.644865 0.666237
2.413686 -5.514214 -1.170041
2.537681 -5.800240 -1.002745
4.986142 -11.401978 1.527998
2.717472 -6.217089 -0.833099
5.571469 -12.752588 2.204162
3.749855 -8.587164 -0.819787
5.276580 -12.083362 2.562947
4.190556 -9.600935 -0.549004
4.155693 -9.525598 2.399328
4.240270 -9.724091 -0.185170
4.151888 -9.525946 2.784375
1.987380 -4.575027 -1.336542
2.245195 -5.173470 -1.302017
5.118227 -11.793628 0.673773
2.393825 -5.518585 -1.169278
4.985138 -11.497943 1.096419
2.513490 -5.800001 -1.001181
4.476060 -10.333667 1.382730
2.717838 -6.277544 -0.839924
3.704741 -8.561152 -0.816126
5.154871 -11.917911 2.524022
4.149091 -9.597171 -0.547957
4.113142 -9.518579 2.393929
4.198481 -9.716071 -0.184751
4.111084 -9.518379 2.778164
1.975216 -4.590809 -1.339130
2.221869 -5.166566 -1.298417
5.028129 -11.697656 0.667284
2.374547 -5.526907 -1.169278
2.490346 -5.799229 -0.999616
2.700136 -6.293819 -0.840899
3.779226 -8.817591 -0.839310
5.116869 -11.938547 2.524785
4.104658 -9.581504 -0.546283
4.075418 -9.517835 2.390330
4.167687 -9.738021 -0.184891
4.073275 -9.522016 2.775058
1.959224 -4.595557 -1.338612
2.203820 -5.174290 -1.298417
5.322098 -12.501658 0.712083
2.348516 -5.516687 -1.165461
4.790525 -11.258443 1.070447
2.640888 -6.215509 -0.829199
3.755429 -8.847237 -0.840879
5.073629 -11.952723 2.524022
4.061826 -9.573709 -0.545027
4.036083 -9.517650 2.386731
4.124305 -9.730416 -0.184472
4.030969 -9.514831 2.768846
1.949127 -4.618726 -1.343271
2.191805 -5.196315 -1.302017
4.592532 -10.893257 0.619553
2.320657 -5.507166 -1.161645
4.981239 -11.826777 1.122740
2.912482 -6.918379 -1.188902
4.394061 -10.437757 1.390529
2.613787 -6.211883 -0.827493
3.621837 -8.616009 -0.817695
4.988722 -11.873499 2.503414
4.021296 -9.575643 -0.544294
3.986842 -9.498239 2.378183
4.084124 -9.730002 -0.184193
3.991753 -9.514591 2.764705
1.926289 -4.609459 -1.338612
5.024379 -12.028853 0.227544
2.174246 -5.207911 -1.302917
5.220196 -12.509930 0.710408
2.296127 -5.502550 -1.158974
2.894396 -6.943089 -1.191405
4.395477 -10.549076 1.403204
3.488503 -8.376470 -1.114130
3.595591 -8.642103 -0.818915
3.982479 -9.576712 -0.543561
3.950670 -9.504899 2.376383
4.037693 -9.719052 -0.183704
3.945000 -9.500611 2.756423
1.910858 -4.620059 -1.339647
7.204895 -17.419947 0.329048
2.162009 -5.229876 -1.306516
4.668532 -11.298711 0.640697
2.269948 -5.496412 -1.155921
2.410110 -5.841578 -1.000868
4.958251 -12.017711 1.596245
3.463784 -8.399606 -1.115592
3.593482 -8.722762 -0.825365
3.936710 -9.565387 -0.542096
3.909134 -9.503096 2.372334
4.017436 -9.766375 -0.184332
3.894915 -9.473229 2.744517
1.898456 -4.633521 -1.341718
5.190365 -12.674313 0.239063
2.137835 -5.222963 -1.302917
5.157620 -12.600626 0.713548
2.254683 -5.511178 -1.157447
2.419873 -5.920852 -1.013070
4.790156 -11.726215 1.555297
3.452450 -8.455754 -1.121442
3.583357 -8.780747 -0.829723
3.895920 -9.556195 -0.540840
3.869510 -9.496155 2.367385
3.960880 -9.720385 -0.183215
3.855466 -9.466413 2.738823
1.884449 -4.645490 -1.343271
7.074129 -17.438936 0.328489
2.121967 -5.233635 -1.303816
2.228798 -5.502638 -1.154013
2.372056 -5.859265 -1.001181
4.725927 -11.679469 1.547010
3.428857 -8.478197 -1.122904
3.562387 -8.817217 -0.831989
3.857478 -9.552395 -0.539898
3.824871 -9.476407 2.359287
3.932911 -9.748987 -0.183495
3.815895 -9.463688 2.734164
1.871915 -4.658884 -1.345341
7.063887 -17.589706 0.330863
2.110945 -5.259095 -1.308315
4.913357 -12.247060 0.691567
2.206883 -5.500888 -1.152105
4.961533 -12.373392 1.166318
2.353795 -5.873010 -1.002119
4.720561 -11.784348 1.558709
2.504238 -6.254710 -0.827249
4.913539 -12.278504 2.094658
3.535350 -8.834531 -0.832512
7.062690 -17.657986 3.696734
3.820405 -9.556528 -0.539374
3.785259 -9.473413 2.355237
3.812825 -9.547235 -0.179446
3.778541 -9.466185 2.731059
1.852071 -4.656414 -1.342753
3.800778 -9.560646 0.179585
2.094733 -5.271865 -1.309665
4.895642 -12.327247 0.695126
2.180422 -5.490311 -1.148289
5.110899 -12.875816 1.211988
2.355133 -5.936275 -1.011505
2.455329 -6.195132 -0.818231
4.859007 -12.266197 2.089652
3.513295 -8.869047 -0.834603
3.780409 -9.553091 -0.538432
3.751452 -9.484757 2.354788
3.772123 -9.541889 -0.179097
3.736956 -9.457757 2.724847
1.835806 -4.662851 -1.342753
3.751274 -9.532916 0.178817
2.079171 -5.286399 -1.311465
3.753608 -9.548633 0.537700
2.161244 -5.497889 -1.148289
3.747165 -9.537131 0.896484
2.332232 -5.938944 -1.010567
3.750433 -9.555245 1.260373
3.379035 -8.613430 -1.136066
3.748948 -9.561274 1.626606
2.781925 -7.094988 -0.666741
3.744125 -9.558791 -0.538014
3.711218 -9.479649 2.350289
3.734421 -9.543826 -0.178887
3.699697 -9.459949 2.721741
1.825130 -4.683631 -1.346894
3.707087 -9.518003 0.178294
2.057878 -5.286360 -1.309665
3.715185 -9.548648 0.536967
2.136344 -5.490763 -1.145236
3.715296 -9.553868 0.896833
2.320790 -5.970985 -1.014634
3.704117 -9.534971 1.255986
2.462314 -6.341657 -0.835293
3.702686 -9.541154 1.620974
3.706463 -9.550886 -0.896310
3.696768 -9.530834 1.987085
3.690522 -9.519659 -0.535083
3.673879 -9.481643 2.347589
3.695306 -9.541885 -0.178608
3.658983 -9.452988 2.716047
1.808075 -4.688170 -1.346377
3.670964 -9.523421 0.178154
2.039412 -5.293512 -1.309665
3.672502 -9.537327 0.535606
2.114343 -5.490858 -1.143709
3.674768 -9.548182 0.895089
2.297805 -5.973518 -1.013695
3.670098 -9.545990 1.255742
2.434467 -6.335389 -0.833343
3.660860 -9.531893 1.617220
3.675959 -9.571207 -0.897007
3.657848 -9.529017 1.984032
3.650829 -9.515701 -0.534141
3.631690 -9.470755 2.341741
3.655537 -9.537921 -0.178294
3.626653 -9.467505 2.716565
1.795143 -4.703477 -1.348965
3.636986 -9.534308 0.178119
2.027170 -5.316986 -1.313714
3.632076 -9.531425 0.534560
2.088173 -5.479859 -1.139893
3.631488 -9.534886 0.892649
2.280454 -5.990733 -1.015260
3.624049 -9.525346 1.251355
2.350246 -6.180568 -0.811894
3.620548 -9.526148 1.614091
3.621292 -9.528107 -0.891778
3.618288 -9.525209 1.980597
3.615465 -9.522786 -0.533827
3.591003 -9.463332 2.336792
3.608747 -9.515098 -0.177631
3.587422 -9.463851 2.711906
1.773936 -4.697064 -1.345341
3.596621 -9.528238 0.177770
2.014789 -5.340439 -1.317763
3.592440 -9.527226 0.533617
2.067646 -5.483441 -1.139130
3.588346 -9.521403 0.890209
2.251172 -5.976474 -1.011505
3.587280 -9.528649 1.250136
2.358719 -6.268624 -0.822374
3.578928 -9.516541 1.610337
3.578892 -9.516446 -0.889511
3.579490 -9.523080 1.977545
3.575180 -9.516650 -0.532780
3.557948 -9.475809 2.336792
3.565675 -9.501427 -0.177142
3.545546 -9.452801 2.705177
1.759558 -4.708657 -1.346894
3.557743 -9.525747 0.177491
1.996817 -5.349266 -1.318213
3.554275 -9.526609 0.532885
2.047120 -5.486946 -1.138366
3.547432 -9.513335 0.888291
2.208911 -5.926915 -1.001806
3.549146 -9.528092 1.248430
2.328511 -6.254496 -0.819450
3.540177 -9.514164 1.607834
3.540789 -9.515810 -0.888291
3.531857 -9.496874 1.969531
3.539154 -9.521585 -0.532361
3.510599 -9.449809 2.327344
3.529703 -9.506315 -0.177002
3.502445 -9.437952 2.697412
1.747801 -4.727454 -1.350518
3.511993 -9.504347 0.176863
1.974082 -5.345234 -1.315514
3.519617 -9.535211 0.532675
2.025236 -5.486691 -1.136840
3.510754 -9.516315 0.887420
2.138321 -5.799291 -0.978967
3.508314 -9.519933 1.245749
3.214375 -8.727013 -1.141916
3.502168 -9.513488 1.605644
3.504109 -9.518763 -0.887420
3.492584 -9.492563 1.966096
3.493489 -9.500139 -0.530477
3.473558 -9.451031 2.324644
3.489602 -9.499809 -0.176653
3.466816 -9.442865 2.695342
1.731288 -4.733526 -1.350518
3.473303 -9.501521 0.176583
1.958086 -5.359415 -1.317313
3.473294 -9.511792 0.530687
2.004725 -5.490039 -1.136077
3.472733 -9.515409 0.886200
2.103850 -5.767748 -0.972397
3.468263 -9.513473 1.243311
3.186611 -8.745639 -1.142891
3.463530 -9.510805 1.603141
3.464725 -9.514087 -0.885851
3.460770 -9.508387 1.966859
3.452112 -9.489752 -0.529221
3.431224 -9.437459 2.318346
3.450958 -9.496896 -0.176374
3.431854 -9.449464 2.693789
1.718698 -4.750440 -1.353624
3.436037 -9.502305 0.176374
1.943340 -5.377213 -1.320013
3.436678 -9.514467 0.530163
1.974210 -5.465613 -1.129589
3.434760 -9.514356 0.884979
2.099124 -5.817793 -0.979593
3.429647 -9.510582 1.241361
3.162793 -8.775385 -1.145328
3.422277 -9.500535 1.599386
3.426768 -9.513001 -0.884631
3.416919 -9.490853 1.960753
3.415584 -9.492349 -0.528698
3.391665 -9.431040 2.313847
3.412376 -9.493830 -0.176095
3.391011 -9.439568 2.687577
1.701455 -4.754592 -1.353106
3.397458 -9.499178 0.176095
1.925214 -5.385799 -1.320463
3.398070 -9.511358 0.529326
1.955119 -5.472471 -1.129589
3.392819 -9.501894 0.882713
2.070836 -5.802761 -0.975838
3.389092 -9.501928 1.238680
2.172303 -6.093803 -0.794344
3.380475 -9.488234 1.595319
3.385516 -9.502384 -0.882539
3.379816 -9.491627 1.958464
3.380421 -9.498568 -0.528384
3.354154 -9.429970 2.310697
3.375195 -9.494378 -0.175885
3.346399 -9.418580 2.678260
1.686781 -4.765965 -1.354659
3.359611 -9.497782 0.175850
1.909001 -5.399836 -1.322262
3.360190 -9.509980 0.528593
1.936005 -5.479262 -1.129589
3.352334 -9.493014 0.880796
2.080810 -5.895640 -0.990230
3.351280 -9.500596 1.236974
2.173460 -6.165002 -0.802632
3.344051 -9.490660 1.593755
3.345705 -9.495353 -0.880796
3.337534 -9.477440 1.953121
3.345916 -9.506541 -0.528175
3.317983 -9.432428 2.308448
3.338055 -9.494783 -0.175676
3.305816 -9.408333 2.672048
1.676516 -4.790059 -1.359835
3.318513 -9.486801 0.175432
1.887568 -5.399108 -1.320463
3.322363 -9.508452 0.527861
1.912982 -5.474866 -1.127300
3.317861 -9.500896 0.880447
1.991869 -5.707038 -0.957379
3.308291 -9.484121 1.233318
2.220542 -6.369369 -0.828224
3.305702 -9.487352 1.591252
3.309261 -9.497566 -0.879924
3.305078 -9.490888 1.953503
3.302209 -9.487983 -0.526500
3.280555 -9.431069 2.305298
3.299637 -9.491266 -0.175397
3.268517 -9.407041 2.668424
1.661049 -4.799533 -1.360871
3.283417 -9.492659 0.175327
1.871257 -5.413031 -1.322262
3.281677 -9.492990 0.526395
1.891294 -5.474088 -1.125773
3.279475 -9.497354 0.879053
1.957115 -5.671009 -0.950183
3.269337 -9.478722 1.231124
2.155598 -6.253218 -0.812137
3.269717 -9.485188 1.589062
3.267003 -9.482687 -0.877484
3.264257 -9.480091 1.948923
3.262570 -9.480567 -0.525453
3.237474 -9.412979 2.298100
3.263592 -9.488919 -0.175152
3.231024 -9.399559 2.663248
0.390901 -1.142379 -0.323524
3.246741 -9.488358 0.175048
1.856450 -5.428427 -1.324512
3.242061 -9.485489 0.525348
1.864559 -5.458363 -1.121194
3.237934 -9.484231 0.876787
3.234041 -9.478238 1.229662
2.098329 -6.153237 -0.798244
3.227028 -9.468498 1.584368
3.232597 -9.490260 -0.877135
3.227739 -9.475996 1.945870
3.227252 -9.479989 -0.524825
3.203102 -9.414438 2.295851
3.218862 -9.466175 -0.174524
3.193843 -9.397975 2.659625
0.382156 -1.129030 -0.319383
3.211038 -9.492057 0.174908
1.840610 -5.444104 -1.326761
3.202537 -9.477827 0.524302
1.843934 -5.457076 -1.119667
3.198817 -9.472263 0.874695
1.957633 -5.800241 -0.969581
3.195226 -9.472542 1.227468
2.123131 -6.297843 -0.816037
3.190174 -9.468473 1.582491
3.190294 -9.468831 -0.874172
3.188376 -9.468599 1.942054
3.188406 -9.474160 -0.523883
3.165251 -9.410785 2.292251
3.181977 -9.465981 -0.174315
3.153019 -9.385262 2.652895
0.380664 -1.137685 -0.321453
3.167103 -9.470968 0.174315
1.821595 -5.450496 -1.326761
3.166271 -9.479476 0.523778
1.824875 -5.463480 -1.119667
3.161315 -9.470144 0.873475
1.947378 -5.837020 -0.974587
3.159630 -9.476104 1.226493
2.059086 -6.179036 -0.799707
3.153358 -9.468307 1.580614
3.150926 -9.461006 -0.872429
3.139804 -9.433102 1.932514
3.150904 -9.471966 -0.523150
3.128078 -9.408833 2.289102
3.145763 -9.467543 -0.174140
3.114761 -9.379708 2.648237
0.374264 -1.131670 -0.319383
3.128376 -9.464877 0.174000
1.801336 -5.453120 -1.325861
3.128779 -9.477194 0.523046
1.805792 -5.469816 -1.119667
3.123246 -9.465984 0.872080
1.945549 -5.900063 -0.983973
3.118455 -9.462566 1.223325
2.056135 -6.242749 -0.807019
3.114111 -9.460493 1.577485
3.114361 -9.466815 -0.871906
3.103176 -9.432815 1.930224
3.105346 -9.444961 -0.521057
3.092783 -9.412289 2.287302
3.108328 -9.465166 -0.173896
3.077783 -9.377676 2.644613
0.367714 -1.125689 -0.317312
3.090352 -9.460532 0.173721
1.779871 -5.451964 -1.324062
3.089483 -9.469071 0.521999
1.783298 -5.468932 -1.118141
3.088530 -9.477368 0.872080
1.932476 -5.933450 -0.988353
3.078644 -9.452632 1.220644
2.026957 -6.227238 -0.804094
3.081070 -9.471306 1.577485
3.077602 -9.466259 -0.870860
3.072222 -9.455328 1.932514
3.067622 -9.446780 -0.520533
3.045633 -9.384635 2.277854
3.069097 -9.456938 -0.173547
3.047414 -9.395713 2.646684
0.363783 -1.126966 -0.317312
3.049517 -9.452765 0.173372
1.761671 -5.464015 -1.325412
3.048630 -9.461320 0.520952
1.756971 -5.452700 -1.113561
3.050544 -9.472920 0.870686
1.914173 -5.947681 -0.989605
3.041546 -9.456293 1.219669
2.019307 -6.281870 -0.810187
3.036668 -9.452443 1.572479
3.039840 -9.467990 -0.869989
3.029596 -9.436086 1.926408
3.034629 -9.457430 -0.520533
3.010474 -9.387787 2.276055
3.028923 -9.450985 -0.173233
3.008832 -9.393941 2.643060
0.358476 -1.124610 -0.316277
3.011643 -9.448110 0.173093
1.741403 -5.466419 -1.324512
3.011345 -9.458583 0.520219
1.734593 -5.451619 -1.112035
3.009765 -9.465049 0.868943
1.901335 -5.982895 -0.994298
3.003710 -9.451717 1.217719
2.006981 -6.319153 -0.814087
2.996483 -9.440392 1.568725
2.999542 -9.455753 -0.867897
2.993211 -9.441512 1.925263
2.995722 -9.455161 -0.519801
2.971339 -9.383895 2.272455
2.990480 -9.444344 -0.172918
2.967280 -9.376758 2.635296
0.346809 -1.099936 -0.309030
2.974886 -9.440880 0.172779
1.720925 -5.464728 -1.322712
2.976964 -9.458990 0.519696
1.718637 -5.460787 -1.112798
2.973439 -9.453552 0.867025
1.919256 -6.105676 -1.013695
2.967591 -9.446475 1.215769
1.972339 -6.282213 -0.808481
2.964568 -9.448391 1.568412
2.957074 -9.430264 1.921065
2.967197 -9.468338 -0.520010
2.938351 -9.382026 2.269756
2.958549 -9.452298 -0.172884
2.933862 -9.379171 2.633225
0.339520 -1.090074 -0.305924
2.937753 -9.437841 0.172534
1.693735 -5.444651 -1.316414
2.940963 -9.459787 0.519173
1.699564 -5.466753 -1.112798
2.934511 -9.444847 0.865282
1.968225 -6.338722 -1.051240
2.928125 -9.435922 1.213088
1.938638 -6.251139 -0.803607
2.925723 -9.439814 1.565283
2.110412 -6.809223 -0.623686
2.922394 -9.434901 1.919920
2.102557 -6.792261 -0.372632
2.900400 -9.375471 2.265707
2.107472 -6.816565 -0.124540
2.895972 -9.372744 2.628566
0.334577 -1.087559 -0.304889
1.675292 -5.452393 -1.316863
2.897958 -9.437539 0.517393
1.678166 -5.465146 -1.111272
2.899772 -9.449318 0.864759
1.947246 -6.349331 -1.051865
2.892844 -9.438494 1.212113
1.887737 -6.162966 -0.791420
2.887550 -9.432970 1.562468
2.080798 -6.797497 -0.621943
2.883700 -9.426271 1.916104
2.071826 -6.776639 -0.371376
2.861961 -9.366900 2.261208
2.074906 -6.795192 -0.124017
2.861546 -9.377253 2.627013
0.326286 -1.073933 -0.300748
2.060743 -6.786962 0.123807
1.653986 -5.450748 -1.315064
2.061662 -6.798523 0.372318
1.653382 -5.452182 -1.107455
2.062963 -6.807095 0.622292
2.052759 -6.777686 -1.121635
2.066268 -6.826580 0.875753
1.890352 -6.249321 -0.801657
2.053022 -6.791369 -0.620723
2.047582 -6.781918 -0.371271
2.825871 -9.365641 2.258509
2.042513 -6.773675 -0.123493
2.823222 -9.368686 2.621837
2.031871 -6.776875 0.123493
1.634390 -5.454622 -1.314614
2.028751 -6.775066 0.370643
1.629271 -5.440994 -1.104021
2.028337 -6.777987 0.618980
2.016071 -6.741281 -1.114439
2.031625 -6.797614 0.871122
1.915680 -6.413752 -0.821887
2.024406 -6.782085 1.121009
2.082792 -6.982136 -0.637457
2.029326 -6.802901 1.379931
2.020472 -6.777539 -0.370643
2.025876 -6.800000 1.638094
2.014292 -6.765431 -0.123214
2.022494 -6.797318 1.900250
2.003662 -6.768587 0.123214
1.616445 -5.464031 -1.315514
2.005090 -6.782106 0.370643
1.610987 -5.452577 -1.105166
2.002917 -6.783466 0.618806
2.006444 -6.799780 -1.122887
2.001705 -6.783721 0.868441
2.063967 -6.999226 -0.895983
1.996252 -6.773952 1.118507
2.061222 -6.998920 -0.638329
1.991075 -6.765092 1.370772
1.994491 -6.781067 -0.370434
1.992696 -6.779335 1.631345
1.995175 -6.787769 -0.123493
1.997666 -6.800630 1.899214
1.979961 -6.779724 0.123284
1.590403 -5.449341 -1.310565
1.980844 -6.787147 0.370539
1.593593 -5.463821 -1.106311
1.977553 -6.784678 0.618283
1.976066 -6.783983 -1.119132
1.970170 -6.768139 0.865516
2.029428 -6.976246 -0.892084
1.967629 -6.763808 1.115691
2.028435 -6.977375 -0.635714
1.966353 -6.768229 1.370009
1.967467 -6.776479 -0.369806
1.967933 -6.782506 1.630445
1.971469 -6.794692 -0.123493
1.972301 -6.801995 1.897661
1.571244 -5.450840 -1.309665
1.571796 -5.459917 -1.104403
1.952206 -6.785795 0.617760
1.965029 -6.830365 -1.125703
1.947715 -6.774636 0.865516
1.991482 -6.931424 -0.885503
1.942371 -6.764939 1.114752
1.952414 -6.804392 -0.619329
1.942273 -6.769052 1.368864
1.948288 -6.794486 -0.370434
1.939525 -6.768388 1.625496
1.947189 -6.799610 -0.123458
1.934726 -6.760549 1.884203
1.931578 -6.785350 0.123144
1.547408 -5.439423 -1.305616
1.926859 -6.777756 0.369283
1.548313 -5.446215 -1.100586
1.925881 -6.778816 0.616540
1.968149 -6.932197 -1.141346
1.921347 -6.771845 0.864297
1.955903 -6.898228 -0.880384
1.915514 -6.760275 1.112875
1.935270 -6.829999 -0.621072
1.915959 -6.766346 1.366956
1.929997 -6.820463 -0.371481
1.910585 -6.756365 1.620997
1.924529 -6.810215 -0.123528
1.911116 -6.767261 1.884203
1.913829 -6.813229 0.123528
1.528938 -5.446667 -1.306066
1.909122 -6.805595 0.370434
1.527701 -5.445916 -1.099441
1.902745 -6.787416 0.616714
1.945538 -6.944730 -1.142285
1.875219 -6.698224 0.854060
1.923790 -6.876338 -0.876728
1.895096 -6.778335 1.114752
1.913563 -6.844388 -0.621769
1.888101 -6.757866 1.363903
1.912622 -6.850243 -0.372737
1.888561 -6.768624 1.622347
1.904505 -6.830374 -0.123772
1.883333 -6.759003 1.880062
1.889501 -6.817941 0.123493
1.510957 -5.455727 -1.306966
1.888551 -6.823766 0.371062
1.508683 -5.451216 -1.099441
1.881165 -6.801697 0.617411
1.922864 -6.957191 -1.143223
1.863454 -6.746824 0.859423
2.146952 -7.778548 -0.990798
1.875100 -6.798239 1.116942
2.389225 -8.662216 -0.786145
1.863458 -6.760630 1.363140
1.900898 -6.901165 -0.375144
1.866474 -6.780812 1.623697
1.889668 -6.869758 -0.124366
1.858704 -6.761810 1.879026
1.875710 -6.861144 0.124156
1.485740 -5.438410 -1.301567
1.869981 -6.849585 0.372109
1.491714 -5.464025 -1.100968
1.866326 -6.840899 0.620375
1.894929 -6.950520 -1.141033
1.859198 -6.824153 0.868441
2.112486 -7.759180 -0.987386
1.854470 -6.816179 1.118819
1.844998 -6.786038 1.366956
2.554936 -9.403726 -0.510694
1.848410 -6.807973 1.628646
2.544293 -9.377491 -0.169602
1.837112 -6.775715 1.881097
2.532164 -9.391130 0.169777
1.469790 -5.454852 -1.304266
1.853492 -6.878890 0.373365
1.470589 -5.461615 -1.099441
1.791185 -6.656900 0.603118
1.872708 -6.964723 -1.142285
1.784885 -6.642727 0.844555
2.053261 -7.641532 -0.971543
1.841590 -6.858540 1.124764
2.303394 -8.584394 -0.777604
1.831468 -6.830362 1.374588
2.515375 -9.387507 -0.509334
1.615501 -6.029130 1.441036
2.515768 -9.395535 -0.169777
1.821624 -6.807898 1.888344
2.502035 -9.403340 0.169847
1.459705 -5.489830 -1.311465
2.497348 -9.392320 0.509334
1.451462 -5.462667 -1.098678
2.494635 -9.395322 0.850466
1.927619 -7.264928 -1.190466
2.489352 -9.388641 1.192613
2.034014 -7.671325 -0.974467
2.484647 -9.377495 1.536500
2.259106 -8.532277 -0.772200
1.819353 -6.876255 1.382602
2.479127 -9.376488 -0.508287
1.811188 -6.850226 1.635844
2.477957 -9.378693 -0.169323
1.808408 -6.849390 1.898179
2.465761 -9.392244 0.169498
1.443470 -5.502180 -1.313264
2.460495 -9.385524 0.508496
1.427409 -5.448709 -1.094862
2.460436 -9.391978 0.849420
1.984560 -7.580860 -1.241151
2.456699 -9.391084 1.191882
2.035340 -7.785929 -0.988117
2.449901 -9.378465 1.535248
2.160366 -8.276004 -0.748319
2.451930 -9.399648 1.888246
2.443861 -9.375422 -0.507764
2.430699 -9.324925 2.224766
2.440668 -9.369869 -0.169009
1.791788 -6.883704 1.905944
2.425312 -9.377987 0.169079
2.425581 -9.392545 0.508392
1.403504 -5.438696 -1.091809
1.674251 -6.487860 0.586210
1.956761 -7.588083 -1.241151
2.423254 -9.403870 1.192370
2.067676 -8.029789 -1.018097
2.412556 -9.375903 1.533371
2.135475 -8.305093 -0.750237
2.408667 -9.374345 1.881377
2.408987 -9.382380 -0.507659
1.501390 -5.847528 1.393797
2.407303 -9.382626 -0.169079
2.384022 -9.298621 2.572144
2.387963 -9.375186 0.168869
1.620311 -6.366016 0.344266
1.389351 -5.462588 -1.095625
1.618070 -6.366507 0.574705
1.935743 -7.622007 -1.245531
2.383399 -9.391522 1.189689
1.991293 -7.846471 -0.993966
2.377386 -9.374694 1.531806
2.104026 -8.302839 -0.749365
2.371592 -9.365567 1.877942
2.370342 -9.367498 -0.506403
2.360564 -9.328856 2.221617
2.371106 -9.377400 -0.168835
2.350602 -9.303140 2.571108
2.355886 -9.379175 0.168800
2.356243 -9.387528 0.507240
1.369318 -5.459548 -1.094099
2.354979 -9.396383 0.847502
1.910458 -7.628385 -1.245531
2.347423 -9.380118 1.187251
1.990804 -7.955095 -1.006885
2.346764 -9.384443 1.532119
2.091937 -8.371627 -0.754943
2.336242 -9.356237 1.874508
2.334913 -9.357865 -0.505461
2.325369 -9.319615 2.217567
2.338061 -9.377450 -0.168695
2.316470 -9.297763 2.567485
2.322848 -9.379170 0.168660
2.318186 -9.374369 0.506089
1.353091 -5.471683 -1.095625
2.317594 -9.378996 0.845236
1.880415 -7.615501 -1.242403
2.312025 -9.370505 1.185058
1.961121 -7.954286 -1.005910
2.308322 -9.369560 1.528365
2.045101 -8.301135 -0.747971
2.305672 -9.365839 1.874889
2.302914 -9.361679 -0.505251
2.287242 -9.304967 2.212169
2.297205 -9.352542 -0.168102
2.283079 -9.302040 2.566450
2.286776 -9.373623 0.168416
1.571690 -6.452221 0.348034
1.332590 -5.470650 -1.094480
2.278714 -9.361863 0.842970
1.857088 -7.635454 -1.244593
2.275083 -9.361158 1.182864
1.939434 -7.986161 -1.009078
2.272341 -9.364123 1.526175
2.024569 -8.343074 -0.751108
2.268801 -9.356660 1.871455
2.267870 -9.359954 -0.504728
2.251537 -9.299636 2.209019
2.262663 -9.352729 -0.167962
1.525666 -6.311164 1.739782
2.249371 -9.362103 0.168067
2.247094 -9.367019 0.504833
1.317149 -5.490541 -1.097533
2.244164 -9.362009 0.842273
1.828583 -7.634206 -1.243341
2.243315 -9.372903 1.183351
1.948484 -8.147333 -1.028577
2.235049 -9.352785 1.523046
1.997286 -8.357842 -0.751805
2.230654 -9.341607 1.866875
2.233330 -9.360044 -0.504309
2.217705 -9.301751 2.207669
2.228612 -9.354733 -0.167857
2.210926 -9.287683 2.558168
2.212075 -9.350439 0.167718
2.211628 -9.363142 0.504205
1.325054 -5.609746 -1.120430
1.617869 -6.854759 0.616191
2.201934 -9.343966 1.178720
1.900012 -8.069066 -1.017853
2.203294 -9.364377 1.523672
1.934333 -8.221246 -0.738906
2.200729 -9.360804 1.869165
2.195619 -9.346394 -0.503158
2.185668 -9.311335 2.208120
2.193662 -9.352722 -0.167683
2.176288 -9.285939 2.555579
