# This PCD file was generated using the MATLAB® pcwrite function
# from Computer Vision Toolbox®.
# .PCD v.7 - Point Cloud Data file format
VERSION .7
FIELDS x y z
SIZE 4 4 4
TYPE F F F
COUNT 1 1 1
WIDTH 1577
HEIGHT 1
VIEWPOINT 0 0 0 1 0 0 0
POINTS 1577
DATA ascii
-11.635347 -7.689596 1.220180
-9.605649 -6.345792 -1.823400
-11.544057 -7.623471 1.698615
-11.770694 -7.770193 -1.731764
-11.559452 -7.627845 2.193524
-11.678644 -7.703572 -1.224015
-11.573419 -7.634162 2.694986
-11.673520 -7.697269 -0.732808
-11.534431 -7.602669 3.189356
-11.685439 -7.699277 -0.244264
-11.546809 -7.605048 3.704736
-1.014120 -0.665899 -0.325077
-11.712563 -7.690792 0.244578
-6.602924 -4.334011 -1.823453
-11.685944 -7.667478 0.732494
-7.838899 -5.141366 -1.822226
-11.710109 -7.677483 1.225061
-9.670145 -6.337615 -1.831222
-11.630366 -7.622303 1.707390
-11.857525 -7.768217 -1.740538
-11.619059 -7.609093 2.199782
-11.762140 -7.699862 -1.229942
-11.644032 -7.619642 2.704908
-11.768511 -7.698165 -0.736995
-11.627460 -7.603002 3.207352
-11.750738 -7.683611 -0.245067
-11.612095 -7.590062 3.717159
-1.009964 -0.658136 -0.323006
-11.787588 -7.678372 0.245555
-6.622030 -4.311909 -1.824353
-11.769544 -7.663692 0.736053
-7.865027 -5.119325 -1.824134
-11.773577 -7.660465 1.228896
-9.717049 -6.319977 -1.835915
-11.708156 -7.612083 1.714702
-11.977462 -7.784200 -1.753944
-11.695238 -7.600781 2.209168
-11.834055 -7.688066 -1.234648
-11.700197 -7.598197 2.711778
-11.832166 -7.680963 -0.739298
-11.719317 -7.604799 3.225348
-11.824457 -7.673026 -0.246044
-11.683899 -7.578918 3.731653
-1.020366 -0.659852 -0.325594
-11.846569 -7.660959 0.246253
-6.649385 -4.298389 -1.827952
-11.848225 -7.656166 0.739298
-7.892744 -5.098231 -1.826424
-11.865521 -7.661473 1.235694
-9.776121 -6.312364 -1.843111
-11.786706 -7.607664 1.722502
-12.036571 -7.765962 -1.758819
-11.778140 -7.596316 2.219805
-11.899336 -7.671538 -1.238657
-11.774831 -7.591269 2.723226
-11.914652 -7.678468 -0.742857
-11.767406 -7.580673 3.231647
-11.901607 -7.664183 -0.247091
-11.762263 -7.571548 3.748218
-1.020923 -0.655421 -0.325077
-11.927094 -7.654120 0.247370
-6.664349 -4.275152 -1.827952
-11.921957 -7.644946 0.742229
-7.924481 -5.081567 -1.829858
-11.934475 -7.650038 1.240226
-9.833024 -6.300580 -1.849681
-11.846622 -7.587886 1.727376
-12.048558 -7.714268 -1.756625
-11.851170 -7.584972 2.228566
-11.981765 -7.668555 -1.244584
-11.892216 -7.608313 2.744215
-11.980080 -7.661583 -0.745264
-11.869326 -7.587831 3.252342
-11.994004 -7.664587 -0.248452
-11.840717 -7.563725 3.764782
-1.034610 -0.659119 -0.328700
-12.009400 -7.647887 0.248522
-6.682520 -4.253954 -1.828852
-11.987324 -7.627948 0.744636
-7.993516 -5.086550 -1.841689
-12.018264 -7.644689 1.246153
-9.904967 -6.298013 -1.859067
-11.926645 -7.580565 1.735176
-12.085465 -7.678551 -1.758087
-11.937606 -7.581680 2.239829
-12.065645 -7.662999 -1.250511
-11.925329 -7.570966 2.745742
-12.057343 -7.651824 -0.748404
-11.928651 -7.567230 3.261340
-12.062902 -7.649448 -0.249325
-11.902945 -7.545102 3.776170
-1.051601 -0.664794 -0.333359
-12.083354 -7.635832 0.249500
-6.710508 -4.238930 -1.832451
-12.071296 -7.622313 0.748195
-8.142364 -5.141424 -1.871836
-12.097105 -7.635658 1.251556
-9.950279 -6.278159 -1.863448
-12.003405 -7.570656 1.742488
-12.275082 -7.739007 -1.781730
-12.007448 -7.567350 2.247964
-12.142886 -7.652707 -1.255740
-12.004840 -7.562780 2.757953
-12.139753 -7.644808 -0.751858
-12.001168 -7.554616 3.273938
-12.130150 -7.632854 -0.250163
-11.984810 -7.538476 3.793770
-1.049005 -0.658040 -0.331806
-12.176009 -7.635036 0.250861
-6.728567 -4.217549 -1.833351
-12.160450 -7.619366 0.752068
-8.228472 -5.155709 -1.887483
-12.164210 -7.618766 1.255740
-9.960414 -6.236050 -1.861258
-12.073507 -7.556091 1.748825
-12.313800 -7.703485 -1.783436
-12.084035 -7.556811 2.257349
-12.210068 -7.635626 -1.259923
-12.097755 -7.562454 2.773218
-12.218868 -7.635198 -0.755103
-12.083662 -7.547779 3.289234
-12.207608 -7.622234 -0.251210
-12.066771 -7.531375 3.811369
-1.051296 -0.654374 -0.331806
-12.248429 -7.621010 0.251803
-6.748211 -4.197124 -1.834701
-12.225983 -7.601129 0.754475
-8.269759 -5.141468 -1.892825
-12.249958 -7.613067 1.261841
-9.950239 -6.181437 -1.855313
-12.170640 -7.557885 1.759062
-12.387838 -7.689768 -1.790261
-12.160695 -7.545829 2.266736
-12.297593 -7.630775 -1.266199
-12.184143 -7.557433 2.786956
-12.294674 -7.623022 -0.758139
-12.166251 -7.540457 3.304531
-12.302135 -7.621705 -0.252606
-12.132404 -7.513619 3.823793
-1.066723 -0.658821 -0.335947
-12.315794 -7.603419 0.252641
-6.766138 -4.175591 -1.835601
-12.330636 -7.606639 0.759290
-8.312721 -5.128030 -1.898550
-12.334118 -7.605815 1.267767
-10.008749 -6.169473 -1.862196
-12.244267 -7.544512 1.765887
-12.472073 -7.681875 -1.798548
-12.240787 -7.536478 2.276747
-12.369962 -7.616009 -1.270905
-12.233856 -7.529263 2.792299
-12.372240 -7.611454 -0.761279
-12.245618 -7.530609 3.318928
-12.372957 -7.605943 -0.253514
-12.211227 -7.503587 3.840357
-1.072081 -0.657487 -0.336982
-12.400993 -7.602318 0.253898
-6.777561 -4.153294 -1.835151
-12.398752 -7.594991 0.762012
-8.337159 -5.107018 -1.900458
-12.420821 -7.605525 1.274217
-10.114010 -6.190590 -1.878152
-12.308547 -7.530876 1.771737
-12.519854 -7.657155 -1.801960
-12.304854 -7.522710 2.284256
-12.455026 -7.614520 -1.277180
-12.337857 -7.539934 2.810617
-12.454041 -7.607947 -0.764838
-12.315784 -7.520537 3.331525
-12.458236 -7.604544 -0.254770
-12.297407 -7.503424 3.860027
-1.089223 -0.662779 -0.341641
-12.494086 -7.599508 0.255259
-6.802008 -4.135686 -1.837850
-12.467857 -7.577598 0.764628
-8.375068 -5.090121 -1.905037
-12.491567 -7.589018 1.278749
-10.130491 -6.152174 -1.877214
-12.402637 -7.529069 1.781486
-12.638148 -7.669015 -1.815122
-12.422239 -7.535037 2.301151
-12.554778 -7.615432 -1.284676
-12.427897 -7.535498 2.825118
-12.545428 -7.603767 -0.768815
-12.405295 -7.515876 3.348621
-12.541152 -7.595191 -0.255922
-12.373103 -7.490466 3.875557
-1.088222 -0.656976 -0.340606
-12.573612 -7.587882 0.256341
-6.834758 -4.122990 -1.842799
-12.560938 -7.574250 0.768711
-8.391105 -5.059840 -1.904655
-12.562345 -7.572113 1.283281
-10.233119 -6.165709 -1.892232
-12.486660 -7.520548 1.789773
-12.709057 -7.651477 -1.821459
-12.499243 -7.522187 2.310537
-12.617133 -7.593135 -1.288336
-12.497866 -7.518383 2.835040
-12.623240 -7.590810 -0.771955
-12.474880 -7.498631 3.360319
-12.624152 -7.585355 -0.257074
-12.472040 -7.490999 3.898333
-1.100452 -0.659129 -0.343712
-12.649776 -7.573735 0.257353
-6.854125 -4.102109 -1.844149
-12.647287 -7.566249 0.772374
-8.403661 -5.027496 -1.903511
-12.653678 -7.567074 1.289905
-10.452958 -6.248536 -1.928837
-12.570772 -7.511539 1.798060
-12.752731 -7.617247 -1.823897
-12.566131 -7.502811 2.318046
-12.693173 -7.578664 -1.293391
-12.567863 -7.500874 2.844962
-12.713123 -7.584561 -0.775828
-12.581320 -7.502946 3.381914
-12.710670 -7.577083 -0.258296
-12.537942 -7.471151 3.910756
-1.109389 -0.659231 -0.345782
-12.738031 -7.566297 0.258610
-6.861699 -4.074179 -1.842349
-12.726866 -7.553656 0.775619
-8.421159 -4.998131 -1.903511
-12.734848 -7.555388 1.295483
-10.473006 -6.211002 -1.928524
-12.637897 -7.491907 1.803910
-12.868046 -7.625308 -1.836571
-12.650028 -7.493133 2.328684
-12.791545 -7.576959 -1.300712
-12.668301 -7.500970 2.861753
-12.787647 -7.568622 -0.778759
-12.664457 -7.492725 3.397211
-12.795564 -7.567278 -0.259482
-12.623816 -7.462729 3.929391
-1.124997 -0.663203 -0.349923
-12.819493 -7.554277 0.259727
-6.879238 -4.052181 -1.843249
-12.811671 -7.543640 0.779178
-8.433479 -4.965717 -1.902366
-12.826392 -7.549293 1.302107
-10.508244 -6.182420 -1.931027
-12.711884 -7.475924 1.810735
-12.901430 -7.584367 -1.837546
-12.747637 -7.490963 2.341824
-12.890062 -7.574657 -1.308033
-12.728263 -7.476590 2.869386
-12.879436 -7.562366 -0.782737
-12.720785 -7.466227 3.405309
-12.889166 -7.562030 -0.260844
-12.726444 -7.463573 3.953202
-1.128973 -0.660248 -0.350441
-12.918292 -7.551865 0.261193
-6.918579 -4.042891 -1.849997
-12.894835 -7.532119 0.782632
-8.427027 -4.922387 -1.897023
-12.911165 -7.538631 1.308033
-10.452989 -6.100893 -1.916948
-12.813344 -7.475523 1.821459
-13.123313 -7.653290 -1.865332
-12.801014 -7.462337 2.346830
-12.808565 -7.463745 2.881598
-15.976007 -9.305726 -0.968948
-12.810765 -7.459038 3.422405
-12.946594 -7.535096 -0.261472
-12.795834 -7.444365 3.966661
-1.134613 -0.658242 -0.351476
-13.010310 -7.544846 0.262519
-6.936020 -4.020672 -1.850897
-12.986720 -7.525109 0.786609
-8.410186 -4.873253 -1.889391
-12.996020 -7.527469 1.313960
-10.465672 -6.059422 -1.915384
-12.911522 -7.472509 1.831696
-13.198059 -7.635268 -1.872157
-12.878283 -7.447277 2.356216
-20.514339 -11.863070 -2.073261
-12.912727 -7.464185 2.899152
-12.897472 -7.449366 3.438602
-32.081356 -18.522182 -0.646612
-12.875283 -7.430553 3.983225
-1.135230 -0.653313 -0.350959
-32.148540 -18.493706 0.647380
-6.966906 -4.006150 -1.855396
-32.164307 -18.487823 1.944281
-8.447570 -4.855606 -1.893970
-10.550138 -6.059253 -1.926960
-12.996060 -7.460998 1.839983
-13.238403 -7.597058 -1.874107
-12.989876 -7.451420 2.371860
-20.565998 -11.797333 -2.074307
-12.989798 -7.448362 2.910601
-12.991035 -7.443047 3.456598
-12.964849 -7.422040 4.002895
-1.127437 -0.643600 -0.347853
-32.324059 -18.444799 0.649613
-6.974077 -3.977942 -1.853597
-8.472996 -4.830953 -1.895878
-10.583242 -6.029231 -1.929150
-13.042724 -7.427378 1.842908
-13.275192 -7.556693 -1.875569
-13.087918 -7.447062 2.385000
-13.053260 -7.424330 2.918996
-13.084707 -7.436169 3.474594
-15.653741 -8.892562 -0.314248
-13.044437 -7.407260 4.019460
-1.139763 -0.645372 -0.350959
-6.996400 -3.958374 -1.855846
-8.494933 -4.804246 -1.897023
-32.569126 -18.411724 3.273221
-10.642056 -6.013634 -1.936033
-13.127337 -7.414999 1.851195
-13.322234 -7.522016 -1.878494
-13.160706 -7.430813 2.393760
-13.188531 -7.440459 2.943420
-13.141140 -7.407673 3.482692
-15.892183 -8.958439 -0.318437
-13.132884 -7.400003 4.039130
-1.147062 -0.644228 -0.352512
-7.023083 -3.942783 -1.859445
-8.492817 -4.763998 -1.892825
-10.655049 -5.974446 -1.934782
-13.252290 -7.427718 1.865332
-13.409450 -7.512729 -1.887269
-13.248610 -7.419576 2.405024
-13.237115 -7.410109 2.948762
-13.250672 -7.411620 3.505187
-13.371118 -7.472864 4.104352
-5.997397 -3.342223 -1.839686
-7.041911 -3.921088 -1.860795
-8.486267 -4.723396 -1.887864
-10.715545 -5.959298 -1.941978
-13.344068 -7.418065 1.874594
-13.518883 -7.512154 -1.898968
-13.319324 -7.398226 2.413158
-13.359021 -7.417225 2.970133
-13.324175 -7.391794 3.517785
-6.010717 -3.322203 -1.840203
-7.067496 -3.903077 -1.863944
-8.492390 -4.688054 -1.885575
-10.774335 -5.942847 -1.948861
-13.439415 -7.409781 1.884344
-13.670197 -7.533908 -1.916517
-13.452342 -7.410783 2.432556
-13.446744 -7.404636 2.983871
-13.421605 -7.384694 3.536680
-6.034136 -3.307702 -1.843827
-7.081077 -3.878385 -1.863944
-8.493205 -4.649894 -1.882140
-10.815808 -5.916579 -1.952615
-13.524417 -7.395201 1.892631
-13.755636 -7.518514 -1.924805
-13.512797 -7.382726 2.438814
-13.513861 -7.380240 2.993030
-13.508883 -7.371402 3.552877
-6.054132 -3.291230 -1.846415
-7.099710 -3.856434 -1.865294
-8.524913 -4.628650 -1.885575
-10.857231 -5.890092 -1.956370
-13.612970 -7.382014 1.901406
-13.837644 -7.500724 -1.932604
-13.618381 -7.378797 2.453206
-13.632763 -7.383512 3.013637
-21.303236 -11.533037 -1.269566
-13.585950 -7.352026 3.566374
-6.068984 -3.271912 -1.847450
-7.128569 -3.839943 -1.869343
-8.558303 -4.608173 -1.889391
-14.014296 -7.542769 1.392400
-10.888165 -5.857770 -1.958247
-13.705092 -7.370177 1.910668
-13.930182 -7.488094 -1.941866
-13.696258 -7.359264 2.462592
-13.720717 -7.369321 3.027376
-21.431347 -11.505845 -1.274799
-13.700821 -7.352474 3.589769
-6.076961 -3.248886 -1.846415
-7.147085 -3.817792 -1.870693
-8.586459 -4.584743 -1.892062
-14.072180 -7.510686 1.395538
-10.896346 -5.813219 -1.956057
-13.776275 -7.346581 1.917005
-14.008790 -7.467432 -1.949178
-13.770677 -7.337420 2.471352
-13.787942 -7.343534 3.036535
-21.538376 -11.466626 -1.278777
-13.778011 -7.332069 3.603266
-6.089971 -3.228558 -1.846933
-7.162091 -3.793734 -1.871143
-8.614556 -4.561173 -1.894733
-14.144096 -7.485751 1.400070
-10.907840 -5.770532 -1.954492
-13.889578 -7.344847 1.929192
-14.069871 -7.437040 -1.954053
-13.890518 -7.339141 2.488247
-13.872519 -7.326530 3.049510
-13.896589 -7.333044 3.627561
-6.106333 -3.209979 -1.848486
-7.175290 -3.768710 -1.871143
-8.635642 -4.533812 -1.895878
-14.268934 -7.488183 1.409831
-10.969901 -5.754445 -1.962001
-13.999519 -7.340562 1.940891
-14.180139 -7.432118 -1.965753
-14.000042 -7.334611 2.503265
-13.995404 -7.329064 3.070880
-13.970448 -7.309787 3.640158
-6.124354 -3.192214 -1.850556
-7.198771 -3.749042 -1.873842
-8.630517 -4.492763 -1.891299
-14.208383 -7.393265 1.401290
-10.993425 -5.717939 -1.962627
-14.081418 -7.320955 1.948691
-14.304637 -7.433836 -1.979402
-14.081656 -7.314832 2.513276
-14.496433 -7.530292 -1.429180
-14.094082 -7.318168 3.086908
-14.527406 -7.539947 -0.857786
-14.071992 -7.300459 3.659954
-14.558412 -7.549591 -0.286254
-6.138892 -3.172590 -1.851591
-14.598678 -7.541399 0.286813
-7.217010 -3.726572 -1.875192
-8.626956 -4.452704 -1.887101
-14.304930 -7.380164 1.408262
-11.034386 -5.690395 -1.966381
-14.156293 -7.297225 1.955516
-14.429317 -7.434774 -1.993051
-14.184374 -7.305434 2.527043
-14.481891 -7.458666 -1.425171
-14.192852 -7.306667 3.102936
-14.493255 -7.458118 -0.854228
-14.156308 -7.281604 3.675251
-14.520654 -7.465808 -0.284998
-6.155087 -3.153785 -1.853144
-14.546602 -7.450285 0.285277
-7.249054 -3.711125 -1.880141
-14.595485 -7.468887 0.859252
-8.626719 -4.414515 -1.883667
-14.376722 -7.353775 1.412795
-11.117499 -5.684216 -1.977645
-14.277131 -7.296547 1.968678
-14.487001 -7.400617 -1.997439
-14.244973 -7.273843 2.533300
-14.472349 -7.389946 -1.421684
-14.274227 -7.285640 3.115148
-14.497850 -7.396590 -0.852971
-14.258024 -7.271098 3.695046
-14.514559 -7.398730 -0.284369
-6.164336 -3.131407 -1.852627
-14.543993 -7.384973 0.284719
-7.270653 -3.690208 -1.882390
-14.591186 -7.402535 0.857472
-8.626316 -4.376382 -1.880232
-14.487601 -7.346800 1.421162
-11.188371 -5.671274 -1.986718
-14.387508 -7.289734 1.980377
-14.594210 -7.391259 -2.008651
-14.368973 -7.274037 2.550821
-14.540719 -7.360980 -1.425868
-14.387160 -7.280090 3.134229
-14.543189 -7.355855 -0.854123
-14.377231 -7.268763 3.719341
-14.547434 -7.351626 -0.284509
-6.185582 -3.115084 -1.855733
-14.566112 -7.332361 0.284649
-7.285231 -3.665684 -1.882840
-14.608017 -7.347066 0.856949
-8.639787 -4.345359 -1.879850
-14.619962 -7.349877 1.431620
-11.213392 -5.634848 -1.987656
-14.462539 -7.264413 1.987202
-14.701528 -7.381242 -2.019863
-14.500207 -7.277001 2.569593
-14.635773 -7.345035 -1.432666
-14.472151 -7.259755 3.147204
-14.636620 -7.339062 -0.858100
-14.468718 -7.251717 3.736437
-14.635586 -7.332151 -0.285731
-6.206788 -3.098649 -1.858838
-14.670344 -7.320761 0.286185
-7.306700 -3.644580 -1.885090
-14.655024 -7.306724 0.858205
-8.644361 -4.309918 -1.877560
-14.691890 -7.321908 1.436152
-11.275429 -5.616810 -1.995165
-14.580210 -7.259894 1.999876
-14.737864 -7.335189 -2.021325
-14.585654 -7.256253 2.580230
-14.754084 -7.340045 -1.441730
-14.581781 -7.251152 3.165521
-14.740843 -7.327044 -0.862706
-14.577715 -7.242784 3.758032
-14.752431 -7.326380 -0.287511
-6.226224 -3.081249 -1.861427
-14.776467 -7.309406 0.287755
-7.333354 -3.625961 -1.888689
-14.756159 -7.296150 0.862706
-8.629432 -4.264932 -1.871073
-14.824539 -7.323527 1.446611
-11.321536 -5.590534 -1.999858
-14.687346 -7.249375 2.011088
-14.855950 -7.329371 -2.033999
-14.662781 -7.234068 2.589617
-14.843944 -7.320221 -1.448005
-14.670398 -7.231460 3.179260
-14.854116 -7.318798 -0.867835
-14.665842 -7.222848 3.774229
-14.837639 -7.307457 -0.288698
-6.235207 -3.058646 -1.860909
-14.883207 -7.300875 0.289361
-7.357586 -3.607630 -1.891838
-14.858654 -7.282397 0.867207
-8.646029 -4.235647 -1.871455
-14.850015 -7.271731 1.446611
-11.363076 -5.564253 -2.003926
-14.764792 -7.226810 2.018400
-14.958632 -7.318450 -2.044724
-14.801516 -7.238377 2.609640
-14.942793 -7.304239 -1.455152
-14.789542 -7.229328 3.199867
-14.957263 -7.308078 -0.872440
-14.794779 -7.225487 3.801223
-14.952904 -7.299484 -0.290443
-6.252264 -3.041333 -1.862980
-14.976942 -7.282106 0.290687
-7.377144 -3.585332 -1.893638
-14.970214 -7.272376 0.872231
-8.642368 -4.198373 -1.867638
-14.895553 -7.232893 1.448703
-11.396645 -5.531456 -2.006429
-14.861371 -7.209886 2.028150
-15.066251 -7.306035 -2.055936
-14.908457 -7.226302 2.624032
-15.049405 -7.294621 -1.463171
-14.899496 -7.218748 3.218185
-15.049195 -7.288029 -0.876313
-14.860252 -7.193331 3.811571
-15.046696 -7.280340 -0.291769
-6.271544 -3.023684 -1.865568
-15.088736 -7.271456 0.292363
-7.389615 -3.559559 -1.893638
-15.081887 -7.261665 0.877255
-8.667584 -4.173290 -1.869928
-14.970977 -7.205045 1.453583
-11.463948 -5.514762 -2.014876
-15.004522 -7.214741 2.044236
-15.173964 -7.292953 -2.067148
-15.019059 -7.215277 2.639050
-15.159184 -7.282594 -1.471363
-14.995395 -7.200687 3.233449
-15.146564 -7.270026 -0.880500
-15.029346 -7.210536 3.848463
-15.158567 -7.269278 -0.293445
-6.285545 -3.003441 -1.866603
-15.193423 -7.256658 0.293899
-7.409029 -3.537101 -1.895438
-15.179243 -7.243384 0.881442
-8.657292 -4.131174 -1.864586
-15.125513 -7.214500 1.466134
-11.490260 -5.478112 -2.016128
-15.097712 -7.194776 2.053499
-15.231587 -7.255308 -2.071535
-15.129765 -7.203567 2.654068
-15.267263 -7.269033 -1.479382
-15.101986 -7.187104 3.251004
-15.265638 -7.261724 -0.885943
-15.093142 -7.176439 3.858360
-15.266930 -7.255800 -0.295050
-6.309959 -2.988095 -1.870744
-15.296383 -7.240368 0.295399
-7.435423 -3.517886 -1.899037
-15.283879 -7.227920 0.886048
-8.632616 -4.082462 -1.856190
-15.222655 -7.195716 1.473106
-11.507526 -5.437129 -2.015815
-15.194533 -7.175935 2.063248
-15.357348 -7.249550 -2.085185
-15.179826 -7.162514 2.658448
-15.386239 -7.259909 -1.488446
-15.201560 -7.169522 3.267032
-15.388448 -7.254381 -0.891595
-15.230920 -7.176876 3.887154
-15.384427 -7.245924 -0.296831
-6.311608 -2.961947 -1.868156
-15.424755 -7.235337 0.297389
-7.454715 -3.495219 -1.900836
-15.392209 -7.213513 0.890863
-8.657480 -4.057302 -1.858480
-15.316241 -7.174655 1.479730
-11.544326 -5.405300 -2.018943
-15.312984 -7.166608 2.075922
-15.418521 -7.212725 -2.090060
-15.333575 -7.169722 2.680974
-15.481877 -7.239066 -1.495244
-15.326094 -7.162964 3.288403
-15.502343 -7.242046 -0.896724
-15.298260 -7.143450 3.897952
-15.482109 -7.226007 -0.298227
-6.330666 -2.943972 -1.870744
-15.511574 -7.210110 0.298576
-7.484543 -3.477385 -1.905335
-15.513300 -7.204329 0.896410
-8.707201 -4.043597 -1.866112
-15.446008 -7.169801 1.489840
-11.586417 -5.375778 -2.023011
-15.413539 -7.148192 2.086159
-15.295920 -7.090402 -2.070073
-15.426618 -7.147711 2.692863
-15.592017 -7.224346 -1.503436
-15.429386 -7.145728 3.305193
-15.605467 -7.223963 -0.901225
-15.443365 -7.145651 3.928545
-15.605247 -7.217248 -0.300112
-15.517163 -7.173223 4.580579
-6.347922 -2.925090 -1.872815
-15.634727 -7.201093 0.300461
-7.496635 -3.451239 -1.905335
-15.618188 -7.186869 0.901016
-8.765851 -4.033696 -1.875653
-15.572310 -7.162460 1.499602
-11.608701 -5.336954 -2.023637
-15.532194 -7.137446 2.098834
-15.432423 -7.088333 -2.085185
-15.548416 -7.138324 2.709758
-15.716729 -7.215597 -1.513024
-15.539885 -7.131128 3.323511
-15.703203 -7.202752 -0.905412
-15.546158 -7.127435 3.948341
-15.708513 -7.198557 -0.301612
-6.366880 -2.906925 -1.875403
-15.748910 -7.187155 0.302171
-7.505092 -3.423433 -1.904436
-15.730409 -7.172078 0.906040
-8.912067 -4.063343 -1.903892
-15.684237 -7.147721 1.507969
-11.636249 -5.300493 -2.025201
-15.672640 -7.135830 2.114433
-15.666659 -7.129802 -2.113458
-15.681124 -7.133086 2.728530
-15.817987 -7.195343 -1.520345
-15.675491 -7.127217 3.347172
-15.813711 -7.186732 -0.910332
-15.833690 -7.189145 -0.303532
-6.387550 -2.889460 -1.878509
-15.872294 -7.176624 0.304056
-7.529427 -3.402832 -1.907585
-15.839077 -7.154947 0.910855
-8.976294 -4.054839 -1.914578
-15.796256 -7.132285 1.516336
-11.705094 -5.282595 -2.033961
-15.795168 -7.125153 2.127595
-15.774693 -7.112608 -2.124670
-15.774363 -7.109147 2.740419
-15.953812 -7.190020 -1.530978
-15.789774 -7.112773 3.366252
-15.942506 -7.178231 -0.916298
-15.929812 -7.165825 -0.304894
-6.395834 -2.866355 -1.877991
-15.981197 -7.158780 0.305661
-7.560822 -3.385290 -1.912534
-15.973334 -7.148565 0.917135
-9.026232 -4.039520 -1.922210
-15.908355 -7.116152 1.524703
-11.691004 -5.227188 -2.028330
-15.885185 -7.099134 2.136370
-15.810301 -7.062359 -2.126133
-15.903701 -7.100746 2.758566
-16.047947 -7.165150 -1.537601
-15.896975 -7.094420 3.383807
-16.065962 -7.166473 -0.921950
-16.053362 -7.154135 -0.306778
-6.411098 -2.846364 -1.879544
-16.086512 -7.138645 0.307197
-7.579719 -3.362035 -1.914333
-16.082762 -7.133617 0.922055
-9.052841 -4.013558 -1.924881
-16.016888 -7.097713 1.532721
-11.729046 -5.195149 -2.031771
-16.044191 -7.103109 2.154407
-15.849376 -7.013556 -2.128083
-16.021091 -7.089543 2.774835
-16.176720 -7.155030 -1.547537
-16.004240 -7.075402 3.401361
-16.187704 -7.153129 -0.927498
-16.172115 -7.142872 -0.308593
-6.431604 -2.828635 -1.882650
-16.212603 -7.130342 0.309152
-7.583691 -3.333746 -1.912534
-16.208136 -7.121623 0.927812
-9.056010 -3.977198 -1.922591
-16.161974 -7.094610 1.544225
-11.795046 -5.177663 -2.040219
-16.111286 -7.069007 2.160256
-15.854370 -6.952982 -2.125645
-16.125347 -7.068465 2.788601
-16.298317 -7.140895 -1.556776
-16.135509 -7.069563 3.424258
-16.299152 -7.137870 -0.932522
-16.301376 -7.132064 -0.310583
-6.448033 -2.810379 -1.884720
-16.340057 -7.118431 0.311107
-7.607789 -3.312698 -1.915683
-16.317137 -7.101670 0.932627
-9.078150 -3.951063 -1.924500
-16.269455 -7.077540 1.552244
-11.842031 -5.149062 -2.045224
-16.212328 -7.045956 2.170493
-15.656414 -6.801110 -2.095909
-16.273136 -7.065632 2.809876
-16.425497 -7.128378 -1.566537
-16.246538 -7.050713 3.442576
-16.422913 -7.123851 -0.938174
-16.425251 -7.118055 -0.312468
-6.463612 -2.789021 -1.886273
-16.474972 -7.108881 0.313201
-7.624674 -3.288437 -1.917033
-16.440866 -7.087363 0.938279
-9.121419 -3.930191 -1.930605
-16.383121 -7.055685 1.560611
-11.893483 -5.119685 -2.050856
-16.397276 -7.058394 2.191942
-16.208870 -6.973935 -2.166594
-16.323107 -7.019710 2.814256
-16.539968 -7.109555 -1.575078
-16.405752 -7.048467 3.470816
-16.546179 -7.105379 -0.943722
-16.540039 -7.099328 -0.314178
-6.464426 -2.762646 -1.883685
-16.587347 -7.085373 0.314841
-7.643844 -3.263531 -1.918833
-16.566532 -7.073063 0.944036
-9.153140 -3.906032 -1.934422
-16.502947 -7.039106 1.569675
-11.914917 -5.079684 -2.051482
-16.503391 -7.032484 2.202667
-16.332941 -6.956488 -2.179755
-16.514709 -7.033907 2.843040
-16.671013 -7.097037 -1.585189
-16.488064 -7.015754 3.483028
-16.664614 -7.087447 -0.949060
-16.654896 -7.079878 -0.315889
-6.479367 -2.742325 -1.885238
-16.699146 -7.067739 0.316517
-7.668983 -3.244239 -1.922432
-16.694141 -7.058747 0.949898
-9.172143 -3.876353 -1.935566
-16.648552 -7.032626 1.581179
-11.938974 -5.043222 -2.052733
-16.585140 -7.002425 2.210466
-16.297394 -6.877589 -2.171956
-16.622887 -7.011530 2.857432
-16.802166 -7.083692 -1.595299
-16.637873 -7.014427 3.509741
-16.805819 -7.081783 -0.955759
-16.793777 -7.069803 -0.318053
-6.502677 -2.726799 -1.889379
-16.821459 -7.050372 0.318367
-7.678463 -3.216698 -1.921982
-16.821844 -7.043632 0.955759
-9.204867 -3.854256 -1.939764
-16.785732 -7.025068 1.591987
-11.974730 -5.009136 -2.055862
-16.741350 -6.999628 2.228016
-16.405558 -6.855868 -2.183168
-16.767563 -7.003708 2.878082
-16.924841 -7.069402 -1.604712
-16.752840 -6.994129 3.528822
-16.924440 -7.062302 -0.961098
-16.918020 -7.052691 -0.319938
-6.526430 -2.710011 -1.893520
-16.960478 -7.039137 0.320531
-7.713045 -3.199581 -1.927831
-16.945957 -7.026177 0.961412
-9.220078 -3.822853 -1.940146
-16.854326 -6.984738 1.596170
-12.006742 -4.973356 -2.058365
-16.868389 -6.983669 2.241665
-16.477077 -6.818294 -2.189505
-16.894129 -6.987418 2.895602
-17.054356 -7.053689 -1.614647
-16.911411 -6.991110 3.557061
-17.061590 -7.049702 -0.967483
-17.070078 -7.046239 -0.322346
-6.534063 -2.686478 -1.893003
-17.084826 -7.020935 0.322416
-7.772838 -3.192629 -1.939978
-17.073845 -7.009459 0.967273
-9.280587 -3.810032 -1.950068
-17.003946 -6.977294 1.608023
-12.031340 -4.934412 -2.059616
-16.984503 -6.962391 2.253852
-16.335459 -6.693001 -2.167568
-16.998852 -6.961343 2.909369
-17.187658 -7.038663 -1.624932
-17.030193 -6.970708 3.576905
-17.187763 -7.031701 -0.973240
-17.144802 -7.010633 4.276320
-17.179718 -7.021411 -0.323952
-6.545190 -2.664383 -1.893520
-17.242590 -7.015515 0.324929
-7.845310 -3.190436 -1.955275
-17.201824 -6.991937 0.973135
-9.355666 -3.802749 -1.963043
-17.098341 -6.946393 1.614647
-12.028358 -4.884210 -2.056175
-17.155853 -6.962782 2.273351
-16.377119 -6.643401 -2.170006
-17.140209 -6.949466 2.929392
-17.300751 -7.014558 -1.633299
-17.112648 -6.934814 3.589118
-12.034474 -4.874465 -0.680472
-17.304220 -7.001903 -0.325836
-6.556242 -2.642240 -1.894038
-17.361572 -6.993390 0.326709
-7.912438 -3.185595 -1.969222
-17.348415 -6.981053 0.980043
-9.381634 -3.775197 -1.965714
-17.277756 -6.949116 1.629289
-11.992181 -4.820829 -2.047102
-17.272152 -6.939859 2.285538
-16.234419 -6.519613 -2.148069
-17.303682 -6.945518 2.953170
-17.436069 -6.998657 -1.643757
-17.275230 -6.930593 3.618120
-17.470011 -7.005198 -0.986428
-17.439938 -6.986073 -0.327931
-6.570808 -2.621486 -1.895591
-17.486181 -6.972744 0.328594
-7.928941 -3.160120 -1.970571
-17.476583 -6.961843 0.985905
-9.387460 -3.739520 -1.964188
-17.412971 -6.932987 1.639748
-12.040139 -4.791353 -2.052420
-17.451212 -6.941152 2.306012
-16.585426 -6.593442 -2.191455
-17.412271 -6.918626 2.967562
-17.577044 -6.984097 -1.654739
-17.401497 -6.910828 3.639491
-17.603882 -6.987651 -0.992604
-17.594339 -6.976751 -0.330374
-6.592496 -2.603502 -1.899214
-17.623875 -6.956449 0.330723
-7.965302 -3.142434 -1.976870
-17.604826 -6.941829 0.991766
-9.405933 -3.708891 -1.965333
-17.507504 -6.899922 1.646372
-12.084359 -4.760155 -2.057113
-17.519665 -6.897651 2.311862
-16.604649 -6.534054 -2.190967
-17.546612 -6.901183 2.986334
-17.727398 -6.972287 -1.666592
-17.571682 -6.907507 3.670020
-17.735985 -6.968517 -0.998675
-17.748884 -6.966440 -0.332817
-6.606942 -2.582584 -1.900767
-17.767258 -6.941455 0.332957
-7.988929 -3.119574 -1.980019
-17.744308 -6.925355 0.998256
-9.438941 -3.683887 -1.969531
-17.687401 -6.899584 1.661014
-12.099060 -4.717228 -2.056801
-17.687904 -6.892673 2.330873
-16.686548 -6.499103 -2.198767
-17.681044 -6.882891 3.005106
-17.874166 -6.958071 -1.678097
-17.643261 -6.864637 3.679943
-17.860720 -6.945653 -1.004327
-15.252987 -5.925437 -0.285626
-6.608710 -2.556718 -1.898697
-17.925667 -6.931323 0.335470
-7.996134 -3.090263 -1.979119
-17.898790 -6.913749 1.005583
-9.466393 -3.656575 -1.972583
-17.837767 -6.886600 1.672867
-12.054635 -4.651498 -2.046476
-17.808170 -6.868028 2.343548
-16.805447 -6.477946 -2.211441
-17.815561 -6.863741 3.023879
-18.008038 -6.937896 -1.688381
-17.817348 -6.860854 3.711235
-14.399219 -5.541767 -0.808591
-18.032267 -6.932773 -0.337215
-6.623007 -2.535705 -1.900250
-18.069281 -6.914447 0.337704
-8.017795 -3.066509 -1.981819
-18.045944 -6.898296 1.012491
-9.490104 -3.627715 -1.974873
-17.936144 -6.852736 1.679840
-12.080027 -4.612915 -2.048040
-17.924765 -6.841220 2.355735
-16.935534 -6.460281 -2.225578
-17.975998 -6.853586 3.047031
-18.153152 -6.921129 -1.699711
-17.954931 -6.841965 3.734895
-18.171946 -6.921030 -1.019086
-18.172235 -6.913873 -0.339379
-6.637238 -2.514624 -1.901802
-18.194292 -6.889570 0.339589
-8.039384 -3.042644 -1.984518
-18.200680 -6.884726 1.019819
-9.539433 -3.608458 -1.982506
-18.127684 -6.853498 1.695528
-12.081272 -4.565133 -2.045537
-18.137957 -6.850146 2.380596
-16.946836 -6.396918 -2.224116
-18.110706 -6.832628 3.065803
-18.302103 -6.904836 -1.711390
-18.081577 -6.818039 3.756266
-18.304392 -6.898407 -1.025157
-18.312288 -6.894084 -0.341544
-6.651402 -2.493475 -1.903355
-12.282185 -4.601900 0.228941
-8.059082 -3.017978 -1.986768
-18.321869 -6.857556 1.025261
-9.568521 -3.581331 -1.985940
-18.300781 -6.846028 1.709473
-12.102684 -4.525009 -2.046476
-18.191509 -6.797908 2.384496
-17.028568 -6.359952 -2.231915
-18.249186 -6.812203 3.085201
-18.449287 -6.886899 -1.722895
-18.259775 -6.812526 3.788322
-18.464975 -6.885408 -1.032798
-18.459921 -6.876190 -0.343847
-6.674555 -2.475618 -1.907496
-18.500698 -6.858303 0.344406
-8.082359 -2.994567 -1.989917
-18.469307 -6.839339 1.032170
-9.592008 -3.552001 -1.988230
-18.417995 -6.816678 1.718188
-12.133227 -4.488217 -2.048979
-18.367804 -6.790818 2.404482
-16.879362 -6.237169 -2.209491
-18.391447 -6.792258 3.105224
-18.596567 -6.868012 -1.734399
-18.393951 -6.789540 3.811219
-18.606945 -6.864465 -1.039392
-18.607647 -6.857347 -0.346151
-6.677715 -2.450308 -1.905944
-11.799600 -4.327383 0.219377
-8.111059 -2.973044 -1.994416
-18.631847 -6.825668 1.039916
-18.542709 -6.789337 1.727601
-8.859790 -3.242225 -1.494262
-18.589014 -6.798934 2.430319
-8.891452 -3.250290 -1.162390
-18.552345 -6.778187 3.128377
-18.760780 -6.854340 -1.747473
-18.786369 -6.859968 3.887542
-18.756500 -6.845351 -1.046405
-12.803617 -4.667730 -0.237876
-6.680779 -2.425004 -1.904391
-11.852228 -4.299810 0.220075
-8.147036 -2.954013 -2.000715
-18.782061 -6.810139 1.047033
-8.813654 -3.193978 -1.822226
-18.637478 -6.750356 1.734225
-8.800472 -3.185728 -1.482373
-18.691034 -6.762369 2.440556
-8.834981 -3.196474 -1.153615
-18.689899 -6.758270 3.147775
-8.834848 -3.192942 -0.821879
-8.853802 -3.196295 -0.493319
-8.865161 -3.198648 -0.164506
-6.699693 -2.406756 -1.907496
-8.825005 -3.168501 0.163669
-8.169626 -2.931587 -2.003864
-8.912559 -3.198181 0.496250
-8.838981 -3.170037 -1.825279
-8.929453 -3.200725 0.829897
-8.837023 -3.165854 -1.486753
-8.950191 -3.204631 1.167265
-8.849270 -3.168496 -1.154103
-8.841637 -3.162285 -0.821530
-8.853067 -3.162886 -0.492691
-6.722199 -2.389703 -1.911638
-8.179302 -2.904479 -2.003864
-8.906729 -3.161038 0.495308
-8.864246 -3.145961 -1.828332
-8.932508 -3.168430 0.829200
-8.884709 -3.149732 -1.493011
-8.927089 -3.163002 1.162877
-8.878989 -3.144214 -1.156540
-8.944085 -3.165511 1.502710
-8.882674 -3.142032 -0.824319
-8.950826 -3.166139 1.845505
-8.882339 -3.140167 -0.493737
-8.979456 -3.172741 2.198672
-9.019325 -3.183285 2.562826
-6.743671 -2.369531 -1.915261
-8.209618 -2.883013 -2.008813
-8.912054 -3.127942 0.494994
-9.685295 -3.397437 -1.995099
-8.955340 -3.139626 0.830246
-12.272348 -4.300118 -2.059616
-8.941822 -3.133132 1.163365
-17.305815 -6.060412 -2.251415
-8.962538 -3.136881 1.503961
-8.969783 -3.135903 1.847031
-14.365437 -5.019451 -0.797495
-8.972629 -3.133381 2.194173
-8.979312 -3.133960 2.548332
-6.728179 -2.337734 -1.908532
-8.244061 -2.861210 -2.014662
-8.975751 -3.115152 0.497924
-9.698950 -3.364251 -1.995481
-12.158494 -4.212634 -2.038028
-9.039533 -3.130219 1.174577
-17.369184 -6.011221 -2.256777
-9.063037 -3.136585 1.518979
-14.779147 -5.111963 -1.368171
-9.017784 -3.117402 1.854663
-12.355412 -4.268786 -0.685078
-8.990878 -3.104588 2.195972
-8.965125 -3.095695 -0.165554
-8.986543 -3.101335 2.547297
-6.747260 -2.318002 -1.911638
-8.273780 -2.840817 -2.019611
-9.736632 -3.339294 -2.000823
-19.576847 -6.710289 1.810573
-12.256486 -4.201114 -2.052108
-12.159756 -4.165587 1.578208
-17.426582 -5.966453 -2.261652
-19.506615 -6.674805 3.265413
-14.881735 -5.089355 -1.376015
-9.044005 -3.087641 -0.166810
-6.762226 -2.298100 -1.913708
-9.046950 -3.072789 0.166775
-8.274420 -2.808787 -2.017361
-15.159386 -5.142967 0.838945
-9.769964 -3.314554 -2.005403
-11.651465 -3.950607 1.076373
-12.340298 -4.181762 -2.063684
-12.170463 -4.121842 1.577721
-17.436022 -5.901768 -2.260189
-19.645809 -6.645919 3.284811
-14.606857 -4.938467 -1.348997
-6.783424 -2.277603 -1.917332
-8.311885 -2.789185 -2.024110
-11.651352 -3.907537 0.644046
-9.809970 -3.288082 -2.011127
-11.722545 -3.926859 1.081603
-12.396751 -4.150304 -2.070567
-19.834848 -6.640501 2.568275
-17.448984 -5.838348 -2.259214
-19.811268 -6.624913 3.308589
-6.800500 -2.256953 -1.919920
-8.331302 -2.761768 -2.026359
-20.254114 -6.710173 1.118210
-9.821387 -3.253819 -2.011127
-20.024326 -6.630172 1.845436
-12.489930 -4.133067 -2.083707
-12.131797 -4.012208 1.568946
-17.496653 -5.783082 -2.262626
-20.000475 -6.606781 3.336122
-12.027749 -3.963830 -0.221052
-20.141575 -6.633907 5.682113
-6.815679 -2.235610 -1.921990
-8.350151 -2.735703 -2.028609
-11.713181 -3.835249 0.645930
-9.838282 -3.221350 -2.012272
-12.524934 -4.096198 -2.087149
-12.383471 -4.047545 1.599657
-17.543152 -5.730597 -2.266039
-20.184912 -6.589648 3.363029
-14.616102 -4.771632 -1.345162
-15.766226 -5.141016 -0.869091
-11.231519 -3.658015 -0.206183
-6.823441 -2.211806 -1.921990
-11.016579 -3.568876 0.202134
-8.385604 -2.714944 -2.034907
-12.653109 -4.096601 0.697010
-8.568084 -2.772372 -1.750482
-12.591785 -4.069465 -2.095909
-20.338892 -6.569286 2.624335
-17.532822 -5.659566 -2.262139
-20.311926 -6.556656 3.380549
-20.901375 -6.742908 -1.921435
-12.046693 -3.881690 -0.663306
-15.267447 -4.916545 -0.279971
-20.278212 -6.526241 5.707995
-6.864236 -2.198581 -1.931308
-15.454167 -4.949893 0.283253
-8.385282 -2.684150 -2.032658
-11.643901 -3.725003 0.640697
-8.581449 -2.743642 -1.751245
-11.857836 -3.788881 1.089098
-12.624027 -4.033698 -2.099038
-20.511847 -6.550112 2.643834
-17.509892 -5.588117 -2.256777
-20.458897 -6.525335 3.401198
-15.294475 -4.875210 -1.404428
-12.354467 -3.935686 -0.679530
-11.237103 -3.575417 -0.205834
-20.481291 -6.512788 5.758724
-6.948842 -2.200299 -1.953049
-12.344670 -3.906477 0.226009
-8.396457 -2.655451 -2.033108
-11.187734 -3.538216 0.614948
-8.603603 -2.719311 -1.753916
-11.832338 -3.737535 1.085612
-8.668984 -2.736648 -1.439823
-12.136741 -3.829030 1.562609
-17.510357 -5.520996 -2.254339
-20.736641 -6.538240 3.443749
-20.920185 -6.592097 -1.918995
-15.151531 -4.768541 -0.832456
-12.992411 -4.086523 -0.237737
-20.687069 -6.502764 5.810488
-7.048667 -2.204868 -1.978930
-11.380403 -3.559862 0.208137
-8.434978 -2.636896 -2.040306
-11.386841 -3.557510 0.625205
-8.628036 -2.693943 -1.756969
-11.881450 -3.707486 1.088924
-8.642184 -2.696706 -1.433878
-20.844007 -6.500169 2.680882
-17.665022 -5.505425 -2.271888
-20.864954 -6.498711 3.461269
-8.958207 -2.788456 -0.820833
-12.893983 -4.011093 -0.707687
-12.334400 -3.832295 -0.225450
-20.894136 -6.487805 5.862252
-7.124998 -2.200106 -1.998083
-21.169544 -6.532835 0.386710
-8.435729 -2.601617 -2.038057
-11.243303 -3.467485 0.616622
-11.828315 -3.643388 1.082823
-8.643034 -2.660596 -1.432314
-21.176182 -6.514645 2.720368
-8.828312 -2.715944 -1.134116
-21.013250 -6.460507 3.481919
-8.892187 -2.732197 -0.813860
-8.641835 -2.651973 -0.473745
-11.579817 -3.551359 -0.211418
-7.217251 -2.202403 -2.021894
-21.367062 -6.516263 0.389922
-8.459222 -2.578173 -2.041656
-11.885203 -3.622333 0.651164
-9.985697 -3.041503 -2.029063
-11.592546 -3.528719 1.060162
-8.649920 -2.631345 -1.432001
-21.250849 -6.460553 2.727192
-8.936031 -2.716677 -1.146791
-21.257587 -6.458555 3.518837
-8.775373 -2.664490 -0.802356
-8.631468 -2.617507 -0.472698
-12.221150 -3.703752 -0.222902
-7.337340 -2.212478 -2.053470
-12.632860 -3.806871 0.230302
-8.467725 -2.550109 -2.041656
-15.596587 -4.694039 0.853600
-10.030092 -3.016808 -2.035932
-11.745373 -3.532723 1.073061
-8.666164 -2.604923 -1.433253
-21.435656 -6.439161 2.748154
-8.930248 -2.680904 -1.144841
-21.469208 -6.441071 3.550124
-8.755994 -2.625258 -0.799741
-8.619506 -2.581057 -0.471547
-11.634375 -3.481628 -0.211977
-7.423168 -2.208712 -2.075211
-11.820608 -3.514891 0.215258
-8.482619 -2.520722 -2.043005
-12.167378 -3.613385 0.665190
-10.082489 -2.992312 -2.044328
-12.377098 -3.673313 1.129538
-8.749515 -2.595048 -1.445455
-12.730820 -3.773460 1.630368
-8.869591 -2.627292 -1.135822
-21.682083 -6.418415 3.581411
-8.740719 -2.585802 -0.797475
-8.630823 -2.550016 -0.471652
-11.466779 -3.385733 -0.208696
-7.509066 -2.204344 -2.096952
-11.403594 -3.345451 0.207439
-8.499282 -2.491805 -2.044805
-11.098962 -3.253975 0.606155
-10.102293 -2.959862 -2.046236
-11.843613 -3.467805 1.079685
-8.758967 -2.562960 -1.445455
-12.031983 -3.518400 1.539210
-8.877255 -2.594211 -1.135579
-21.837080 -6.381476 3.603312
-8.887393 -2.595488 -0.810025
-8.660764 -2.526024 -0.472803
-12.257971 -3.572872 -0.222867
-7.577947 -2.195862 -2.114034
-11.249446 -3.259752 0.204437
-8.505626 -2.463066 -2.044355
-11.106416 -3.214105 0.605946
-10.142738 -2.933306 -2.052342
-12.177208 -3.519377 1.108970
-8.776906 -2.536644 -1.447019
-12.020699 -3.471871 1.536285
-8.902974 -2.569713 -1.137772
-22.011065 -6.349003 3.628341
-8.913629 -2.569416 -0.811594
-8.684446 -2.501713 -0.473640
-12.266524 -3.528956 -0.222797
-21.954802 -6.312034 6.121071
-7.583330 -2.170189 -2.113516
-11.337661 -3.242458 0.205834
-8.508551 -2.431755 -2.043005
-12.757006 -3.645969 0.695336
-10.176951 -2.906664 -2.057303
-12.204139 -3.483351 1.110364
-8.783808 -2.505450 -1.446706
-11.956383 -3.408123 1.526536
-8.911890 -2.538620 -1.137772
-8.906770 -2.535479 -0.810200
-8.696968 -2.472475 -0.473850
-11.612603 -3.299173 -0.210720
-7.611310 -2.149480 -2.119210
-11.588905 -3.272777 0.210197
-8.417168 -2.375475 -2.019161
-13.169488 -3.714180 0.717107
-10.181367 -2.869525 -2.056158
-11.721437 -3.301374 1.065392
-8.803475 -2.479522 -1.448583
-11.279715 -3.174834 1.438790
-8.920259 -2.509052 -1.137772
-8.806231 -2.473662 -0.800264
-8.822419 -2.476548 -0.480235
-11.493116 -3.221915 -0.208347
-7.635143 -2.128897 -2.123869
-15.408579 -4.293460 0.279204
-8.374721 -2.331963 -2.007013
-12.555099 -3.493639 0.682984
-10.215414 -2.842587 -2.061119
-12.281312 -3.415148 1.115245
-8.825400 -2.452477 -1.450773
-11.294554 -3.136503 1.439277
-8.921311 -2.475778 -1.136797
-8.753371 -2.425880 -0.794686
-8.931099 -2.473459 -0.485678
-11.523565 -3.187107 -0.208696
-7.646620 -2.101925 -2.124904
-12.099298 -3.325889 0.219028
-8.382810 -2.302715 -2.007013
-12.218610 -3.354100 0.664039
-10.250378 -2.811879 -2.066080
-12.013208 -3.293204 1.089795
-8.841950 -2.422204 -1.452025
-12.243564 -3.354057 1.558709
-8.933730 -2.445668 -1.137285
-12.398206 -3.391766 2.035838
-8.784848 -2.401615 -0.796778
-8.845695 -2.414931 -0.480549
-12.217554 -3.333179 -0.221052
-7.631537 -2.069152 -2.118693
-12.454965 -3.374606 0.225241
-8.402478 -2.275032 -2.009713
-12.077944 -3.270192 0.655770
-10.273396 -2.779670 -2.068751
-11.582266 -3.131645 1.049704
-8.865607 -2.395447 -1.454528
-12.577741 -3.396090 1.599657
-8.961799 -2.418079 -1.139722
-12.268839 -3.310387 2.012686
-8.747010 -2.358487 -0.792594
-8.857927 -2.385077 -0.480758
-12.468560 -3.354939 -0.225380
-7.648044 -2.044997 -2.121281
-12.514382 -3.346199 0.226113
-8.425038 -2.251180 -2.013312
-12.533107 -3.346515 0.679844
-10.319077 -2.753409 -2.076002
-11.889596 -3.170246 1.076548
-8.900224 -2.373159 -1.458908
-12.331900 -3.285874 1.566996
-8.929485 -2.377621 -1.134604
-12.566662 -3.343733 2.059616
-8.853389 -2.354050 -0.801484
-12.274666 -3.261448 -0.665609
-12.426077 -3.297036 -0.224403
-7.658519 -2.020609 -2.122316
-12.562726 -3.312181 0.226777
-8.429076 -2.220765 -2.012412
-11.785655 -3.102903 0.638708
-10.371819 -2.730671 -2.084779
-12.289262 -3.233201 1.111759
-8.927559 -2.347099 -1.462037
-11.506200 -3.022887 1.460726
-8.780287 -2.305105 -1.114617
-12.402472 -3.253727 2.030833
-8.768642 -2.300410 -0.793117
-11.748862 -3.077876 -0.636510
-23.608513 -6.180367 5.634124
-14.971828 -3.916615 -0.270128
-7.673005 -1.995809 -2.124387
-12.860649 -3.342760 0.231942
-8.502793 -2.208473 -2.028159
-13.120659 -3.405453 0.710408
-10.440196 -2.709742 -2.096609
-11.644756 -3.020215 1.052493
-8.954820 -2.320876 -1.465165
-12.719659 -3.294266 1.613307
-8.809419 -2.279912 -1.117298
-12.394630 -3.205468 2.027704
-8.751543 -2.263302 -0.790851
-12.045740 -3.110757 -0.652001
-23.818636 -6.146613 5.679114
-12.123484 -3.126320 -0.218539
-7.698637 -1.973810 -2.129563
-12.535176 -3.211495 0.225869
-8.635048 -2.210680 -2.057852
-11.680737 -2.990413 0.631904
-11.763327 -3.007180 1.062254
-9.020284 -2.304273 -1.474551
-12.454108 -3.179144 1.578208
-8.755773 -2.233445 -1.109499
-12.382222 -3.158489 2.023949
-8.782557 -2.238647 -0.792943
-16.248922 -4.135757 -0.878721
-12.011692 -3.055047 -0.216340
-7.696115 -1.944560 -2.126975
-11.915659 -3.010703 0.214525
-8.768925 -2.213995 -2.087996
-11.691104 -2.949621 0.631904
-11.959225 -3.012828 1.078988
-8.321047 -2.096280 -1.359103
-18.664005 -4.695002 -2.363047
-12.600076 -3.167259 2.057739
-12.486929 -3.136501 -1.126401
-11.566847 -2.903243 -0.624996
-12.487811 -3.129773 -0.224717
-7.693149 -1.916693 -2.124387
-8.905194 -2.215362 -2.118589
-11.712959 -2.911685 0.632532
-10.532325 -2.618195 -2.109584
-11.930478 -2.963546 1.075502
-8.295720 -2.059131 -1.353784
-12.406097 -3.077094 1.569433
-18.676428 -4.628869 -2.362559
-12.524771 -3.101888 2.043660
-12.599761 -3.120460 -1.135639
-16.078932 -3.976156 -0.868044
-15.952390 -3.938956 -0.286813
-7.720430 -1.894892 -2.130081
-12.726839 -3.121301 0.228731
-9.037793 -2.214877 -2.148283
-12.041200 -2.948693 0.649699
-10.570003 -2.588421 -2.115309
-11.913656 -2.915253 1.073061
-8.293263 -2.027815 -1.352220
-12.432190 -3.037542 1.571383
-18.734896 -4.574005 -2.367921
-12.312907 -3.003840 2.007367
-12.548637 -3.061349 -1.130061
-11.699383 -2.849839 -0.631067
-15.810598 -3.845440 -0.284020
-7.728876 -1.868383 -2.130599
-12.088431 -2.920032 0.217073
-9.159128 -2.210752 -2.175277
-12.497985 -3.014346 0.673773
-8.411240 -2.027124 -1.681790
-12.117454 -2.920329 1.090493
-8.313734 -2.002092 -1.354410
-12.361657 -2.974618 1.561146
-8.893819 -2.138501 -1.123148
-12.434717 -2.987610 2.025514
-25.412085 -6.100902 -2.286444
-12.124627 -2.908628 2.423656
-16.134163 -3.867519 -0.869510
-12.323487 -2.951784 -0.221192
-7.745069 -1.842280 -2.133187
-12.803321 -3.043100 0.229709
-9.273347 -2.202382 -2.200471
-12.186362 -2.891967 0.656398
-8.376586 -1.986316 -1.673395
-12.857001 -3.048744 1.156034
-8.355616 -1.979803 -1.360041
-12.299072 -2.911914 1.551884
-8.961483 -2.120056 -1.130704
-12.464808 -2.946556 2.028642
-25.678593 -6.065436 -2.308407
-12.257495 -2.893032 2.448080
-8.520249 -2.009392 -0.458777
-12.633965 -2.977235 -0.226567
-7.746126 -1.812558 -2.131634
-14.991336 -3.505148 0.268732
-9.296537 -2.171927 -2.204070
-12.118587 -2.831236 0.652211
-8.391117 -1.958850 -1.674922
-11.983309 -2.795221 1.076548
-8.393597 -1.956342 -1.365047
-12.472065 -2.904634 1.572358
-9.114199 -2.120942 -1.148984
-12.290318 -2.860049 1.998607
-8.820110 -2.050881 -0.792246
-12.221623 -2.839564 2.438921
-8.507754 -1.975123 -0.457730
-12.511820 -2.902385 -0.224194
-7.758054 -1.786810 -2.133187
-14.784626 -3.405148 0.264823
-9.320782 -2.145020 -2.208120
-11.182418 -2.571387 0.601340
-8.422777 -1.935264 -1.679883
-11.989110 -2.752482 1.076199
-8.450096 -1.939989 -1.373182
-11.785087 -2.703474 1.484612
-8.869643 -2.033050 -1.117298
-12.296373 -2.816248 1.997981
-8.854405 -2.026303 -0.794686
-12.192697 -2.790260 2.431288
-8.457795 -1.933988 -0.454695
-12.658342 -2.889848 -0.226637
-7.760168 -1.760219 -2.132151
-12.670667 -2.871730 0.226777
-9.324410 -2.111610 -2.207220
-11.155820 -2.526352 0.599456
-8.448297 -1.911655 -1.683699
-11.671692 -2.638894 1.046915
-13.491598 -3.047888 -2.190708
-11.751852 -2.652706 1.479250
-8.710152 -1.964516 -1.096337
-8.777500 -1.978094 -0.787191
-8.439163 -1.898754 -0.453334
-15.637280 -3.515410 -0.279762
-7.760609 -1.731858 -2.130599
-12.551309 -2.800950 0.224473
-9.337069 -2.081950 -2.208570
-12.408327 -2.764496 0.666237
-10.639552 -2.368475 -2.118743
-12.027018 -2.675137 1.077942
-13.409076 -2.982544 -2.175691
-11.752832 -2.611998 1.478275
-8.842582 -1.963593 -1.112180
-8.772680 -1.944857 -0.786145
-8.439563 -1.869462 -0.453020
-18.480612 -4.086905 -0.330374
-7.776042 -1.706828 -2.133187
-12.252873 -2.687247 0.218958
-9.359865 -2.051051 -2.212169
-12.983683 -2.845147 0.696592
-10.624741 -2.326283 -2.114164
-11.931177 -2.610145 1.068529
-13.549214 -2.961640 -2.196653
-12.041597 -2.629897 1.513374
-8.824506 -1.925668 -1.109011
-8.623683 -1.880268 -0.772200
-12.451439 -2.712577 2.477082
-8.471728 -1.844037 -0.454381
-11.686973 -2.541764 -0.208766
-7.763068 -1.675600 -2.128010
-12.406363 -2.677820 0.221541
-9.381854 -2.023287 -2.215768
-12.079790 -2.602917 0.647605
-10.625118 -2.287531 -2.112637
-11.764912 -2.530771 1.052841
-8.537839 -1.836590 -1.383194
-12.481104 -2.682553 1.567484
-8.815316 -1.893061 -1.107061
-8.526943 -1.828019 -0.762961
-12.406615 -2.659749 2.466397
-8.501233 -1.820953 -0.455637
-12.094693 -2.586256 -0.215886
-7.761024 -1.648242 -2.125940
-12.720794 -2.699250 0.226986
-9.385047 -1.989717 -2.214868
-12.104432 -2.564048 0.648443
-10.628806 -2.251470 -2.111874
-12.790728 -2.707088 1.143832
-8.505545 -1.798602 -1.376936
-11.379444 -2.404251 1.428065
-8.715045 -1.839725 -1.093655
-8.558303 -1.805077 -0.765227
-12.976774 -2.734639 2.577830
-8.575941 -1.805671 -0.459300
-12.142785 -2.552250 -0.216584
-7.778076 -1.623509 -2.129046
-11.990174 -2.500509 0.213792
-9.382396 -1.954960 -2.212619
-12.766392 -2.657740 0.683403
-10.746156 -2.237162 -2.133626
-11.863792 -2.467672 1.060162
-8.498233 -1.766089 -1.374746
-8.816656 -1.829051 -1.105599
-8.472857 -1.756189 -0.757035
-8.617397 -1.783009 -0.461184
-12.186872 -2.517126 -0.217213
-7.791266 -1.597899 -2.131116
-12.014501 -2.461854 0.214071
-9.389163 -1.922197 -2.212619
-12.722304 -2.604574 0.680577
-8.584271 -1.755852 -1.703161
-16.235153 -3.317838 1.449749
-8.492733 -1.734043 -1.372869
-16.270206 -3.319082 2.038874
-8.760742 -1.785580 -1.097799
-8.488697 -1.728590 -0.757906
-8.590296 -1.746154 -0.459405
-16.241911 -3.298554 -0.289291
-7.796795 -1.570694 -2.131116
-13.402658 -2.700017 0.238644
-8.560629 -1.723017 -2.016011
-11.906974 -2.394381 0.636510
-8.578798 -1.723558 -1.700871
-11.976448 -2.404003 1.068704
-8.482943 -1.702760 -1.370366
-12.018641 -2.410287 1.505087
-8.577814 -1.718689 -1.074156
-16.312977 -3.265579 2.634982
-8.576735 -1.715357 -0.765227
-12.293933 -2.452107 -0.218818
-7.786801 -1.541829 -2.126975
-12.132988 -2.400196 0.215886
-8.578061 -1.695391 -2.018711
-12.348293 -2.438311 0.659642
-8.551723 -1.688635 -1.694384
-12.082089 -2.383555 1.077419
-8.512092 -1.677722 -1.374120
-12.650242 -2.491053 1.583083
-8.538963 -1.679923 -1.068550
-8.561165 -1.681185 -0.763310
-20.063452 -3.936296 -1.071527
-29.665916 -5.809466 -0.527656
-7.798089 -1.514383 -2.128528
-12.037252 -2.337625 0.214036
-8.612623 -1.671007 -2.025459
-12.482217 -2.419516 0.666341
-8.569420 -1.659519 -1.696674
-8.545337 -1.651761 -1.378501
-12.027379 -2.324818 1.504112
-8.833239 -1.705812 -1.104624
-8.578720 -1.653555 -0.764356
-29.459244 -5.672960 5.831505
-30.135250 -5.797677 -1.608284
-30.039486 -5.773824 -0.533939
-7.797635 -1.486070 -2.126975
-12.085027 -2.300971 0.214734
-8.609118 -1.637606 -2.023210
-8.602162 -1.634729 -1.702016
-13.626174 -2.584547 -2.196653
-8.862838 -1.677856 -1.107549
-8.470893 -1.602124 -0.754246
-19.863443 -3.749648 -1.059384
-12.405397 -2.339541 -0.220354
-7.787583 -1.456000 -2.122834
-12.122074 -2.266394 0.215258
-9.413310 -1.758252 -2.210819
-13.407845 -2.501948 0.714805
-11.709333 -2.182882 -2.315277
-14.337669 -2.670274 -2.309911
-12.941051 -2.407832 1.616231
-8.825417 -1.640475 -1.102186
-8.482312 -1.573635 -0.754769
-12.205057 -2.257668 -0.216654
-7.811369 -1.433656 -2.128010
-12.240060 -2.244262 0.217213
-9.446227 -1.730301 -2.217118
-11.735819 -2.147577 -2.319093
-12.819758 -2.343616 1.140171
-14.374106 -2.625181 -2.314292
-12.918132 -2.356940 1.612332
-8.848665 -1.612862 -1.104380
-8.683775 -1.579675 -0.772200
-31.859734 -5.789896 -1.697046
-12.590641 -2.283568 -0.223356
-7.801360 -1.402282 -2.123869
-20.703003 -3.721331 0.367164
-9.463717 -1.699383 -2.219817
-11.762937 -2.108009 -2.322909
-12.828262 -2.296616 1.140171
-14.393355 -2.574215 -2.315856
-12.922373 -2.311134 1.611844
-8.883553 -1.587201 -1.108036
-8.769655 -1.563693 -0.779347
-32.014454 -5.696879 -1.704164
-12.649725 -2.248704 -0.224263
-7.806208 -1.375041 -2.123869
-20.964653 -3.689092 0.371562
-9.466044 -1.664008 -2.218917
-11.770223 -2.066938 -2.322909
-12.895074 -2.262147 1.145401
