# This PCD file was generated using the MATLAB® pcwrite function
# from Computer Vision Toolbox®.
# .PCD v.7 - Point Cloud Data file format
VERSION .7
FIELDS x y z
SIZE 4 4 4
TYPE F F F
COUNT 1 1 1
WIDTH 1625
HEIGHT 1
VIEWPOINT 0 0 0 1 0 0 0
POINTS 1625
DATA ascii
0.009114 -0.629071 -0.032972
0.130130 -9.091891 2.099243
0.009640 -0.681828 -0.011903
0.126045 -9.026663 2.418923
0.006178 -0.484855 -0.129927
0.008267 -0.657848 0.011484
0.008686 -0.721193 0.063101
0.008698 -0.732813 -0.116074
0.010861 -0.942856 -0.115776
0.103487 -9.121702 1.444829
0.010329 -0.910463 -0.079660
0.101642 -9.099117 1.768800
0.006918 -0.629099 -0.032972
0.071949 -6.648713 1.535066
0.007217 -0.677858 -0.011833
0.094534 -9.027048 2.418923
0.004664 -0.504192 -0.135104
0.006080 -0.669870 0.011693
0.006362 -0.728972 0.038205
0.006066 -0.709265 0.062055
0.006239 -0.744691 -0.117952
0.064858 -7.906357 0.970811
0.006996 -0.871427 -0.107001
0.057218 -7.284965 1.153861
0.006447 -0.820839 -0.071816
0.069851 -9.095490 1.768036
0.004782 -0.637108 -0.033390
0.048841 -6.662563 1.538215
0.004808 -0.671880 -0.011728
0.063024 -9.027323 2.418923
0.002815 -0.488750 -0.130962
0.003786 -0.677886 0.011833
0.003838 -0.732984 0.038415
0.003449 -0.681388 0.059615
0.003717 -0.760511 -0.120455
0.035856 -7.608775 0.934250
0.004261 -0.938939 -0.115288
0.039769 -9.114302 1.443577
0.003564 -0.816872 -0.071468
0.038109 -9.097641 1.768418
0.002526 -0.629132 -0.032972
0.034824 -9.069370 2.093844
0.002426 -0.661895 -0.011553
0.022719 -6.508369 1.743923
0.001170 -0.515803 -0.138209
0.001378 -0.657898 0.011484
0.001217 -0.697042 0.036530
0.001064 -0.677412 0.059266
0.001056 -0.756569 -0.119829
0.011117 -9.099656 1.117298
0.000929 -0.887336 -0.108951
0.005854 -6.708377 1.062503
0.000683 -0.783009 -0.068504
0.006338 -9.078086 1.764602
0.000333 -0.635128 -0.033286
0.003166 -9.069436 2.093844
0.000118 -0.673897 -0.011763
-0.000000 -6.487158 1.738229
-0.000621 -0.508077 -0.136139
-0.000907 -0.649900 0.011344
-0.001217 -0.697042 0.036530
-0.001324 -0.689366 0.060312
-0.001576 -0.752617 -0.119203
-0.020628 -9.091701 1.116323
-0.002168 -0.887334 -0.108951
-0.023799 -9.090653 1.439823
-0.002071 -0.790976 -0.069202
-0.025372 -9.085906 1.766128
-0.001861 -0.627137 -0.032867
-0.028462 -9.059649 2.091595
-0.002221 -0.669894 -0.011693
-0.022637 -6.485187 1.737711
-0.002412 -0.511935 -0.137174
-0.003244 -0.663891 0.011588
-0.003566 -0.681056 0.035693
-0.003751 -0.693341 0.060660
-0.004203 -0.752607 -0.119203
-0.043377 -7.531315 0.924745
-0.005124 -0.863500 -0.106026
-0.055508 -9.086564 1.439197
-0.004029 -0.659469 -0.057697
-0.057088 -9.085762 1.766128
-0.004011 -0.621135 -0.032553
-0.059982 -9.043904 2.087996
-0.004478 -0.657885 -0.011484
-0.045828 -6.564272 1.758934
-0.004168 -0.508060 -0.136139
-0.005578 -0.665875 0.011623
-0.005943 -0.681039 0.035693
-0.006278 -0.705278 0.061706
-0.007010 -0.772341 -0.122332
-0.069850 -7.550968 0.927182
-0.008288 -0.879357 -0.107976
-0.087168 -9.080388 1.438259
-0.006809 -0.709258 -0.062055
-0.062246 -6.368493 1.237969
-0.006279 -0.631103 -0.033076
-0.091392 -9.028051 2.084397
-0.006569 -0.637869 -0.011135
-0.094393 -9.013526 2.415299
-0.007666 -0.645856 0.011274
-0.008272 -0.677020 0.035484
-0.008197 -0.661423 0.057871
-0.009457 -0.752559 -0.119203
-0.115807 -9.089000 1.116079
-0.012024 -0.930931 -0.114313
-0.118786 -9.074104 1.437320
-0.011527 -0.880561 -0.077046
-0.120152 -9.057659 1.760786
-0.008616 -0.641062 -0.033600
-0.122826 -9.021831 2.083047
-0.008906 -0.645840 -0.011274
-0.125531 -8.989962 2.409088
-0.009889 -0.643826 0.011239
-0.010548 -0.678986 0.035588
-0.010379 -0.653421 0.057174
-0.011830 -0.736721 -0.116700
-0.147470 -9.084571 1.115592
-0.015599 -0.950731 -0.116751
-0.148908 -9.075635 1.437633
-0.014964 -0.902428 -0.078963
-0.152032 -9.072887 1.763838
-0.010718 -0.633040 -0.033181
-0.154285 -9.019399 2.082597
-0.011184 -0.653805 -0.011414
-0.155209 -8.981770 2.407017
-0.009199 -0.492536 -0.131998
-0.012024 -0.643790 0.011239
-0.012804 -0.672955 0.035274
-0.012968 -0.669317 0.058569
-0.014044 -0.724827 -0.114823
-0.177206 -9.064185 1.113155
-0.018752 -0.950674 -0.116751
-0.180510 -9.071111 1.437007
-0.018314 -0.912331 -0.079835
-0.181960 -9.064483 1.762312
-0.012898 -0.636995 -0.033390
-0.184034 -9.011045 2.080797
-0.013425 -0.651762 -0.011379
-0.186559 -8.981174 2.407017
-0.011002 -0.500229 -0.134068
-0.014582 -0.657738 0.011484
-0.014748 -0.654935 0.034332
-0.015143 -0.667279 0.058394
-0.016664 -0.728724 -0.115449
-0.208662 -9.055573 1.112180
-0.021609 -0.930757 -0.114313
-0.165562 -7.077815 1.121322
-0.020827 -0.890355 -0.077917
-0.213415 -9.055942 1.760786
-0.014790 -0.622969 -0.032658
-0.215440 -9.008399 2.080347
-0.015266 -0.633720 -0.011065
-0.217863 -8.978536 2.406500
-0.012453 -0.488600 -0.130962
-0.016775 -0.653685 0.011414
-0.017242 -0.662866 0.034751
-0.017315 -0.661247 0.057871
-0.019728 -0.748408 -0.118577
-0.024222 -0.906864 -0.111389
-0.243408 -9.053831 1.434504
-0.025969 -0.965960 -0.084541
-0.245025 -9.055141 1.760786
-0.017073 -0.626907 -0.032867
-0.246350 -8.988112 2.075848
-0.017313 -0.627666 -0.010960
-0.249309 -8.981582 2.407535
-0.018649 -0.639631 0.011170
-0.019791 -0.670787 0.035170
-0.019801 -0.667157 0.058394
-0.021987 -0.736487 -0.116700
-0.272353 -9.069769 1.114130
-0.027627 -0.914710 -0.112364
-0.208732 -6.871142 1.088784
-0.019662 -0.647228 -0.056651
-0.276572 -9.052269 1.760404
-0.019384 -0.630836 -0.033076
-0.278085 -8.998885 2.078548
-0.019814 -0.637595 -0.011135
-0.280298 -8.969072 2.404429
-0.015738 -0.484639 -0.129927
-0.021077 -0.645558 0.011274
-0.022264 -0.674706 0.035379
-0.022129 -0.667084 0.058394
-0.024689 -0.740355 -0.117326
-0.224333 -6.691957 0.822131
-0.030486 -0.904689 -0.111145
-0.233517 -6.894062 1.092538
-0.023270 -0.686980 -0.060137
-0.307967 -9.045362 1.759259
-0.022064 -0.644737 -0.033809
-0.309294 -8.992016 2.077198
-0.022662 -0.655509 -0.011449
-0.311469 -8.964178 2.403394
-0.023186 -0.641483 0.011204
-0.024474 -0.670633 0.035170
-0.024750 -0.674966 0.059092
-0.026837 -0.728420 -0.115449
-0.335591 -9.065662 1.113886
-0.033791 -0.908544 -0.111632
-0.338868 -9.068552 1.437320
-0.024179 -0.647075 -0.056651
-0.339246 -9.036385 1.757733
-0.023637 -0.626694 -0.032867
-0.252135 -6.654070 1.537315
-0.024417 -0.641438 -0.011204
-0.342757 -8.963036 2.403394
-0.025583 -0.645395 0.011274
-0.026655 -0.666552 0.034960
-0.027186 -0.676867 0.059266
-0.029698 -0.736217 -0.116700
-0.366913 -9.056502 1.112911
-0.035429 -0.870735 -0.107001
-0.369876 -9.051524 1.434817
-0.026682 -0.652959 -0.057174
-0.370786 -9.035145 1.757733
-0.025989 -0.630599 -0.033076
-0.371175 -8.968220 2.072249
-0.025992 -0.625365 -0.010925
-0.373963 -8.959854 2.402876
-0.027577 -0.639308 0.011170
-0.028808 -0.662464 0.034751
-0.029461 -0.674777 0.059092
-0.033479 -0.763737 -0.121080
-0.276505 -6.282691 0.772164
-0.037942 -0.858707 -0.105539
-0.400944 -9.038338 1.432940
-0.028961 -0.652862 -0.057174
-0.402322 -9.033796 1.757733
-0.028368 -0.634494 -0.033286
-0.402740 -8.972710 2.073599
-0.028265 -0.627268 -0.010960
-0.405236 -8.958495 2.402876
-0.029902 -0.641205 0.011204
-0.031495 -0.670340 0.035170
-0.031066 -0.658749 0.057697
-0.034464 -0.728099 -0.115449
-0.297304 -6.257893 0.769239
-0.040561 -0.850638 -0.104564
-0.290091 -6.061419 0.961133
-0.030859 -0.644796 -0.056477
-0.434890 -9.053906 1.761930
-0.030871 -0.640376 -0.033600
-0.433588 -8.961517 2.071349
-0.029969 -0.617179 -0.010786
-0.436316 -8.953167 2.401841
-0.032040 -0.639100 0.011170
-0.034036 -0.674215 0.035379
-0.032458 -0.640728 0.056128
-0.036604 -0.720083 -0.114197
-0.462135 -9.060093 1.113886
-0.043328 -0.846526 -0.104076
-0.463932 -9.033344 1.432627
-0.033416 -0.650654 -0.057000
-0.464773 -9.019003 1.755443
-0.032797 -0.634281 -0.033286
-0.465372 -8.969680 2.073599
-0.034202 -0.657010 -0.011484
-0.467062 -8.941943 2.399253
-0.033842 -0.630997 0.011030
-0.035959 -0.666115 0.034960
-0.034586 -0.638621 0.055954
-0.038688 -0.712061 -0.112946
-0.493109 -9.046533 1.112423
-0.045415 -0.830513 -0.102127
-0.495353 -9.029698 1.432314
-0.035469 -0.646554 -0.056651
-0.496686 -9.025167 1.756969
-0.034571 -0.626186 -0.032867
-0.496570 -8.966055 2.073149
-0.035719 -0.642910 -0.011239
-0.498272 -8.940259 2.399253
-0.036387 -0.636864 0.011135
-0.039659 -0.689913 0.036216
-0.037274 -0.646453 0.056651
-0.041858 -0.723754 -0.114823
-0.524110 -9.034846 1.111205
-0.049006 -0.842240 -0.103589
-0.354469 -6.073826 0.963636
-0.037842 -0.648416 -0.056826
-0.527956 -9.019458 1.756206
-0.036756 -0.626061 -0.032867
-0.526834 -8.946758 2.069100
-0.037491 -0.634797 -0.011100
-0.529591 -8.940392 2.399770
-0.039094 -0.644717 0.011274
-0.040851 -0.669835 0.035170
-0.040260 -0.658251 0.057697
-0.045110 -0.735433 -0.116700
-0.409512 -6.657327 0.818962
-0.049990 -0.810362 -0.099689
-0.560576 -9.061509 1.437946
-0.040843 -0.660211 -0.057871
-0.559679 -9.021479 1.756969
-0.039189 -0.629916 -0.033076
-0.558061 -8.944864 2.069100
-0.039083 -0.624683 -0.010925
-0.560795 -8.938490 2.399770
-0.041856 -0.652559 0.011414
-0.046017 -0.713536 0.037473
-0.041529 -0.642200 0.056303
-0.048444 -0.747099 -0.118577
-0.587430 -9.034930 1.111692
-0.052818 -0.810183 -0.099689
-0.589239 -9.014160 1.430750
-0.042107 -0.644159 -0.056477
-0.591168 -9.019470 1.756969
-0.041519 -0.631768 -0.033181
-0.589793 -8.950640 2.070899
-0.040604 -0.614566 -0.010751
-0.591866 -8.934550 2.399253
-0.043054 -0.636448 0.011135
-0.045798 -0.673518 0.035379
-0.043906 -0.644039 0.056477
-0.050243 -0.735101 -0.116700
-0.619371 -9.038765 1.112423
-0.054830 -0.798111 -0.098227
-0.621108 -9.017961 1.431688
-0.044356 -0.644008 -0.056477
-0.621295 -8.997766 1.753153
-0.043862 -0.633612 -0.033286
-0.620764 -8.944639 2.070000
-0.045802 -0.658308 -0.011519
-0.622647 -8.926649 2.397700
-0.045417 -0.638289 0.011170
-0.050000 -0.699253 0.036740
-0.049288 -0.687603 0.060312
-0.053092 -0.738861 -0.117326
-0.649349 -9.014770 1.109742
-0.057329 -0.793955 -0.097739
-0.654579 -9.043321 1.436069
-0.047467 -0.655773 -0.057523
-0.653552 -9.007291 1.755443
-0.045494 -0.625487 -0.032867
-0.652266 -8.946304 2.070899
-0.047954 -0.656150 -0.011484
-0.654366 -8.932127 2.399770
-0.048538 -0.650091 0.011379
-0.051843 -0.691107 0.036321
-0.050493 -0.671532 0.058917
-0.055077 -0.730792 -0.116074
-0.681412 -9.020366 1.110717
-0.060100 -0.793750 -0.097739
-0.684497 -9.019313 1.432627
-0.049454 -0.651630 -0.057174
-0.685287 -9.008870 1.756206
-0.047677 -0.625324 -0.032867
-0.683342 -8.942030 2.070450
-0.048870 -0.638034 -0.011170
-0.685690 -8.931715 2.400288
-0.052522 -0.671848 0.011763
-0.054568 -0.694904 0.036530
-0.054087 -0.687242 0.060312
-0.058559 -0.742411 -0.117952
-0.712581 -9.013974 1.110230
-0.060989 -0.769789 -0.094814
-0.715821 -9.014899 1.432314
-0.052044 -0.655425 -0.057523
-0.715794 -8.994680 1.753916
-0.050177 -0.629136 -0.033076
-0.713620 -8.927936 2.067750
-0.050937 -0.635866 -0.011135
-0.716554 -8.925416 2.399253
-0.053238 -0.651730 0.011414
-0.058300 -0.710634 0.037368
-0.056812 -0.691020 0.060660
-0.061799 -0.750077 -0.119203
-0.744368 -9.015388 1.110717
-0.064003 -0.773528 -0.095302
-0.745325 -8.988723 1.428560
-0.053672 -0.647298 -0.056826
-0.748327 -9.005823 1.756588
-0.052539 -0.630947 -0.033181
-0.745427 -8.933159 2.069550
-0.051990 -0.621735 -0.010890
-0.747544 -8.920935 2.398735
-0.054834 -0.643570 0.011274
-0.056354 -0.658687 0.034646
-0.057182 -0.666996 0.058569
-0.061712 -0.718367 -0.114197
-0.775663 -9.010757 1.110474
-0.065338 -0.757478 -0.093352
-0.778738 -9.009683 1.432314
-0.055245 -0.639166 -0.056128
-0.778064 -8.983597 1.752772
-0.055259 -0.636730 -0.033495
-0.776775 -8.932443 2.070000
-0.057805 -0.663385 -0.011623
-0.778510 -8.916348 2.398217
-0.057787 -0.651342 0.011414
-0.061842 -0.694295 0.036530
-0.061281 -0.686638 0.060312
-0.063515 -0.710277 -0.112946
-0.805339 -8.988222 1.108036
-0.068692 -0.765154 -0.094327
-0.808414 -8.987236 1.429186
-0.058190 -0.646907 -0.056826
-0.810827 -8.996469 1.755824
-0.056403 -0.624598 -0.032867
-0.808652 -8.937440 2.071799
-0.060121 -0.663179 -0.011623
-0.810329 -8.921270 2.400288
-0.061046 -0.663094 0.011623
-0.068555 -0.741817 0.039043
-0.063925 -0.690398 0.060660
-0.068790 -0.741533 -0.117952
-0.836243 -8.997362 1.109499
-0.071229 -0.764921 -0.094327
-0.838946 -8.992373 1.430437
-0.061631 -0.660597 -0.058046
-0.839377 -8.980047 1.753153
-0.058847 -0.628384 -0.033076
-0.837376 -8.925009 2.069550
-0.062319 -0.662976 -0.011623
-0.840271 -8.922381 2.401323
-0.062600 -0.654915 0.011484
-0.074959 -0.781335 0.041136
-0.065572 -0.682238 0.059963
-0.067970 -0.705895 -0.112320
-0.870884 -9.027979 1.113642
-0.073899 -0.764668 -0.094327
-0.662456 -6.842318 1.088784
-0.062592 -0.646496 -0.056826
-0.870909 -8.979017 1.753535
-0.061040 -0.628175 -0.033076
-0.867957 -8.916212 2.068200
-0.062498 -0.640862 -0.011239
-0.871222 -8.917470 2.400805
-0.067252 -0.678572 0.011903
-0.069138 -0.693901 0.061009
-0.071218 -0.713516 -0.113571
-0.633987 -6.340529 0.782401
-0.076172 -0.760455 -0.093839
-0.901309 -8.982366 1.429811
-0.064252 -0.640326 -0.056303
-0.901656 -8.970061 1.752390
-0.063232 -0.627958 -0.033076
-0.898880 -8.911190 2.067750
-0.067549 -0.668494 -0.011728
-0.901567 -8.906687 2.398735
-0.067170 -0.654462 0.011484
-0.071969 -0.697619 0.061358
-0.069241 -0.670035 -0.106688
-0.930824 -8.992062 1.109986
-0.079235 -0.764134 -0.094327
-0.932454 -8.977200 1.429498
-0.067104 -0.646043 -0.056826
-0.932961 -8.966859 1.752390
-0.065838 -0.631707 -0.033286
-0.930993 -8.917688 2.070000
-0.068843 -0.658309 -0.011553
-0.932652 -8.903486 2.398735
-0.071988 -0.678086 0.011903
-0.966541 -9.074146 0.478246
-0.076940 -0.721137 0.063449
-0.070320 -0.658004 -0.104811
-0.961152 -8.978889 1.108767
-0.081479 -0.759905 -0.093839
-0.963995 -8.975854 1.429811
-0.070422 -0.655710 -0.057697
-0.964887 -8.969405 1.753535
-0.067401 -0.625516 -0.032972
-0.962533 -8.918260 2.070899
-0.073504 -0.679934 -0.011937
-0.963933 -8.902097 2.399253
-0.994514 -9.066228 0.159201
-0.990784 -9.003218 0.474687
-0.078147 -0.708982 0.062404
-0.076519 -0.693097 -0.110443
-0.992487 -8.975479 1.108767
-0.081946 -0.739886 -0.091402
-0.995757 -8.976361 1.430437
-0.072491 -0.653480 -0.057523
-0.995756 -8.962080 1.752772
-0.069363 -0.623292 -0.032867
-0.991932 -8.899351 2.067300
-0.073880 -0.661787 -0.011623
-0.995860 -8.906358 2.401323
-1.024806 -9.050779 0.158991
-1.020401 -8.983829 0.473850
-0.077469 -0.680990 0.059963
-0.077149 -0.677124 -0.107940
-1.025386 -8.985765 1.110474
-0.084979 -0.743540 -0.091889
-1.026859 -8.970868 1.430124
-0.075452 -0.659161 -0.058046
-1.027034 -8.958549 1.752772
-0.072449 -0.630983 -0.033286
-1.022989 -8.895834 2.067300
-0.072987 -0.633714 -0.011135
-1.027164 -8.904746 2.401841
-1.060103 -9.078926 0.159550
-1.063604 -9.081380 0.479188
-0.078917 -0.672800 0.059266
-0.079973 -0.680775 -0.108566
-1.063242 -9.037333 1.117298
-0.087573 -0.743238 -0.091889
-1.061639 -8.996656 1.434817
-0.076351 -0.647022 -0.057000
-1.061063 -8.978305 1.757351
-0.074886 -0.632709 -0.033390
-1.054495 -8.896080 2.068200
-0.075670 -0.637427 -0.011204
-1.057329 -8.893433 2.399770
-1.091311 -9.071199 0.159480
-1.094579 -9.071664 0.478874
-1.096119 -9.071114 0.799393
-0.077602 -0.641270 -0.102308
-1.101707 -9.090716 1.124367
-0.089211 -0.735046 -0.090915
-1.106862 -9.106630 1.452963
-0.077167 -0.634885 -0.055954
-1.102122 -9.054451 1.772997
-0.077578 -0.636409 -0.033600
-1.086250 -8.898149 2.069550
-1.114062 -9.112756 -0.160248
-1.087427 -8.882018 2.397700
-1.128699 -9.087607 0.479921
-1.128268 -9.071186 0.799741
-0.083747 -0.672359 -0.107314
-1.131467 -9.071056 1.122417
-0.091284 -0.730790 -0.090427
-1.135700 -9.079190 1.449209
-0.081608 -0.652404 -0.057523
-1.136163 -9.070027 1.776813
-0.078058 -0.622262 -0.032867
-1.117060 -8.892368 2.069100
-1.143869 -9.092938 -0.159969
-1.119632 -8.887752 2.400288
-1.157644 -9.087164 0.159899
-1.159909 -9.079650 0.479711
-1.164982 -9.106718 0.803227
-0.082077 -0.640712 -0.102308
-1.164135 -9.074928 1.123392
-0.094340 -0.734405 -0.090915
-1.173938 -9.126109 1.457344
-0.084648 -0.658044 -0.058046
-1.166812 -9.058220 1.775287
-0.081763 -0.633871 -0.033495
-1.147096 -8.880684 2.067300
-1.177653 -9.104756 -0.160248
-1.151145 -8.887621 2.401323
-1.189358 -9.083068 0.159899
-1.191075 -9.071587 0.479502
-1.196243 -9.098646 0.802879
-0.081219 -0.616920 -0.098554
-1.197361 -9.082617 1.124854
-0.096383 -0.730135 -0.090427
-0.902399 -6.826780 1.090661
-0.084594 -0.639967 -0.056477
-1.206153 -9.112479 1.786736
-0.086075 -0.649422 -0.034332
-1.178088 -8.876625 2.067300
-1.210482 -9.108519 -0.160388
-1.182417 -8.885463 2.401841
-1.221589 -9.082824 0.159969
-1.223284 -9.083422 0.480339
-1.224264 -9.066772 0.800438
-0.085489 -0.632294 -0.101057
-1.231190 -9.094120 1.126804
-0.097739 -0.721943 -0.089452
-1.233908 -9.102248 1.454841
-0.087632 -0.645591 -0.057000
-1.241656 -9.135448 1.792078
-0.090765 -0.666928 -0.035274
-1.208043 -8.876533 2.068200
-1.236899 -9.076715 -0.159899
-1.211353 -8.877665 2.400805
-1.250610 -9.070799 0.159829
-0.066891 -0.484538 -0.112925
-1.253399 -9.079315 0.480339
-1.254870 -9.066609 0.800787
-0.083518 -0.602656 -0.096364
-1.263523 -9.105717 1.128754
-0.098495 -0.709817 -0.087990
-1.265172 -9.105933 1.456092
-0.090046 -0.647270 -0.057174
-1.269235 -9.111835 1.788262
-0.092976 -0.666624 -0.035274
-1.238548 -8.880198 2.070000
-1.266992 -9.072564 -0.159899
-1.240519 -8.871686 2.400288
-1.281243 -9.070562 0.159899
-1.285923 -9.080816 0.480653
-1.288845 -9.090015 0.803227
-0.086072 -0.606288 -0.096989
-1.289800 -9.073962 1.125342
-0.101532 -0.713400 -0.088477
-1.296950 -9.101461 1.456092
-0.091461 -0.641035 -0.056651
-1.295561 -9.080367 1.782919
-0.101965 -0.713764 -0.037787
-1.270366 -8.881608 2.071349
-1.299789 -9.076004 -0.160039
-1.271753 -8.869213 2.400805
-1.313470 -9.069993 0.159969
-1.315892 -9.064414 0.480025
-1.321580 -9.081287 0.802879
-0.093420 -0.641153 -0.102621
-1.320894 -9.065475 1.124854
-0.101442 -0.695362 -0.086283
-1.328713 -9.096879 1.456092
-0.094275 -0.644654 -0.057000
-1.330539 -9.087214 1.785209
-0.096469 -0.658054 -0.034856
-1.302062 -8.871108 2.070000
-1.330300 -9.063498 -0.159899
-1.303548 -8.870455 2.402359
-0.071737 -0.483465 -0.130962
-1.347586 -9.071053 0.160073
-1.349401 -9.061505 0.480130
-1.353858 -9.080560 0.803227
-0.089825 -0.601749 -0.096364
-1.355873 -9.072353 1.126317
-0.101053 -0.675353 -0.083846
-1.364386 -9.107575 1.458595
-0.096820 -0.646292 -0.057174
-1.360506 -9.070864 1.782919
-0.105290 -0.701166 -0.037159
-1.333019 -8.866509 2.070000
-1.362022 -9.048675 -0.159724
-1.336914 -8.871348 2.403911
-1.378640 -9.062339 0.160004
-1.381324 -9.058715 0.480235
-1.386750 -9.083656 0.803925
-0.093715 -0.613148 -0.098241
-1.385730 -9.055792 1.124854
-0.106416 -0.694618 -0.086283
-1.391977 -9.075422 1.454215
-0.096659 -0.630195 -0.055780
-1.399311 -9.112631 1.792078
-0.104399 -0.679079 -0.036007
-1.363369 -8.857949 2.069100
-1.392685 -9.037935 -0.159620
-1.365811 -8.853263 2.400288
-1.407189 -9.037712 0.159655
-1.412628 -9.051864 0.480130
-1.417219 -9.070887 0.803227
-0.096466 -0.616720 -0.098867
-1.420404 -9.070511 1.127291
-0.103920 -0.662865 -0.082384
-1.423647 -9.070508 1.454215
-0.101020 -0.643632 -0.057000
-1.434770 -9.130965 1.796658
-0.108010 -0.686602 -0.036426
-1.394886 -8.856987 2.070000
-1.427963 -9.056723 -0.160039
-1.396707 -8.848441 2.400288
-0.080438 -0.505582 -0.137174
-1.440929 -9.046569 0.159899
-1.446421 -9.060683 0.480863
-1.448244 -9.061950 0.802879
-0.096121 -0.600775 -0.096364
-1.447034 -9.034137 1.123392
-0.110634 -0.689939 -0.085796
-1.454674 -9.061583 1.453589
-0.106108 -0.660980 -0.058569
-1.457288 -9.067750 1.785209
-0.109772 -0.682278 -0.036216
-1.425796 -8.852063 2.070000
-1.458931 -9.047734 -0.159969
-1.428816 -8.851141 2.402359
-1.472178 -9.039511 0.159864
-1.475495 -9.049923 0.480549
-1.484366 -9.084368 0.805319
-0.102682 -0.627729 -0.100744
-1.479201 -9.032948 1.123879
-0.109830 -0.669959 -0.083359
-1.487272 -9.072304 1.456092
-0.107770 -0.656674 -0.058220
-1.496569 -9.109102 1.794368
-0.110856 -0.674007 -0.035798
-1.456052 -8.843186 2.069100
-1.491526 -9.058631 -0.160248
-1.458474 -8.848259 2.402876
-1.503457 -9.042469 0.160004
-1.506748 -9.042748 0.480444
-1.515411 -9.075199 0.804970
-0.102160 -0.611797 -0.098241
-1.511111 -9.039741 1.125342
-0.112051 -0.669591 -0.083359
-1.522848 -9.090436 1.459847
-0.111379 -0.664153 -0.058917
-1.518975 -9.057621 1.785209
-0.111768 -0.665757 -0.035379
-1.485370 -8.838309 2.069100
-1.523800 -9.057314 -0.160318
-1.489351 -8.843115 2.402876
-1.536352 -9.045053 0.160143
-1.535388 -9.029825 0.480025
-1.540143 -9.038700 0.802181
-0.104295 -0.611437 -0.098241
-1.545997 -9.053979 1.127779
-0.115726 -0.677023 -0.084334
-1.551653 -9.077547 1.458595
-0.114253 -0.667708 -0.059266
-1.556551 -9.087093 1.792078
-0.120842 -0.704733 -0.037473
-1.516871 -8.836913 2.070000
-1.552474 -9.044328 -0.160178
-1.516051 -8.822896 2.398735
-1.565655 -9.035967 0.160073
-0.084924 -0.489618 -0.114725
-1.569631 -9.040154 0.480863
-1.571000 -9.029344 0.801833
-0.098196 -0.564381 -0.090732
-1.573969 -9.037068 1.126317
-0.119334 -0.684457 -0.085309
-1.577897 -9.040940 1.453589
-0.114526 -0.655529 -0.058220
-1.585324 -9.074146 1.790552
-0.115265 -0.659079 -0.035065
-1.546839 -8.835671 2.070899
-1.583345 -9.034914 -0.160108
-1.547840 -8.823258 2.400288
-1.597717 -9.024261 0.159969
-1.602056 -9.030407 0.480653
-1.606690 -9.047344 0.803925
-0.108561 -0.610694 -0.098241
-1.607777 -9.035148 1.126804
-0.120449 -0.676198 -0.084334
-1.613797 -9.050654 1.456092
-0.117278 -0.657066 -0.058394
-1.613742 -9.041218 1.785209
-1.530537 -8.566403 -0.456056
-1.580929 -8.839536 2.073149
-1.619973 -9.048734 -0.160457
-1.580850 -8.821330 2.401323
-1.631697 -9.032403 0.160213
-1.631433 -9.012968 0.480025
-1.643395 -9.060999 0.805668
-0.116445 -0.641390 -0.103247
-1.637180 -9.017761 1.125342
-0.119969 -0.660149 -0.082384
-1.648914 -9.064400 1.459221
-0.119214 -0.654693 -0.058220
-1.651797 -9.062282 1.790552
-1.553678 -8.515546 -0.453648
-1.611566 -8.824096 2.070899
-1.673824 -9.164989 -0.162622
-1.610938 -8.811956 2.400288
-1.664427 -9.024395 0.160178
-1.667361 -9.022640 0.480863
-1.672115 -9.039534 0.804273
-0.112928 -0.609902 -0.098241
-1.674560 -9.035122 1.128266
-0.124561 -0.671415 -0.083846
-1.683569 -9.066065 1.460472
-0.120407 -0.648396 -0.057697
-1.683420 -9.056460 1.790552
-1.587048 -8.529706 -0.454695
-1.644141 -8.827997 2.073149
-1.678819 -9.005457 -0.159899
-1.644642 -8.813589 2.402359
-1.695181 -9.014601 0.160108
-1.701065 -9.028542 0.481491
-1.701443 -9.021894 0.803227
-0.117988 -0.625032 -0.100744
-1.702403 -9.009716 1.125829
-0.126166 -0.667075 -0.083359
-1.715940 -9.064014 1.461098
-0.121187 -0.640141 -0.057000
-4.821949 -25.446415 5.034305
-1.696833 -8.946003 -0.477199
-1.676039 -8.827946 2.074499
-1.709496 -8.995613 -0.159829
-1.674675 -8.804000 2.401323
-1.727389 -9.012556 0.160178
-1.729867 -9.016966 0.481177
-1.735933 -9.031553 0.804622
-0.116437 -0.605219 -0.097615
-1.739098 -9.031009 1.129241
-0.130629 -0.678349 -0.084821
-1.748231 -9.069913 1.462975
-0.124553 -0.645583 -0.057523
-4.904789 -25.398586 5.028199
-1.741695 -9.010619 -0.480967
-1.706042 -8.826168 2.075398
-1.741597 -9.001675 -0.160039
-1.702759 -8.792706 2.399770
-1.753054 -8.985188 0.159794
-1.762055 -9.022941 0.481805
-1.767404 -9.033568 0.805319
-0.113888 -0.581567 -0.093861
-1.769036 -9.025193 1.129241
-0.138224 -0.705184 -0.088233
-1.775256 -9.048557 1.460472
-0.124390 -0.633436 -0.056477
-4.982170 -25.347507 5.021330
-1.769254 -8.993036 -0.480339
-1.735302 -8.820461 2.075398
-1.774529 -9.011546 -0.160318
-1.733776 -8.796490 2.402359
-1.786734 -8.998940 0.160143
-1.788085 -8.989311 0.480339
-1.791903 -9.000301 0.802879
-0.128942 -0.647053 -0.104498
-1.791966 -8.984235 1.124854
-0.132135 -0.661871 -0.082871
-1.801412 -9.015187 1.456092
-0.132071 -0.660350 -0.058917
-1.811942 -9.059657 1.795894
-1.784169 -8.912700 -0.476362
-1.766846 -8.818172 2.076298
-1.784741 -8.899420 -0.158433
-1.767893 -8.807430 2.407017
-1.802286 -8.914247 0.158747
-1.823020 -9.000632 0.481281
-1.828842 -9.013199 0.804622
-0.136030 -0.669807 -0.108253
-1.827266 -8.997378 1.127291
-0.167660 -0.824811 -0.103345
-1.828144 -8.985615 1.452338
-0.133182 -0.654028 -0.058394
-1.830236 -8.979854 1.781393
-1.812032 -8.882617 -0.475106
-1.799155 -8.811636 2.076298
-1.814996 -8.889218 -0.158363
-1.799399 -8.804992 2.408053
-1.830507 -8.886037 0.158363
-1.836218 -8.898045 0.476153
-1.839738 -8.907248 0.795732
-0.141567 -0.684804 -0.110756
-1.861437 -8.996452 1.128023
-0.173902 -0.839742 -0.105295
-1.863471 -8.990460 1.454215
-0.134364 -0.647683 -0.057871
-1.867951 -9.004168 1.787499
-1.842216 -8.872327 -0.474897
-1.829506 -8.803395 2.075848
-1.845935 -8.874675 -0.158224
-1.831264 -8.796445 2.407535
-1.859052 -8.867849 0.158154
-1.865215 -8.881807 0.475629
-1.866221 -8.871201 0.793117
-0.133494 -0.634022 -0.102621
-1.872381 -8.892775 1.115836
-0.179288 -0.850785 -0.106758
-1.875273 -8.891124 1.439197
-1.860892 -8.815311 -0.788237
-1.884707 -8.920426 1.772234
-1.877200 -8.877240 -0.475525
-1.864181 -8.808069 2.078548
-1.887667 -8.919043 -0.159131
-1.863160 -8.795670 2.409088
-1.891541 -8.860977 0.158154
-1.895373 -8.871336 0.475420
-1.898843 -8.872426 0.793815
-0.134879 -0.629689 -0.101995
-1.902048 -8.872266 1.114130
-0.194740 -0.908383 -0.114070
-1.904227 -8.874866 1.437633
-1.826392 -8.504877 -0.761044
-1.901807 -8.848534 1.759259
-1.904818 -8.855013 -0.474687
-1.892559 -8.798028 2.077648
-1.918789 -8.912398 -0.159131
-1.893850 -8.789112 2.409088
-1.923035 -8.864427 0.158328
-1.926052 -8.870856 0.475734
-1.930372 -8.875813 0.794686
-0.130244 -0.598356 -0.096989
-1.931882 -8.867848 1.114373
-0.191836 -0.880578 -0.110657
-1.933646 -8.868503 1.437633
-1.914055 -8.771296 -0.785448
-1.932815 -8.849851 1.760786
-1.937156 -8.862306 -0.475420
-1.922140 -8.793608 2.078098
-1.944914 -8.890360 -0.158852
-1.924639 -8.790332 2.411158
-1.952851 -8.859954 0.158363
-1.956143 -8.860180 0.475525
-1.961515 -8.877146 0.795383
-0.116019 -0.524627 -0.085100
-1.960420 -8.857517 1.113886
-1.977422 -8.926948 -1.122661
-1.962454 -8.852056 1.436069
-1.967533 -8.867650 -0.794686
-1.963852 -8.851059 1.762312
-1.970431 -8.873382 -0.476362
-1.951978 -8.783040 2.077198
-1.968120 -8.848379 -0.158224
-1.957410 -8.792989 2.413746
-1.984640 -8.856985 0.158433
-1.987496 -8.855247 0.475629
-1.992289 -8.862121 0.794686
-0.117941 -0.524198 -0.085100
-1.996121 -8.871923 1.116567
-1.731225 -7.688312 -0.967643
-1.992906 -8.843225 1.435756
-1.996281 -8.843801 1.762312
-1.987595 -8.791033 2.080797
-2.002964 -8.859011 -0.158538
-1.985107 -8.772913 2.410123
-2.017533 -8.851603 0.158468
-2.021949 -8.863832 0.476467
-2.025875 -8.866766 0.795732
-2.028181 -8.862614 1.116323
-1.746098 -7.623865 -0.960331
-2.026409 -8.847768 1.437633
-1.743168 -7.604975 -0.682604
-2.028455 -8.842520 1.763457
-1.763945 -7.683298 -0.413140
-2.018268 -8.784041 2.080797
-2.032979 -8.848068 -0.158468
-2.017884 -8.775344 2.412711
-2.047326 -8.846811 0.158503
-2.055583 -8.868395 0.477095
-2.057715 -8.863523 0.796081
-0.133121 -0.573413 -0.093235
-2.056660 -8.851971 1.115836
-1.767773 -7.602564 -0.958381
-2.058624 -8.846412 1.438571
-1.767444 -7.589141 -0.681732
-2.057767 -8.835745 1.763457
-1.790320 -7.681295 -0.413349
-2.050928 -8.792483 2.084397
-2.063399 -8.838968 -0.158433
-2.048941 -8.770128 2.413229
-2.080483 -8.849343 0.158677
-2.084239 -8.851445 0.476571
-2.086181 -8.852772 0.795732
-0.175023 -0.742136 -0.120767
-2.088916 -8.850534 1.116567
-1.811641 -7.669761 -0.967643
-2.091763 -8.848784 1.440136
-1.794892 -7.592934 -0.682604
-2.090858 -8.838060 1.765365
-1.810680 -7.647790 -0.411884
-2.079809 -8.777685 2.082597
-2.096546 -8.841442 -0.158607
-2.082219 -8.774200 2.416335
-2.109503 -8.834248 0.158538
-2.113729 -8.838288 0.476257
-2.117070 -8.845435 0.795732
-2.123036 -8.856702 1.118273
-2.119873 -8.829904 1.438259
-1.847433 -7.695113 -0.692365
-2.122153 -8.832618 1.765747
-1.842034 -7.660842 -0.412931
-2.112261 -8.777950 2.084397
-2.126928 -8.832126 -0.158573
-2.114645 -8.774391 2.418405
-2.142684 -8.836548 0.158712
-2.146452 -8.838619 0.476676
-2.148875 -8.841865 0.796081
-0.126980 -0.522082 -0.085100
-2.152530 -8.843451 1.117542
-2.152552 -8.830128 1.439510
-2.154835 -8.832785 1.767273
-1.861185 -7.623321 -0.411256
-2.143351 -8.772417 2.084846
-2.156795 -8.820763 -0.158503
-2.145261 -8.766956 2.418405
-2.173516 -8.829015 0.158712
-2.181118 -8.846586 0.477513
-2.179726 -8.834310 0.796081
-2.185768 -8.845519 1.118761
-2.184785 -8.828313 1.440449
-2.082030 -8.413098 -0.758255
-2.183293 -8.815681 1.765365
-1.904600 -7.684629 -0.414919
-2.173960 -8.764881 2.084846
-2.189980 -8.822884 -0.158677
-2.176315 -8.761290 2.418923
-2.205291 -8.825253 0.158782
-2.215863 -8.854419 0.478351
-2.215874 -8.847906 0.797998
-2.193683 -8.752810 -1.429186
-2.216147 -8.835909 1.118517
-0.282225 -1.124416 -0.142343
-2.217514 -8.828295 1.441700
-2.113327 -8.413507 -0.758952
-2.215488 -8.813718 1.766510
-2.123385 -8.441080 -0.456160
-2.208347 -8.772358 2.088446
-2.222230 -8.821003 -0.158782
-2.207356 -8.755513 2.419441
-2.238050 -8.825255 0.158922
-2.244299 -8.836951 0.477827
-2.248709 -8.847841 0.798695
-1.804989 -7.096779 -1.159805
-2.245999 -8.824273 1.118029
-0.271449 -1.065714 -0.135031
-2.249292 -8.824329 1.442326
-2.146619 -8.421525 -0.760347
-2.247211 -8.809735 1.767273
-2.236816 -8.762601 -0.473954
-2.236060 -8.753267 2.085746
-2.253008 -8.813192 -0.158782
-2.240300 -8.757112 2.422029
-2.270337 -8.823198 0.159026
-2.271644 -8.815525 0.477095
-2.278087 -8.834149 0.798172
-1.842585 -7.140166 -1.167940
-2.282247 -8.837522 1.120710
-0.292055 -1.130106 -0.143318
-2.277610 -8.806862 1.440762
-2.270786 -8.780477 -0.793466
-2.280408 -8.811340 1.769181
-2.282412 -8.812743 -0.477095
-2.267580 -8.749181 2.086646
-2.281750 -8.797531 -0.158642
-2.268912 -8.741758 2.419958
-2.302132 -8.819090 0.159096
-2.306947 -8.824933 0.478037
-2.307901 -8.822289 0.797824
-1.858492 -7.099292 -1.162308
-2.313082 -8.829500 1.120710
-0.278379 -1.061873 -0.134787
-2.311845 -8.812232 1.442952
-2.313555 -8.818748 -0.797649
-2.313644 -8.812821 1.771089
-2.316714 -8.818244 -0.477827
-2.299593 -8.746867 2.087996
-2.315497 -8.801117 -0.158852
-2.297446 -8.726312 2.417887
-2.331364 -8.811406 0.159096
-2.337734 -8.823026 0.478351
-2.338678 -8.820365 0.798347
-1.886077 -7.108365 -1.164811
-2.344895 -8.831374 1.121929
-0.316563 -1.191403 -0.151362
-2.344101 -8.815971 1.444829
-2.347909 -8.824098 -0.798869
-2.339826 -8.793718 1.768800
-2.346457 -8.812443 -0.477932
-2.332098 -8.752375 2.091145
-2.346216 -8.799187 -0.158957
-2.330355 -8.733579 2.422029
-2.361590 -8.801285 0.159061
-2.371111 -8.824456 0.478874
-2.370989 -8.811734 0.798347
-1.912118 -7.101405 -1.164811
-2.370032 -8.802050 1.119248
-0.292831 -1.086788 -0.138200
-2.374859 -8.807736 1.444829
-2.379736 -8.819695 -0.799218
-2.374089 -8.792664 1.770326
-2.378218 -8.801856 -0.477827
-2.365179 -8.747530 2.092045
-2.381092 -8.806386 -0.159236
-2.360827 -8.725390 2.422029
-2.398034 -8.808004 0.159340
-2.400323 -8.810345 0.478560
-2.403307 -8.809171 0.798869
-1.932732 -7.079442 -1.162308
-2.405416 -8.804794 1.120710
-0.290530 -1.062729 -0.135275
-2.407675 -8.807014 1.446080
-2.409456 -8.807491 -0.798869
-2.407876 -8.795685 1.772616
-2.409985 -8.797354 -0.478037
-2.393638 -8.731704 2.090245
-2.410760 -8.794164 -0.159166
-2.393825 -8.726412 2.424617
-2.430420 -8.811570 0.159550
-2.431062 -8.801912 0.478560
-2.436167 -8.808410 0.799567
-1.971995 -7.130110 -1.171694
-2.435659 -8.800596 1.121198
-2.437725 -8.802084 -1.121442
-2.436291 -8.790942 1.444829
-2.443380 -8.810547 -0.799915
-2.435982 -8.783868 1.771852
-2.441280 -8.797010 -0.478455
-2.426230 -8.736862 2.093395
-2.445192 -8.799181 -0.159410
-2.425825 -8.723586 2.426170
-2.461701 -8.804959 0.159585
-2.465542 -8.806835 0.479293
-2.463212 -8.792608 0.798869
-1.991539 -7.104163 -1.168566
-2.470654 -8.807330 1.123148
-2.471655 -8.804988 -1.122904
-2.468030 -8.786188 1.445455
-2.473581 -8.800046 -0.799741
-2.470878 -8.790431 1.774905
-2.471972 -8.788435 -0.478455
-2.457770 -8.732090 2.094294
-2.474264 -8.784818 -0.159306
-2.455212 -8.711348 2.425135
-2.493512 -8.800160 0.159655
-2.497903 -8.803940 0.479607
-2.498691 -8.795020 0.799915
-2.018644 -7.100616 -1.169191
-2.501924 -8.800562 1.123392
-2.505633 -8.807763 -1.124367
-2.503013 -8.792719 1.447958
-2.527208 -8.871836 -0.807062
-2.500390 -8.771876 1.772997
-2.506359 -8.786999 -0.478874
-2.490292 -8.724898 2.094744
-2.509305 -8.791511 -0.159585
-2.487197 -8.708296 2.426687
-2.522436 -8.779430 0.159445
-2.529723 -8.799006 0.479816
-2.531029 -8.791988 0.800438
-2.507110 -8.703189 -1.434504
-2.533063 -8.787519 1.122904
-2.580261 -8.945385 -1.143134
-2.535879 -8.791521 1.449209
-2.558162 -8.862960 -0.807062
-2.530450 -8.761209 1.772616
-2.537015 -8.778197 -0.478874
-2.525605 -8.733001 2.098794
-2.542200 -8.790382 -0.159724
-2.522950 -8.718119 2.431864
-2.556564 -8.788298 0.159759
-2.558747 -8.784369 0.479502
-2.563934 -8.790751 0.801136
-2.540381 -8.710000 -1.437007
-2.563303 -8.782882 1.123392
-2.606571 -8.925345 -1.141672
-2.566553 -8.782615 1.449209
-2.572308 -8.796608 -0.801833
-2.564447 -8.769728 1.776050
-2.567233 -8.773569 -0.479083
-2.552361 -8.717096 2.096994
-2.572306 -8.779536 -0.159690
-2.558801 -8.727797 2.437040
-2.590051 -8.788912 0.159934
-2.589558 -8.781583 0.479816
-2.595328 -8.789844 0.801833
-2.569651 -8.697289 -1.436381
-2.595071 -8.777687 1.123879
-2.652916 -8.967588 -1.148253
-2.592300 -8.762691 1.447332
-2.601464 -8.788030 -0.801833
-2.595044 -8.760722 1.776050
-2.600681 -8.774129 -0.479607
-2.582773 -8.708134 2.096994
-2.600269 -8.767123 -0.159620
-2.587730 -8.719263 2.437040
-2.619753 -8.782190 0.159969
-2.623624 -8.783973 0.480444
-2.625995 -8.780731 0.801833
-2.596214 -8.681150 -1.435130
-2.628147 -8.782346 1.125585
-2.686625 -8.972054 -1.149959
-2.626841 -8.766833 1.449522
-2.651579 -8.843783 -0.807759
-2.629719 -8.770874 1.779866
-2.632059 -8.773108 -0.480025
-2.612757 -8.703253 2.097893
-2.632007 -8.761824 -0.159690
-2.616482 -8.704628 2.435488
-2.648659 -8.767249 0.159864
-2.656004 -8.780497 0.480758
-2.652790 -8.764346 0.801136
-2.629937 -8.683378 -1.437007
-2.661092 -8.780717 1.126560
-2.712166 -8.943624 -1.147522
-2.662014 -8.772733 1.452025
-2.661595 -8.765841 -0.801484
-2.656898 -8.750369 1.777577
-2.666730 -8.777246 -0.480758
-2.646521 -8.705268 2.100593
-2.667231 -8.767887 -0.159969
-2.647976 -8.699137 2.436523
-2.685680 -8.778985 0.160248
-2.690149 -8.782630 0.481386
-2.688400 -8.765993 0.802181
-2.666381 -8.688788 -1.439510
-2.689396 -8.763783 1.125585
-2.744534 -8.937898 -1.148009
-2.693782 -8.767163 1.452651
-2.695690 -8.767923 -0.802530
-2.692414 -8.751832 1.779866
-2.698884 -8.767411 -0.480758
-2.681852 -8.706683 2.103292
-2.697231 -8.756613 -0.159934
-2.681739 -8.700918 2.439628
-2.719023 -8.772902 0.160318
-2.715809 -8.751728 0.480235
-2.721346 -8.764167 0.802879
-2.697866 -8.683200 -1.440136
-2.727392 -8.772824 1.128023
-2.783171 -8.946733 -1.150447
-2.729419 -8.768548 1.454528
-2.728648 -8.766069 -0.803227
-2.726451 -8.753627 1.782156
-2.729470 -8.757937 -0.480758
-2.709908 -8.689826 2.101493
-2.736456 -8.769576 -0.160353
-2.715338 -8.696563 2.441181
-2.752622 -8.772898 0.160492
-2.752926 -8.763155 0.481386
-2.754909 -8.764117 0.803750
-2.721048 -8.651117 -1.436381
-2.757998 -8.763250 1.128023
-2.807228 -8.914243 -1.147522
-2.757637 -8.751431 1.453276
-2.760428 -8.760292 -0.803576
-2.761123 -8.757163 1.784827
-2.761827 -8.754071 -0.481072
-2.740811 -8.682174 2.101943
-2.764642 -8.752342 -0.160213
-2.750920 -8.703609 2.445840
-2.783834 -8.765142 0.160527
-2.785919 -8.761105 0.481805
-2.784276 -8.750650 0.803402
-2.765612 -8.686743 -1.443890
-2.790981 -8.761135 1.128998
-2.849181 -8.938434 -1.151909
-2.791168 -8.751162 1.454841
-2.810364 -8.811345 -0.809154
-2.791673 -8.747472 1.784827
-2.796014 -8.755792 -0.481700
-2.777625 -8.692972 2.106892
-2.795785 -8.744544 -0.160248
-2.777752 -8.682914 2.442734
-2.813190 -8.751563 0.160457
-2.818932 -8.758932 0.482224
-2.817859 -8.750360 0.804273
-2.768049 -8.590547 -1.429498
-2.825200 -8.762675 1.130460
-2.809055 -8.707396 -1.123392
-2.825339 -8.752645 1.456718
-2.822742 -8.744598 -0.803925
-2.827622 -8.754488 1.788262
-2.829016 -8.753581 -0.482119
-2.809751 -8.688787 2.108241
-2.829986 -8.746146 -0.160457
-2.813994 -8.691545 2.447911
-2.844958 -8.745494 0.160527
-2.851963 -8.756634 0.482642
-2.851472 -8.749944 0.805145
-2.761276 -8.468148 -1.410726
-2.853924 -8.747099 1.129729
-2.745790 -8.410702 -1.086343
-2.857715 -8.748363 1.457657
-2.855106 -8.740375 -0.804447
-2.851454 -8.724037 1.784064
-2.859556 -8.743652 -0.482119
-2.841881 -8.684483 2.109591
-2.862988 -8.743817 -0.160597
-2.842513 -8.676161 2.446358
-2.881721 -8.754503 0.160876
-2.883762 -8.750421 0.482852
-2.881999 -8.739936 0.805145
-2.845284 -8.623538 -1.438259
-2.887551 -8.746509 1.130948
-2.873512 -8.698881 -1.124854
-2.889475 -8.742085 1.458282
-2.888725 -8.739814 -0.805319
-2.891753 -8.743854 1.790170
-2.890059 -8.733618 -0.482119
-2.873404 -8.678208 2.110491
-2.897265 -8.745159 -0.160806
-2.871564 -8.662519 2.445323
-2.916053 -8.755774 0.161086
-2.916184 -8.745984 0.483166
-2.920686 -8.754393 0.807411
-2.901640 -8.692251 -1.451399
-2.919323 -8.740142 1.131435
-2.977477 -8.909079 -1.153372
-2.918721 -8.728199 1.457657
-2.937539 -8.784473 -0.810374
-2.919766 -8.726260 1.788644
-2.924330 -8.734839 -0.482747
-2.904298 -8.669974 2.110941
-2.927774 -8.734993 -0.160806
-2.904242 -8.659768 2.447393
-2.949152 -8.753123 0.161225
-2.947973 -8.739536 0.483375
-2.947403 -8.732818 0.806365
-0.341926 -1.012503 -0.169262
-2.953626 -8.741181 1.132897
-3.014281 -8.915554 -1.155565
-2.950435 -8.721700 1.458282
-2.950946 -8.723208 -0.805668
-2.956502 -8.734611 1.792460
-2.957367 -8.732145 -0.483166
-2.937046 -8.667166 2.112740
-2.959530 -8.728507 -0.160876
-2.935073 -8.651407 2.447911
-2.976464 -8.733311 0.161051
-2.981449 -8.742946 0.484108
-2.979800 -8.728132 0.806888
-0.365891 -1.071121 -0.179274
-2.987973 -8.742088 1.134360
-3.047310 -8.910614 -1.156296
-2.984455 -8.726820 1.460785
-2.983958 -8.720395 -0.806365
-2.986337 -8.722380 1.792078
-2.992360 -8.734995 -0.483898
-2.971704 -8.669765 2.115890
-2.992349 -8.729995 -0.161086
-2.963746 -8.641627 2.447911
-3.006711 -8.727174 0.161121
-3.013904 -8.738151 0.484422
-3.014801 -8.730861 0.808108
-0.344941 -0.998949 -0.167385
-3.013057 -8.720875 1.132897
-3.083328 -8.919220 -1.158734
-3.018127 -8.725684 1.462350
-2.993528 -8.649676 -0.800787
-3.017172 -8.717996 1.793223
-3.018696 -8.717475 -0.483480
-3.003629 -8.669070 2.118139
-3.027390 -8.732722 -0.161330
-2.998324 -8.644005 2.451534
-3.039788 -8.724178 0.161260
-3.042866 -8.728107 0.484422
-3.050303 -8.739627 0.809851
-3.048063 -8.723422 1.134604
-3.109201 -8.893413 -1.156784
-3.049654 -8.723086 1.463601
-3.009038 -8.602088 -0.797301
-3.050828 -8.716675 1.795131
-3.049107 -8.706885 -0.483480
-3.031294 -8.651175 2.116339
-3.058316 -8.728295 -0.161435
-3.034003 -8.654068 2.457228
-3.073350 -8.727254 0.161505
-3.072649 -8.715549 0.484317
-3.082780 -8.734562 0.810374
-3.079618 -8.720754 1.135579
-3.083124 -8.725831 -1.136310
-3.080086 -8.712388 1.463601
-3.138044 -8.871405 -0.823273
-3.085609 -8.723168 1.798566
-3.085959 -8.719319 -0.484736
-3.059966 -8.641076 2.116339
-3.089432 -8.719454 -0.161470
-3.067420 -8.652530 2.459816
-3.107331 -8.721581 0.161609
-3.113295 -8.728683 0.485678
-3.113251 -8.723747 0.810374
-3.113564 -8.715015 1.136310
-3.116654 -8.714060 1.465791
-3.118222 -8.713649 1.798947
-3.122610 -8.721112 -0.485468
-3.100818 -8.655486 2.122638
-3.121371 -8.708071 -0.161470
-3.097156 -8.635773 2.458263
-3.139111 -8.714445 0.161679
-3.144422 -8.719642 0.485782
-3.145035 -8.716576 0.810723
-0.350806 -0.971739 -0.163630
-3.148013 -8.715296 1.137772
-3.149068 -8.708701 1.466730
-2.715479 -7.509617 -0.698640
-3.146616 -8.697173 1.797803
-3.131675 -8.646441 2.123088
-3.157198 -8.712162 -0.161749
-3.131892 -8.637622 2.461887
-3.170879 -8.707192 0.161749
-3.181681 -8.727377 0.486829
-3.180223 -8.718646 0.811943
-0.388057 -1.063291 -0.179274
-3.179777 -8.707984 1.138260
-3.182159 -8.705076 1.467981
-2.734834 -7.481380 -0.696897
-3.183023 -8.702730 1.801237
-2.742078 -7.493080 -0.418164
-3.164518 -8.642777 2.124887
-3.190342 -8.708599 -0.161889
-3.168007 -8.642962 2.466546
-3.205399 -8.707331 0.161958
-3.207983 -8.704974 0.486201
-3.214772 -8.718708 0.812989
-0.386297 -1.047104 -0.176771
-3.212904 -8.704281 1.139235
-2.832736 -7.670222 -1.003960
-3.218005 -8.708739 1.470484
-2.764387 -7.481132 -0.697769
-3.214745 -8.695249 1.802000
-2.771681 -7.492829 -0.418688
-3.192639 -8.626196 2.123538
-3.224888 -8.708661 -0.162098
-3.202183 -8.642720 2.469651
-3.237865 -8.701711 0.162063
-3.240441 -8.699337 0.486515
-3.249361 -8.718636 0.814035
-0.395471 -1.060556 -0.179274
-3.247432 -8.704172 1.140697
-0.449161 -1.203255 -0.157699
-3.247002 -8.693753 1.469859
-2.791877 -7.475170 -0.698117
-3.248513 -8.693170 1.803908
-2.795722 -7.477496 -0.418374
-3.227509 -8.627775 2.126687
-3.252462 -8.689860 -0.161958
-3.233689 -8.635107 2.470687
-3.274557 -8.707200 0.162377
-3.273602 -8.695451 0.486934
-3.276967 -8.699782 0.813337
-0.398474 -1.057321 -0.178961
-3.280596 -8.700212 1.141672
-0.425330 -1.127387 -0.147949
-3.279422 -8.687909 1.470797
-2.822879 -7.478426 -0.699338
-3.283000 -8.692798 1.806198
-2.826041 -7.478902 -0.419002
-3.261052 -8.625572 2.128937
-3.289852 -8.697157 -0.162307
-3.266546 -8.630996 2.472757
-3.304219 -8.693849 0.162342
-3.306678 -8.695746 0.487562
-3.308732 -8.692015 0.813686
-2.930442 -7.694212 -1.304038
-3.315895 -8.701693 1.143378
-0.427848 -1.122186 -0.147462
-3.311028 -8.684371 1.472049
-2.870270 -7.524374 -0.704567
-3.313324 -8.681285 1.806198
-2.866379 -7.506308 -0.421095
-3.294618 -8.623237 2.131186
-3.318674 -8.686200 -0.162307
-3.296529 -8.623724 2.473793
-3.331598 -8.679110 0.162272
-3.342027 -8.697203 0.488295
-3.346207 -8.699007 0.815429
-3.342592 -8.685092 1.142647
-0.441554 -1.146696 -0.150874
-3.344164 -8.680132 1.473300
-3.347261 -8.683656 -0.814209
-3.341387 -8.668418 1.805817
-3.355524 -8.700567 -0.488713
-3.330212 -8.630445 2.135685
-3.354736 -8.689487 -0.162587
-3.329395 -8.619373 2.475863
-3.370550 -8.689799 0.162691
-3.371642 -8.683621 0.488190
-3.380084 -8.700865 0.816649
-3.376487 -8.682622 1.143866
-0.438356 -1.126648 -0.148437
-3.380175 -8.683132 1.475803
-3.380375 -8.683647 -0.815255
-3.377326 -8.671336 1.808869
-3.383700 -8.683218 -0.488399
-3.361732 -8.622399 2.136585
-3.387227 -8.683312 -0.162691
-3.361570 -8.613097 2.477416
-3.404511 -8.687291 0.162866
-3.403392 -8.675518 0.488399
-3.413348 -8.696430 0.817347
-2.956084 -7.527566 -1.280886
-3.408952 -8.676325 1.144597
-3.427170 -8.718222 -1.150203
-3.410464 -8.671280 1.475803
-3.439107 -8.744106 -0.822053
-3.411168 -8.668629 1.810778
-3.413257 -8.669496 -0.488295
-3.391810 -8.610612 2.136585
-3.417517 -8.671435 -0.162691
-3.395867 -8.612095 2.480522
-3.437023 -8.680931 0.162971
-3.442485 -8.685867 0.489655
-3.443682 -8.684463 0.817347
-3.014395 -7.597991 -1.294652
-3.446540 -8.682823 1.147034
-0.444745 -1.119870 -0.147949
-3.445089 -8.670338 1.477680
-3.504991 -8.816609 -0.830071
-3.439956 -8.653019 1.810014
-3.450141 -8.674231 -0.489237
-3.426169 -8.609583 2.139284
-3.448505 -8.661311 -0.162726
-3.423764 -8.594803 2.478969
-3.466561 -8.667025 0.162936
-3.473526 -8.675652 0.489760
-3.474748 -8.669933 0.817172
-0.446997 -1.114749 -0.190224
-3.479783 -8.678110 1.148009
-0.456043 -1.136734 -0.150387
-3.477540 -8.663759 1.478619
-3.538714 -8.811717 -0.830769
-3.476040 -8.651283 1.812304
-3.484145 -8.667087 -0.489551
-3.463519 -8.611432 2.142884
-3.485434 -8.665918 -0.163040
-3.457350 -8.591761 2.481557
-3.502801 -8.665384 0.163145
-3.512792 -8.681376 0.490807
-3.510972 -8.672525 0.818567
-0.439020 -1.083887 -0.185218
-3.507839 -8.656098 1.146791
-0.460206 -1.135055 -0.150387
-3.515953 -8.667429 1.481435
-3.517025 -8.670073 -0.818567
-3.505479 -8.637279 1.811922
-3.515882 -8.658573 -0.489760
-3.496492 -8.606511 2.144683
-3.521689 -8.664200 -0.163250
-3.496095 -8.596927 2.486734
-3.535296 -8.658657 0.163250
-3.540051 -8.661667 0.490388
-3.546503 -8.673125 0.819787
-0.457760 -1.118914 -0.191476
-3.543297 -8.656662 1.148497
-0.468679 -1.144464 -0.151849
-3.550681 -8.666071 1.483312
-3.550290 -8.665117 -0.819264
-3.546778 -8.652237 1.817647
-3.545326 -8.644401 -0.489655
-3.526512 -8.594254 2.144683
-3.554191 -8.657404 -0.163355
-3.530485 -8.595393 2.489839
-3.570072 -8.657356 0.163459
-3.573325 -8.660956 0.491016
-3.576755 -8.660694 0.819787
-3.035508 -7.346493 -1.258985
-3.578802 -8.657082 1.150203
-0.472671 -1.142821 -0.151849
-3.576380 -8.646947 1.482060
-3.585086 -8.663718 -0.820310
-3.573954 -8.632549 1.816120
-3.587708 -8.661495 -0.491330
-3.560221 -8.590894 2.146933
-3.584411 -8.649265 -0.163424
-3.566369 -8.601483 2.495016
-3.604910 -8.660239 0.163738
-3.608913 -8.661336 0.491749
-0.483468 -1.159745 -0.244236
-3.610033 -8.655512 0.820484
-3.053770 -7.321802 -1.256482
-3.612841 -8.657990 1.151909
-0.468810 -1.122929 -0.149412
-3.611110 -8.645348 1.483938
-3.615307 -8.651151 -0.820310
-3.610888 -8.640575 1.820318
-3.616410 -8.649550 -0.491330
-3.593954 -8.591624 2.150082
-3.613809 -8.634856 -0.163389
-3.597864 -8.592546 2.496051
-3.635892 -8.649447 0.163773
-3.639900 -8.650527 0.491853
-0.496448 -1.179850 -0.248815
-3.641034 -8.649001 0.821007
-3.078543 -7.309277 -1.256169
-3.646124 -8.652643 1.152884
-0.477354 -1.132260 -0.150874
-3.646639 -8.645430 1.486127
-3.673399 -8.708874 -0.826934
-3.638736 -8.622493 1.819173
-3.655128 -8.657113 -0.492481
-3.628472 -8.589798 2.152782
-3.655604 -8.649818 -0.163913
-3.631598 -8.588832 2.498639
-3.669970 -8.645906 0.163948
-3.677103 -8.654313 0.492795
-3.677439 -8.650908 0.822402
-3.096307 -7.280308 -1.253040
-3.678636 -8.645344 1.153615
-0.476638 -1.119629 -0.149412
-3.681439 -8.643553 1.488005
-3.678793 -8.637341 -0.821356
-3.671121 -8.615157 1.820318
-3.684540 -8.642465 -0.492377
-3.666844 -8.596797 2.157730
-3.688132 -8.642523 -0.164018
-3.663073 -8.579656 2.499674
-0.311137 -0.726288 -0.211714
-3.705641 -8.645908 0.164192
-0.418562 -0.976107 -0.245197
-3.707291 -8.641424 0.492795
-3.711543 -8.647172 0.823273
-3.117805 -7.260379 -1.251476
-3.713495 -8.643394 1.155078
-0.478976 -1.114310 -0.148924
-3.717051 -8.643352 1.490195
-3.718366 -8.646410 -0.823447
-3.706603 -8.614913 1.822989
-3.720214 -8.642393 -0.493109
-3.694518 -8.578576 2.156381
-3.727772 -8.651634 -0.164437
-3.698352 -8.579235 2.503298
-0.358152 -0.828038 -0.241737
-3.738180 -8.638428 0.164297
-0.426612 -0.985370 -0.247896
-3.739813 -8.633929 0.493109
-2.670293 -6.164779 -1.305897
-3.744874 -8.641476 0.823970
-3.151772 -7.269389 -1.254917
-3.746802 -8.637663 1.156053
-3.768858 -8.684354 -1.162390
-3.746413 -8.628512 1.489882
-3.795342 -8.741202 -0.833732
-3.744473 -8.619929 1.826805
-3.754339 -8.638512 -0.493633
-3.729103 -8.576349 2.159080
-3.757151 -8.636736 -0.164402
-3.734445 -8.580444 2.507439
-0.356402 -0.816160 -0.238631
-3.777118 -8.645482 0.164681
-0.430049 -0.983875 -0.247896
-3.774729 -8.631802 0.493737
-2.696515 -6.166214 -1.308187
-3.775814 -8.630177 0.824145
-3.196930 -7.303583 -1.262739
-3.778523 -8.628168 1.156540
-0.489930 -1.118212 -0.149899
-3.778888 -8.620811 1.490821
-3.871424 -8.831914 -0.843668
-3.780849 -8.621189 1.829858
-3.790890 -8.639987 -0.494470
-3.765283 -8.577556 2.162679
-3.790493 -8.630891 -0.164541
-3.759711 -8.556745 2.504333
-0.359249 -0.814911 -0.238631
-3.808887 -8.635905 0.164751
-0.431907 -0.978802 -0.246996
-3.810484 -8.631364 0.494470
-2.718024 -6.156764 -1.308187
-3.811550 -8.629704 0.825365
-3.227196 -7.303220 -1.264616
-3.815842 -8.631266 1.158734
-0.495436 -1.120126 -0.150387
-3.816951 -8.625630 1.493949
-3.859499 -8.721783 -0.834429
-3.808535 -8.602553 1.828714
-3.827497 -8.641311 -0.495308
-3.794412 -8.562579 2.162230
-3.827080 -8.632233 -0.164821
-3.792690 -8.550632 2.506404
-0.366804 -0.824242 -0.241737
-3.843890 -8.633517 0.164960
-0.438493 -0.984409 -0.248796
-3.844654 -8.627131 0.494994
-0.527441 -1.183541 -0.251868
-3.849765 -8.634542 0.827108
