# This PCD file was generated using the MATLAB® pcwrite function
# from Computer Vision Toolbox®.
# .PCD v.7 - Point Cloud Data file format
VERSION .7
FIELDS x y z
SIZE 4 4 4
TYPE F F F
COUNT 1 1 1
WIDTH 1621
HEIGHT 1
VIEWPOINT 0 0 0 1 0 0 0
POINTS 1621
DATA ascii
-9.571556 0.590451 -2.213968
-11.948954 0.741298 -2.327107
-16.058397 0.999053 -2.548318
-24.095583 1.507525 -2.964350
-83.622757 5.275760 -4.391197
-83.748856 5.313044 -1.464780
-7.932910 0.514387 -2.130081
-9.577215 0.624366 -2.215768
-11.942511 0.780657 -2.326343
-16.062696 1.055619 -2.549569
-24.090174 1.591620 -2.964350
-82.960144 5.524741 -4.357388
-83.714821 5.589674 -1.464501
-7.923357 0.541548 -2.128010
-9.578979 0.656389 -2.216668
-11.939713 0.822342 -2.326343
-16.047283 1.108064 -2.547692
-24.084763 1.671498 -2.964350
-83.754646 5.886067 -1.465548
-7.917465 0.570307 -2.126975
-9.572502 0.692883 -2.215768
-11.936618 0.866098 -2.326343
-16.078371 1.172258 -2.553324
-24.149439 1.769186 -2.973125
-83.800308 6.198020 -1.466735
-7.915426 0.597941 -2.126975
-9.566265 0.724329 -2.214868
-11.949183 0.908948 -2.329396
-16.062578 1.224669 -2.551446
-24.072186 1.843796 -2.964350
-82.766319 6.383030 -4.350479
-83.778160 6.490502 -1.466735
-7.901845 0.623275 -2.123869
-9.567564 0.758025 -2.215768
-11.942190 0.948258 -2.328633
-16.070021 1.281673 -2.553324
-24.065601 1.927819 -2.964350
-83.754997 6.782886 -1.466735
-7.911173 0.651806 -2.126975
-9.551265 0.790291 -2.212619
-11.919242 0.988316 -2.324817
-16.096945 1.340379 -2.558329
-24.058727 2.011812 -2.964350
-83.730812 7.075226 -1.466735
-7.905000 0.679085 -2.125940
-9.538740 0.822789 -2.210369
-11.919631 1.030258 -2.325580
-16.123659 1.399293 -2.563336
-83.693718 7.336956 -4.403025
-7.906430 0.707021 -2.126975
-9.553279 0.857649 -2.214418
-11.915962 1.071856 -2.325580
-16.079327 1.452014 -2.557078
-24.044096 2.179719 -2.964350
-83.397095 7.604394 -4.388789
-7.896219 0.733900 -2.124904
-9.532764 0.889362 -2.210369
-11.904328 1.112713 -2.324054
-16.097761 1.510347 -2.560833
-24.036339 2.263636 -2.964350
-7.889630 0.762463 -2.123869
-9.531541 0.922820 -2.210819
-11.911895 1.157477 -2.326343
-16.107847 1.570873 -2.563336
-24.028292 2.347525 -2.964350
-7.906144 0.791926 -2.129046
-9.520339 0.956967 -2.209019
-11.915596 1.199837 -2.327870
-16.102266 1.627087 -2.563336
-24.019526 2.435578 -2.964350
-7.895645 0.818722 -2.126975
-9.528744 0.989741 -2.211719
-11.907430 1.241017 -2.327107
-16.084991 1.679244 -2.561458
-7.885202 0.844078 -2.124904
-9.536856 1.024245 -2.214418
-11.891537 1.279237 -2.324817
-16.059391 1.733262 -2.558329
-23.903711 2.588327 -2.952163
-7.889889 0.872445 -2.126975
-9.515790 1.055597 -2.210369
-11.922122 1.324638 -2.331686
-16.072876 1.791502 -2.561458
-23.894531 2.671751 -2.952163
-7.894473 0.900857 -2.129046
-9.512048 1.088805 -2.210369
-11.905722 1.364905 -2.329396
-16.046900 1.845335 -2.558329
-23.885059 2.755149 -2.952163
-7.891281 0.928408 -2.129046
-9.516127 1.121255 -2.212169
-11.912583 1.407838 -2.331686
-16.056387 1.900397 -2.560833
-23.974358 2.846035 -2.964350
-61.227627 7.300957 -3.231536
-7.880486 0.953644 -2.126975
-9.514089 1.154701 -2.212619
-11.931236 1.450177 -2.336265
-16.037891 1.954999 -2.558955
-23.964277 2.929705 -2.964350
-61.177975 7.511718 -3.230280
-7.857768 0.980129 -2.121799
-9.492598 1.185730 -2.208570
-11.929736 1.494385 -2.337029
-16.046297 2.015734 -2.561458
-23.853455 3.000702 -2.951920
-7.854299 1.007553 -2.121799
-9.488188 1.220515 -2.208570
-11.932236 1.537022 -2.338555
-16.007818 2.067689 -2.556452
-23.842297 3.088104 -2.951920
-7.866057 1.036981 -2.125940
-9.480224 1.251460 -2.207669
-11.922906 1.578147 -2.337792
-16.028288 2.124396 -2.560833
-23.784698 3.160876 -2.946070
-7.854917 1.062025 -2.123869
-9.487384 1.286118 -2.210369
-11.917607 1.617676 -2.337792
-16.024689 2.180865 -2.561458
-23.773521 3.243881 -2.946070
-7.851161 1.089438 -2.123869
-9.482837 1.319225 -2.210369
-11.904111 1.658183 -2.336265
-16.013065 2.236243 -2.560833
-53.370079 7.462674 6.616775
-23.809233 3.333459 -2.951920
-52.964092 7.443618 -2.803010
-7.839661 1.115748 -2.121799
-9.493608 1.354520 -2.213968
-11.894362 1.699172 -2.335502
-15.981698 2.288761 -2.557078
-23.797451 3.416549 -2.951920
-52.961510 7.631872 -2.804265
-7.839542 1.143665 -2.122834
-9.484965 1.387087 -2.213068
-11.892243 1.741252 -2.336265
-15.985339 2.346255 -2.558955
-23.785381 3.499592 -2.951920
-52.966160 7.821353 -2.805940
-7.831680 1.170452 -2.121799
-9.487775 1.421340 -2.214868
-11.882211 1.782168 -2.335502
-15.965329 2.400282 -2.557078
-23.745539 3.578456 -2.948507
-7.816090 1.196030 -2.118693
-9.500092 1.457112 -2.218917
-11.848750 1.819463 -2.330160
-15.984187 2.460201 -2.561458
-23.662277 3.650426 -2.939733
-7.815685 1.223902 -2.119728
-9.504573 1.491776 -2.221167
-11.873358 1.865688 -2.336265
-15.952085 2.512293 -2.557704
-7.807550 1.250565 -2.118693
-9.505080 1.525871 -2.222516
-11.831882 1.901512 -2.329396
-15.904215 2.561679 -2.551446
-23.636215 3.815531 -2.939733
-7.820294 1.280623 -2.123352
-44.935257 7.366487 0.794818
-9.488158 1.557145 -2.219817
-11.840672 1.945351 -2.332449
-15.895177 2.617177 -2.551446
-23.622753 3.898015 -2.939733
-45.173096 7.462147 7.251677
-44.817661 7.419515 -2.380763
-45.390633 7.522497 10.622189
-7.813871 1.307594 -2.122834
-44.881660 7.518661 0.794329
-9.469211 1.587999 -2.216668
-11.833808 1.986671 -2.332449
-15.897632 2.674616 -2.553324
-23.706877 3.996946 -2.951920
-45.259747 7.638864 7.269824
-44.661518 7.553919 -2.373854
-7.816876 1.336162 -2.124904
-44.953693 7.692145 0.796074
-9.455927 1.619730 -2.214868
-11.819061 2.026637 -2.330923
-15.880412 2.728755 -2.552072
-43.460560 7.475692 5.414655
-23.594965 4.062832 -2.939733
-45.232807 7.796805 7.269824
-43.092720 7.435651 8.500159
-44.764774 7.732220 -2.380763
-7.800745 1.361447 -2.121799
-9.465572 1.655411 -2.218467
-11.838989 2.072621 -2.336265
-15.847443 2.780072 -2.548318
-23.651020 4.157548 -2.948507
-44.698170 7.881495 -2.378669
-7.811162 1.391379 -2.125940
-9.459737 1.688442 -2.218467
-11.808490 2.109791 -2.331686
-15.833752 2.834677 -2.547692
-23.566763 4.223344 -2.939733
-41.118046 7.405706 -0.729266
-7.800802 1.416239 -2.124387
-9.431078 1.715617 -2.213068
-11.816881 2.151752 -2.334739
-15.820378 2.886460 -2.547066
-23.552628 4.301472 -2.939733
-40.686153 7.437945 6.550851
-40.893497 7.490602 8.081142
-7.790364 1.441046 -2.122834
-39.834743 7.375733 0.707137
-9.429169 1.747593 -2.213968
-11.813541 2.191643 -2.335502
-15.799067 2.936741 -2.545189
-40.624485 7.558640 5.073665
-40.868431 7.626170 8.081142
-7.800474 1.471093 -2.126975
-9.423011 1.780497 -2.213968
-39.392616 7.450424 2.101080
-11.801962 2.232135 -2.334739
-15.757666 2.985988 -2.540183
-23.366003 4.436174 -2.920233
-39.080715 7.426771 6.300555
-39.269672 7.483985 9.229292
-38.654976 7.373837 -0.686892
-7.791497 1.497584 -2.125940
-9.416739 1.813376 -2.213968
-11.797953 2.274061 -2.335502
-15.731631 3.037975 -2.537680
-38.472755 7.450466 6.206695
-37.921917 7.343794 -3.379377
-38.669411 7.509557 9.094321
-37.969448 7.380511 -0.675164
-7.790013 1.525517 -2.126975
-37.698776 7.389368 0.670556
-9.410352 1.846236 -2.213968
-11.774531 2.312206 -2.332449
-15.736436 3.095921 -2.540183
-40.613216 7.997447 5.082439
-23.365627 4.605328 -2.924133
-37.791458 7.455488 6.100945
-37.939453 7.505333 8.928757
-37.213734 7.368516 -0.662179
-7.784641 1.552698 -2.126975
-36.986404 7.383895 0.658340
-9.380919 1.874494 -2.208570
-11.766388 2.353291 -2.332449
-15.717786 3.149284 -2.538932
-37.210098 7.462324 4.659796
-37.106731 7.455077 5.994570
-36.580505 7.349353 -3.264331
-37.162586 7.473037 7.368280
-37.431618 7.540740 8.815382
-36.607555 7.381378 -0.651847
-7.779173 1.579862 -2.126975
-36.521450 7.423732 0.650521
-9.370499 1.906448 -2.207669
-36.732700 7.480025 1.964587
-11.761950 2.395132 -2.333213
-15.698956 3.202548 -2.537680
-36.802616 7.514332 4.612024
-36.461185 7.457877 5.894451
-35.945614 7.352421 -3.209946
-36.828533 7.539712 7.307221
-35.901760 7.356515 -1.920625
-35.935146 7.376419 -0.640329
-7.777394 1.607790 -2.128010
-35.856934 7.419086 0.639142
-9.379053 1.942308 -2.211269
-36.628136 7.591987 1.960400
-11.734293 2.432190 -2.329396
-35.852760 7.437799 3.203496
-15.695417 3.258935 -2.538932
-36.865566 7.661332 4.623236
-23.246153 4.835209 -2.915359
-35.935982 7.481234 5.813731
-35.381374 7.365774 -3.161836
-35.802563 7.459978 7.108780
-35.359688 7.374146 -1.892992
-35.966415 7.507218 8.482454
-35.365005 7.388137 -0.630625
-7.764174 1.633336 -2.125940
-35.314224 7.435437 0.629927
-9.364589 1.973428 -2.209469
-36.691315 7.738750 1.965215
-11.752627 2.478806 -2.334739
-35.339222 7.460025 3.159919
-15.699407 3.316969 -2.541435
-36.838596 7.789980 4.623236
-23.132029 4.895767 -2.903172
-35.441982 7.507565 5.738017
-34.751213 7.361241 -3.107799
-35.311527 7.486379 7.016429
-34.755421 7.374809 -1.862009
-35.692184 7.580092 8.423967
-34.760025 7.388475 -0.620293
-7.750868 1.658813 -2.123869
-34.728828 7.438876 0.619944
-9.369076 2.008554 -2.212169
-36.640636 7.861760 1.963959
-11.736223 2.518171 -2.333213
-34.701302 7.451984 3.105185
-15.672284 3.368426 -2.538932
-36.811180 7.918516 4.623236
-23.095394 4.972307 -2.900734
-34.546589 7.443984 5.597226
-34.207226 7.370859 -3.061433
-34.663380 7.475489 6.892784
-34.143776 7.369668 -1.830607
-34.233669 7.401577 -0.611358
-7.745030 1.685858 -2.123869
-34.073505 7.422989 0.608705
-9.358200 2.040418 -2.211269
-36.675411 8.003239 1.967309
-11.719689 2.557448 -2.331686
-34.118382 7.451478 3.055332
-15.660430 3.423116 -2.538932
-22.876223 5.008733 -2.875386
-34.068863 7.465593 5.524014
-33.648022 7.373373 -3.013671
-34.161491 7.492140 6.798143
-33.618439 7.379189 -1.803811
-33.680298 7.405091 -0.601933
-34.374035 7.563909 9.430849
-7.746644 1.714552 -2.125940
-33.508533 7.422521 0.599071
-9.331995 2.068854 -2.206770
-36.707172 8.137785 1.970449
-11.714525 2.599190 -2.332449
-33.605904 7.462550 3.011754
-15.640672 3.476047 -2.537680
-33.635246 7.481394 4.230817
-22.490442 5.006606 -2.829075
-33.619720 7.484099 5.455184
-33.139790 7.383332 -2.970442
-33.518116 7.473761 6.675262
-33.120735 7.391222 -1.778481
-33.128624 7.399052 -0.592509
-33.851040 7.566601 9.294191
-7.744381 1.742430 -2.126975
-33.035019 7.432642 0.591043
-9.325083 2.099789 -2.206770
-38.985443 8.785742 2.094380
-11.713040 2.641794 -2.333976
-33.124874 7.477165 2.970965
-15.621350 3.526155 -2.536429
-33.168774 7.493158 4.175244
-22.105837 4.997980 -2.782765
-33.539448 7.589202 5.446423
-32.561951 7.373992 -2.920937
-33.037434 7.481670 6.584437
-32.577915 7.383576 -1.750638
-36.504097 8.280128 8.641720
-32.696976 7.422569 -0.585249
-33.285637 7.562311 9.146148
-7.719727 1.763799 -2.121799
-32.509830 7.433799 0.582108
-9.313897 2.131455 -2.205870
-38.970112 8.925341 2.095218
-11.681251 2.675362 -2.329396
-32.684303 7.491704 2.933662
-15.624351 3.584196 -2.538932
-32.623905 7.489846 4.109922
-21.825136 5.014663 -2.749616
-32.090725 7.379238 -2.880846
-32.498367 7.478939 6.482163
-32.104294 7.394157 -1.726563
-32.312340 7.453944 -0.578826
-32.976688 7.613268 9.068502
-7.709760 1.789862 -2.120763
-32.086334 7.454923 0.574987
-9.313992 2.165719 -2.207669
-11.687140 2.719681 -2.332449
-32.269859 7.515373 2.898800
-15.575191 3.630190 -2.532987
-32.091061 7.485534 4.046062
-21.467272 5.011394 -2.706718
-33.547203 7.837541 5.456435
-31.626297 7.388764 -2.841451
-32.051491 7.494000 6.398208
-31.580435 7.389683 -1.699767
-36.487148 8.544539 8.651618
-32.216034 7.550272 -0.577570
-32.250248 7.564229 8.875941
-7.718508 1.820309 -2.124904
-31.554096 7.447441 0.565912
-9.310170 2.199115 -2.208570
-38.992374 9.217413 2.099823
-11.662288 2.756850 -2.329396
-31.758715 7.513292 2.855222
-15.585492 3.689997 -2.536742
-31.622396 7.492707 3.990246
-21.190823 5.024919 -2.674057
-33.596519 7.972839 5.468950
-31.158323 7.394228 -2.801708
-31.513220 7.484265 6.295934
-31.150276 7.403804 -1.677996
-36.544308 8.692596 8.672313
-31.731285 7.559452 8.740319
-7.700833 1.844542 -2.121799
-31.041754 7.441006 0.557186
-9.296752 2.230234 -2.207220
-39.014336 9.366511 2.102754
-11.667867 2.801206 -2.332449
-31.151114 7.484469 2.802928
-15.564833 3.742531 -2.535490
-31.156013 7.497150 3.934674
-20.993670 5.055636 -2.651390
-33.626095 8.103958 5.478335
-30.655838 7.388120 -2.758828
-31.059393 7.491105 6.210451
-30.638872 7.395339 -1.651828
-31.171930 7.529770 7.403589
-31.490644 7.618384 8.681309
-7.713120 1.875978 -2.126975
-30.626999 7.454725 0.550205
-9.294590 2.264058 -2.208570
-38.996929 9.506425 2.103591
-11.627499 2.834478 -2.326343
-30.667994 7.481720 2.761791
-15.540162 3.794030 -2.533613
-30.743979 7.511628 3.885926
-21.018318 5.139260 -2.656752
-33.655167 8.235364 5.487722
-30.242805 7.400365 -2.723966
-30.701252 7.518225 6.144050
-30.252054 7.413821 -1.632359
-30.729074 7.536408 7.304610
-33.374237 8.191319 -0.599839
-7.672764 1.894554 -2.117657
-30.185352 7.458932 0.542735
-9.279063 2.294617 -2.206770
-11.628968 2.877879 -2.328633
-30.193012 7.477600 2.721351
-15.496145 3.840649 -2.528607
-30.274424 7.508986 3.829866
-20.807589 5.164775 -2.632378
-33.618549 8.350889 5.486470
-30.350927 7.544832 6.079175
-30.278992 7.538173 7.203833
-33.337677 8.305833 -0.599700
-7.669854 1.922264 -2.118693
-29.798363 7.473776 0.536243
-9.276668 2.328417 -2.208120
-38.991604 9.794005 2.106941
-11.596003 2.912712 -2.324054
-29.838238 7.500384 2.691718
-15.497969 3.898572 -2.531110
-29.851475 7.514783 3.779656
-20.654686 5.203431 -2.615316
-33.638992 8.480744 5.494605
-29.021580 7.316646 -2.618507
-29.806627 7.520091 5.975375
-29.103504 7.348105 -1.573114
-29.825500 7.535933 7.102155
-32.176289 8.135876 -0.579315
-7.670585 1.950930 -2.120763
-29.388384 7.480084 0.529332
-9.251487 2.356453 -2.204070
-39.022972 9.946834 2.110500
-11.585764 2.953175 -2.324054
-29.402594 7.500094 2.654764
-15.484267 3.952643 -2.531110
-29.386538 7.506924 3.724084
-20.621012 5.271564 -2.613366
-33.639809 8.605942 5.499611
-29.015167 7.422838 -2.620250
-29.323734 7.507237 5.883787
-28.996418 7.428833 -1.568718
-29.413925 7.541261 7.010375
-28.955587 7.429143 -0.521792
-32.455254 8.333092 8.978434
-7.667469 1.978661 -2.121799
-28.924522 7.469615 0.521443
-9.250752 2.390683 -2.205870
-39.026691 10.092992 2.112593
-11.590591 2.997532 -2.327107
-28.955750 7.493853 2.616764
-15.466551 4.005680 -2.530484
-29.002737 7.516823 3.678748
-20.602486 5.343509 -2.613366
-28.940395 7.511447 4.735585
-28.626524 7.429982 -2.587480
-28.928711 7.513803 5.809752
-28.614634 7.437550 -1.549459
-29.032856 7.551671 6.925793
-28.639198 7.454614 -0.516556
-29.109529 7.582457 8.060143
-7.667991 2.007368 -2.123869
-28.550077 7.479318 0.515160
-9.242350 2.422962 -2.205870
-28.659506 7.518677 1.552808
-11.572462 3.035977 -2.325580
-28.640350 7.518994 2.590617
-15.463938 4.062659 -2.532362
-28.619232 7.524128 3.633413
-20.568350 5.411353 -2.611417
-28.596891 7.528935 4.683648
-28.295988 7.449714 -2.559938
-28.598553 7.534703 5.748694
-28.237007 7.444718 -1.530408
-28.591782 7.543600 6.826815
-28.326855 7.478982 -0.511390
-28.724272 7.589281 7.960756
-7.642267 2.029165 -2.118693
-28.172052 7.485473 0.508807
-9.233836 2.455207 -2.205870
-28.254786 7.518014 1.532292
-11.531438 3.068277 -2.319474
-28.409849 7.564583 2.572140
-15.430574 4.111525 -2.529233
-28.251377 7.532948 3.590028
-20.533989 5.479028 -2.609467
-28.249811 7.543093 4.631086
-27.884825 7.445637 -2.525076
-28.541729 7.626376 5.742588
-27.840389 7.444191 -1.510311
-28.158655 7.534549 6.729636
-28.304438 7.578851 -0.511460
-28.626698 7.670501 7.941086
-7.650060 2.059848 -2.122834
-27.724831 7.470350 0.501198
-9.228973 2.488440 -2.206770
-27.858135 7.516700 1.512195
-11.554775 3.117717 -2.326343
-28.452515 7.682403 2.578415
-15.419943 4.166393 -2.529859
-27.791828 7.514421 3.534942
-20.522404 5.552741 -2.610441
-27.784760 7.522918 4.559126
-27.524035 7.452325 -2.494746
-27.444124 7.440971 -1.490214
-27.831261 7.551150 6.657651
-28.300964 7.683901 -0.511879
-7.639095 2.085520 -2.121799
-27.355223 7.473279 0.494985
-9.205193 2.516529 -2.203171
-27.497835 7.517397 1.493982
-11.532459 3.154923 -2.324054
-28.463957 7.792196 2.581902
-15.397684 4.218106 -2.528607
-27.401680 7.511673 3.488632
-20.525869 5.630646 -2.613366
-27.401522 7.516771 4.500307
-27.132805 7.448149 -2.461627
-28.468863 7.820249 5.738772
-27.071335 7.441436 -1.471373
-27.406395 7.538683 6.562272
-28.310036 7.787249 -0.512507
-27.515877 7.573972 7.647068
-7.629907 2.111659 -2.121281
-26.960258 7.461542 0.488283
-9.181772 2.542880 -2.199572
-27.086487 7.506649 1.473048
-11.525161 3.196210 -2.324817
-28.451944 7.895769 2.583296
-15.379804 4.268087 -2.527981
-27.051460 7.512196 3.447196
-20.480309 5.691241 -2.609954
-27.024931 7.514997 4.442739
-26.745783 7.442408 -2.428856
-28.457901 7.918830 5.741825
-26.727116 7.442233 -1.453998
-27.020817 7.529097 6.475891
-28.325058 7.897846 -0.513275
-27.154331 7.576514 7.553893
-7.622863 2.136948 -2.121281
-26.637543 7.472430 0.482908
-9.187851 2.579126 -2.203171
-26.752460 7.514740 1.456300
-11.499377 3.230164 -2.321764
-28.513836 8.014878 2.591315
-15.357206 4.319604 -2.526730
-26.688766 7.511926 3.404299
-20.433565 5.755162 -2.606542
-26.709539 7.527829 4.395183
-26.425632 7.447813 -2.402012
-28.581251 8.060745 5.772354
-26.393427 7.448688 -1.437250
-26.705563 7.541804 6.406606
-28.316561 8.002102 -0.513624
-26.800547 7.578735 7.462789
-7.594915 2.157738 -2.115587
-26.284307 7.472400 0.476974
-9.193787 2.615448 -2.206770
-26.414873 7.519492 1.439344
-11.488031 3.270285 -2.321764
-28.458860 8.106713 2.588874
-15.357232 4.377517 -2.529233
-26.353128 7.516833 3.364813
-20.409536 5.825359 -2.606054
-26.318407 7.516864 4.335113
-26.039307 7.437150 -2.369242
-28.590694 8.171254 5.779986
-26.017775 7.440816 -1.418200
-26.495464 7.582440 6.362515
-27.008123 7.734251 -0.490378
-26.413647 7.569001 7.362367
-7.592906 2.185838 -2.117140
-25.919868 7.466681 0.470831
-9.162130 2.641050 -2.201371
-26.142834 7.540794 1.425946
-11.465229 3.307099 -2.319474
-15.330470 4.427813 -2.527355
-26.116957 7.548144 3.338001
-20.404333 5.900979 -2.608004
-25.995995 7.523024 4.286305
-25.733765 7.447136 -2.343792
-28.535595 8.263352 5.774644
-25.703890 7.448209 -1.402499
-26.128197 7.576110 6.280633
-26.086515 7.573895 7.278510
-7.594504 2.215034 -2.119728
-25.613382 7.475318 0.465735
-9.149115 2.671921 -2.200471
-25.771276 7.531163 1.407105
-11.453615 3.347100 -2.319474
-29.472458 8.618353 2.686489
-15.313026 4.480741 -2.527043
-25.827545 7.562285 3.304366
-20.383608 5.972173 -2.608004
-25.647327 7.519245 4.233117
-25.382586 7.441628 -2.314159
-29.576611 8.676825 5.991403
-25.348114 7.441132 -1.384495
-25.626677 7.527763 6.166358
-25.704075 7.560246 7.179123
-7.575609 2.238245 -2.116622
-25.276474 7.472837 0.460080
-9.145338 2.705500 -2.201821
-25.430752 7.528101 1.389938
-11.456923 3.391519 -2.322527
-29.449839 8.723436 2.687186
-15.274565 4.527431 -2.523288
-25.492680 7.560953 3.264880
-20.351217 6.039900 -2.606542
-25.336880 7.524366 4.186187
-25.085245 7.449637 -2.289407
-29.572487 8.787850 5.996746
-25.053967 7.449872 -1.369841
-25.305130 7.529357 6.095273
-25.418329 7.572703 7.106654
-7.567750 2.264674 -2.116622
-24.982044 7.480715 0.455194
-9.128371 2.735169 -2.200021
-25.128828 7.534227 1.374866
-11.445014 3.431491 -2.322527
-29.506994 8.852520 2.695204
-15.251101 4.578449 -2.522037
-25.199966 7.569945 3.230757
-20.345222 6.115470 -2.608492
-25.007793 7.521728 4.136127
-24.761446 7.447633 -2.262214
-29.564192 8.897815 6.001325
-24.729473 7.447430 -1.353513
-24.980158 7.527680 6.023289
-32.093586 9.677405 -0.585109
-25.081028 7.567627 7.019691
-7.552403 2.288837 -2.114552
-24.676388 7.483149 0.450098
-9.126227 2.769278 -2.201821
-24.773664 7.522091 1.356862
-11.432966 3.471421 -2.322527
-29.464474 8.951990 2.694158
-15.242586 4.633953 -2.523288
-24.694799 7.512269 3.169334
-20.300962 6.179514 -2.605567
-24.697933 7.522648 4.089198
-24.445593 7.445788 -2.235719
-29.570511 9.012400 6.008957
-24.466438 7.461463 -1.340533
-24.748699 7.552272 5.973800
-32.071087 9.792871 -0.585319
-24.755156 7.563682 6.935833
-7.536981 2.312920 -2.112481
-24.374847 7.484707 0.445071
-9.109054 2.798831 -2.200021
-24.487627 7.528699 1.342627
-11.387000 3.500923 -2.315658
-29.444475 9.058295 2.695204
-15.214989 4.683648 -2.521411
-24.410418 7.518952 3.136186
-20.256504 6.243320 -2.602642
-24.392155 7.522649 4.042893
-24.168139 7.453561 -2.212710
-24.165442 7.461967 -1.325461
-24.703568 7.632857 5.969301
-32.082561 9.918937 -0.586157
-24.496061 7.578116 6.870611
-7.532551 2.340359 -2.113516
-24.065958 7.481885 0.439905
-9.088064 2.827137 -2.197322
-24.209473 7.535769 1.328810
-11.389708 3.545315 -2.318711
-15.209863 4.740257 -2.523288
-24.114922 7.520195 3.101575
-20.238377 6.315178 -2.603129
-24.128160 7.533567 4.003471
-23.879520 7.455934 -2.188655
-28.262587 8.829878 5.755563
-23.860928 7.459270 -1.310178
-24.706532 7.728351 5.976500
-32.104992 10.048786 -0.587204
-24.148684 7.563107 6.780542
-7.537235 2.370696 -2.117140
-23.806984 7.492613 0.435647
-9.074423 2.857671 -2.196422
-23.912521 7.534995 1.313947
-11.369773 3.582691 -2.317185
-29.471725 9.292400 2.703571
-15.215830 4.800453 -2.527043
-23.808359 7.515879 3.065502
-20.174566 6.372632 -2.597767
-23.815420 7.527256 3.955915
-23.587381 7.455181 -2.164251
-23.806482 7.529001 4.853418
-23.564350 7.456949 -1.295315
-24.642248 7.802782 5.967502
-32.081158 10.164416 -0.587413
-23.864323 7.565623 6.708072
-7.521551 2.394647 -2.115069
-23.582531 7.512545 0.432017
-9.060679 2.888146 -2.195522
-23.646317 7.541957 1.300758
-11.349714 3.619974 -2.315658
-29.477068 9.407334 2.707057
-15.150056 4.837910 -2.518908
-23.551287 7.525234 3.035766
-20.163542 6.446642 -2.599230
-23.525599 7.526071 3.912114
-23.303137 7.454903 -2.140545
-23.589336 7.551006 4.814493
-23.302320 7.463615 -1.282336
-24.611153 7.887558 5.966602
-32.094990 10.292216 -0.588321
-23.591280 7.569788 6.638709
-7.502114 2.417335 -2.111964
-23.339195 7.524859 0.428038
-9.065379 2.924542 -2.199121
-23.342342 7.534875 1.285476
-11.340745 3.660777 -2.316421
-29.432680 9.506492 2.706012
-15.118037 4.885904 -2.516405
-23.283112 7.529218 3.004567
-20.148474 6.519427 -2.600204
-23.254869 7.529052 3.871441
-23.060881 7.466246 -2.120673
-23.260269 7.535285 4.752671
-23.040535 7.468538 -1.269356
-25.358303 8.224735 6.154661
-32.093105 10.415298 -0.588949
-23.369949 7.588841 6.583839
-7.497303 2.444704 -2.112999
-23.099869 7.536813 0.424128
-9.049558 2.954357 -2.197772
-23.080486 7.539404 1.272497
-11.309237 3.694242 -2.312605
-29.486429 9.637647 2.714030
-15.044563 4.920230 -2.507019
-23.192541 7.589449 2.996280
-20.080315 6.574894 -2.594355
-23.006937 7.537610 3.834522
-22.799902 7.469780 -2.099059
-22.991301 7.536924 4.703060
-22.771410 7.469242 -1.255958
-25.351658 8.320495 6.160059
-32.079353 10.534740 -0.589368
-23.137758 7.602834 6.525864
-7.492393 2.472070 -2.114034
-22.841753 7.540915 0.419870
-9.018835 2.979202 -2.192823
-22.799913 7.535934 1.258471
-11.303728 3.736161 -2.314131
-29.482872 9.750532 2.716819
-15.004794 4.965265 -2.503265
-23.128220 7.657881 2.991405
-20.068546 6.648699 -2.595817
-22.717979 7.530849 3.790720
-22.550529 7.475340 -2.078490
-22.756149 7.547909 4.660319
-22.506351 7.469421 -1.242770
-25.370546 8.424901 6.171757
-32.118294 10.671878 -0.590764
-22.872765 7.604323 6.458570
-7.473158 2.493234 -2.110928
-22.581417 7.538110 0.415542
-9.001513 3.006624 -2.191023
-22.574007 7.544395 1.247375
-11.295001 3.774870 -2.314895
-29.518400 9.870989 2.723094
-14.991993 5.016249 -2.503890
-23.106461 7.735796 2.991893
-20.012510 6.703858 -2.591430
-22.468126 7.530811 3.753176
-22.280033 7.467766 -2.055830
-22.470402 7.535936 4.606893
-22.265600 7.471581 -1.230837
-25.427448 8.537520 6.192453
-32.101685 10.784697 -0.591113
-22.492176 7.560716 6.358149
-7.471732 2.521777 -2.112999
-22.335196 7.542665 0.411493
-9.013118 3.045513 -2.196422
-22.297783 7.538709 1.233559
-11.278035 3.813017 -2.314131
-14.907032 5.045751 -2.492627
-23.060516 7.810039 2.989455
-19.970184 6.767303 -2.588993
-22.183537 7.521659 3.710000
-22.019857 7.466161 -2.034215
-22.243170 7.546207 4.565678
-22.035130 7.479916 -1.219533
-25.364277 8.614946 6.184354
-32.094135 10.906981 -0.591671
-22.249825 7.565790 6.297068
-7.455571 2.545344 -2.110928
-22.100573 7.549485 0.407653
-8.976616 3.068132 -2.190123
-22.048338 7.540230 1.221207
-11.253511 3.848547 -2.311842
-29.460081 10.080695 2.724140
-14.762244 5.054245 -2.471352
-23.044384 7.894343 2.990918
-19.931419 6.831822 -2.587043
-21.959080 7.531120 3.676836
-21.793888 7.474466 -2.015738
-21.990143 7.546063 4.519121
-21.793535 7.482848 -1.207600
-25.363539 8.713563 6.191553
-32.093689 11.031946 -0.592370
-21.989447 7.562986 6.230810
-7.452119 2.573247 -2.112481
-21.843494 7.546916 0.403395
-8.976902 3.103266 -2.192823
-21.806702 7.542725 1.209275
-11.243719 3.889092 -2.312605
-29.451073 10.192592 2.726580
-14.583982 5.050153 -2.444445
-19.911200 6.902656 -2.587530
-21.704971 7.528743 3.638666
-21.534254 7.469528 -1.994123
-21.737392 7.544245 4.472563
-21.571062 7.490737 -1.196714
-25.369787 8.814832 6.200551
-32.092758 11.157041 -0.593068
-21.758554 7.568613 6.172834
-7.437619 2.597333 -2.110928
-21.605591 7.549237 0.399486
-8.954978 3.130724 -2.190123
-21.569094 7.544939 1.197551
-11.218957 3.924428 -2.310315
-29.475492 10.316389 2.732158
-14.428301 5.052720 -2.421293
-23.959137 8.395066 3.117174
-19.868254 6.965545 -2.585093
-21.514524 7.546928 3.611134
-21.327560 7.481345 -1.977389
-21.503447 7.547258 4.429822
-21.303576 7.481277 -1.183316
-25.382986 8.918846 6.211349
-32.095119 11.283589 -0.593836
-21.699202 7.632976 6.163517
-7.424865 2.621992 -2.109893
-21.371708 7.551329 0.395646
-8.943995 3.161966 -2.190123
-21.331738 7.545582 1.185828
-11.219997 3.968800 -2.313368
-29.544481 10.456442 2.741920
-14.280231 5.056896 -2.399392
-23.963367 8.490576 3.121562
-19.828850 7.029551 -2.583143
-21.361452 7.577077 3.589859
-21.102274 7.485145 -1.958912
-21.258652 7.544785 4.384791
-21.096647 7.491440 -1.173268
-25.359043 9.010005 6.213148
-32.119602 11.418322 -0.595022
-21.676064 7.709974 6.164552
-7.415667 2.647894 -2.109893
-21.145607 7.554570 0.391946
-8.936573 3.194477 -2.191023
-21.094641 7.544665 1.174105
-11.180196 3.998685 -2.308026
-21.073784 7.541360 1.958215
-14.139748 5.062760 -2.378743
-23.959747 8.583546 3.124974
-19.770552 7.086671 -2.578756
-21.130337 7.578237 3.555443
-20.880974 7.488804 -1.940784
-21.047398 7.552637 4.346629
-20.867353 7.492146 -1.161963
-25.371456 9.114277 6.223946
-32.098370 11.537134 -0.595371
-21.638113 7.781669 6.161447
-7.400928 2.671796 -2.108340
-20.927269 7.559044 0.388386
-8.914371 3.221678 -2.188324
-20.861570 7.543545 1.162591
-11.173554 4.040358 -2.309552
-20.852484 7.544375 1.940087
-13.947392 5.048884 -2.349333
-20.820148 7.540896 2.718905
-19.747562 7.156312 -2.578999
-20.918051 7.584615 3.524156
-20.659908 7.491016 -1.922656
-20.825274 7.555094 4.306178
-20.638315 7.491339 -1.150658
-20.862854 7.576964 5.124385
-20.645834 7.502231 -0.383429
-20.855537 7.582552 5.946109
-7.387927 2.696289 -2.107305
-20.664080 7.545624 0.383988
-8.914054 3.256789 -2.191023
-20.643772 7.546377 1.151914
-11.170444 4.083381 -2.311842
-20.620195 7.541838 1.920913
-13.807249 5.052734 -2.328684
-20.637115 7.556194 2.698431
-19.703821 7.218372 -2.576562
-20.687428 7.582806 3.489740
-20.412893 7.482177 -1.902087
-20.614458 7.560140 4.268016
-20.447039 7.502789 -1.141447
-20.737495 7.613476 5.100090
-20.454340 7.513576 -0.380358
-20.643990 7.587325 5.893310
-7.378470 2.722061 -2.107305
-20.378729 7.522151 0.379171
-8.902632 3.287883 -2.191023
-20.459936 7.560242 1.143122
-11.141391 4.116905 -2.308789
-20.436768 7.555734 1.906270
-13.685778 5.062522 -2.311163
-20.435617 7.563417 2.675520
-19.682230 7.288487 -2.577049
-20.397802 7.557524 3.445313
-20.225975 7.493861 -1.887096
-20.385447 7.556987 4.226038
-20.218483 7.499106 -1.130143
-20.425779 7.580054 5.029905
-20.270519 7.526456 -0.377426
-20.443531 7.594756 5.843616
-7.372544 2.749151 -2.108340
-20.142511 7.514948 0.375262
-8.871017 3.311444 -2.186074
-20.212641 7.549156 1.130771
-11.126953 4.155771 -2.308789
-20.216171 7.554490 1.888142
-13.538504 5.061839 -2.289262
-20.226883 7.566545 2.651634
-19.600895 7.336267 -2.569737
-20.134508 7.540002 3.405266
-20.018707 7.496636 -1.870188
-20.167746 7.556462 4.186349
-19.990202 7.493924 -1.118838
-20.191193 7.573285 4.978617
-20.090603 7.539556 -0.374564
-20.293913 7.619899 5.808417
-7.359287 2.773504 -2.107305
-19.944016 7.520304 0.372050
-8.868521 3.345830 -2.188324
-20.032946 7.561824 1.122188
-11.116054 4.195970 -2.309552
-19.995831 7.551807 1.870014
-13.443142 5.079740 -2.276122
-20.183640 7.630782 2.649440
-19.567739 7.401838 -2.568762
-19.919624 7.538919 3.373353
-19.822849 7.502293 -1.854326
-19.931942 7.547553 4.142845
-19.784624 7.495722 -1.108790
-19.986055 7.576027 4.934526
-20.056683 7.606802 -0.374424
-20.303312 7.704395 5.818770
-7.344145 2.797114 -2.105752
-19.738255 7.521523 0.368700
-8.838579 3.369822 -2.183825
-19.812355 7.557674 1.111302
-11.094002 4.231948 -2.308026
-19.798098 7.556200 1.853977
-13.451165 5.136497 -2.280502
-20.195822 7.716068 2.654558
-19.515821 7.460174 -2.565350
-19.712374 7.539247 3.342692
-19.591841 7.493147 -1.835151
-19.747784 7.556746 4.110026
-19.590467 7.500467 -1.099369
-19.777510 7.576036 4.889536
-20.056150 7.686787 -0.374913
-7.336139 2.823429 -2.106270
-19.525269 7.518514 0.365209
-8.834036 3.403456 -2.185624
-19.618126 7.562140 1.101881
-11.060841 4.263589 -2.304209
-19.593145 7.556433 1.837243
-13.407351 5.173464 -2.276122
-20.172464 7.787953 2.655046
-19.452627 7.513947 -2.560475
-19.512733 7.541073 3.313282
-19.390873 7.493977 -1.818766
-19.549160 7.559077 4.074154
-19.389071 7.501066 -1.089530
-19.609192 7.590153 4.854444
-20.059031 7.768305 -0.375471
-20.277855 7.857118 5.827053
-7.326239 2.849018 -2.106270
-19.327454 7.519917 0.361998
-8.825734 3.435686 -2.186524
-19.401779 7.556634 1.091205
-11.060528 4.307871 -2.307263
-19.410707 7.564013 1.822601
-13.363443 5.210190 -2.271742
-20.196939 7.878520 2.661870
-19.293137 7.529835 -2.542926
-19.309647 7.540166 3.283247
-19.190136 7.493500 -1.802381
-19.343445 7.557256 4.036755
-19.187914 7.500347 -1.079691
-19.386568 7.581904 4.805854
-19.975925 7.816416 -0.374424
-20.304274 7.948977 5.842581
-7.316249 2.874574 -2.106270
-19.133589 7.521492 0.358856
-8.795551 3.459343 -2.182025
-19.237753 7.570194 1.083459
-11.016192 4.334950 -2.301157
-19.261831 7.583551 1.811096
-13.264307 5.224951 -2.257975
-20.191479 7.957703 2.664795
-19.107916 7.534511 -2.521964
-19.136204 7.549530 3.258217
-19.004471 7.497560 -1.787390
-19.163553 7.564179 4.004699
-18.990709 7.499791 -1.070061
-19.185995 7.580783 4.762664
-20.065681 7.932409 -0.376623
-20.308735 8.032598 5.851899
-7.302579 2.898669 -2.105234
-18.939957 7.521805 0.355715
-8.790667 3.492900 -2.183825
-19.025614 7.563517 1.072992
-11.022886 4.382082 -2.305736
-19.064919 7.583002 1.795060
-13.187256 5.247845 -2.247964
-20.196775 8.041354 2.669183
-18.919212 7.536523 -2.500515
-18.955595 7.554844 3.231936
-18.826420 7.503361 -1.773096
-18.961964 7.561217 3.968064
-18.801167 7.500907 -1.060850
-18.982050 7.576907 4.718574
-20.076868 8.017979 -0.377356
-20.323627 8.120645 5.864322
-7.287038 2.921984 -2.103681
-18.772533 7.531290 0.353062
-8.782039 3.525016 -2.184725
-18.854532 7.571823 1.064827
-10.989304 4.413213 -2.301920
-18.838673 7.569277 1.776234
-13.143198 5.283530 -2.243583
-20.209101 8.128101 2.674545
-18.734415 7.538782 -2.479554
-18.899788 7.609161 3.226930
-18.641167 7.505039 -1.758106
-18.764273 7.558414 3.932192
-18.615559 7.502281 -1.051848
-18.810898 7.584821 4.682581
-20.061737 8.093254 -0.377600
-20.320240 8.201656 5.871569
-7.267840 2.943778 -2.101093
-18.571920 7.526175 0.349781
-8.773293 3.557112 -2.185624
-18.696053 7.580274 1.057291
-10.955639 4.444170 -2.298104
-18.657061 7.572052 1.761592
-13.128335 5.330863 -2.244209
-20.213707 8.212045 2.678932
-18.565861 7.542588 -2.460542
-18.867132 7.668819 3.225679
-18.433987 7.496510 -1.741023
-18.577749 7.558753 3.898610
-18.441269 7.506974 -1.043474
-18.623198 7.581032 4.642090
-20.082939 8.179343 -0.378508
-20.303665 8.273371 5.874675
-7.265192 2.970787 -2.103164
-18.391392 7.524117 0.346849
-8.747020 3.580283 -2.182025
-18.504456 7.574143 1.047871
-10.940843 4.480473 -2.298104
-18.488043 7.574960 1.747996
-13.088651 5.365378 -2.240455
-20.208403 8.288070 2.681857
-18.379124 7.537828 -2.439093
-18.834288 7.728344 3.224428
-18.257889 7.495552 -1.726730
-18.407299 7.560644 3.868080
-18.242620 7.496725 -1.033635
-18.446547 7.580527 4.604298
-20.083447 8.257302 -0.379031
-20.369020 8.378871 5.901592
-7.244586 2.990440 -2.100058
-18.211084 7.520947 0.343917
-8.735099 3.609269 -2.182025
-18.297018 7.563908 1.037613
-10.933182 4.519730 -2.299630
-18.293438 7.566171 1.731959
-13.074437 5.410264 -2.241080
-22.579838 9.348253 3.000667
-18.183973 7.532049 -2.416669
-18.814495 7.797066 3.225679
-18.088058 7.499712 -1.713133
-18.208027 7.549454 3.831445
-18.066385 7.494426 -1.025052
-18.257984 7.577641 4.563807
-30.655190 12.729146 -0.579385
-21.352974 8.870898 6.195611
-7.230010 3.015487 -2.099023
-18.048143 7.527507 0.341334
-8.711658 3.635234 -2.179326
-18.115686 7.563096 1.028820
-10.891179 4.549181 -2.294287
-18.111164 7.568633 1.717317
-13.065454 5.462720 -2.242958
-22.572708 9.437741 3.004080
-18.007402 7.532660 -2.396683
-18.772585 7.856588 3.223176
-17.936798 7.510483 -1.701280
-18.082449 7.575180 3.810837
-17.895121 7.500369 -1.016888
-18.071941 7.578194 4.524216
-30.636387 12.846902 -0.579874
-7.215879 3.039205 -2.097987
-17.873014 7.531480 0.338542
-8.710843 3.672441 -2.182475
-17.936945 7.565794 1.020237
-10.857145 4.579538 -2.290471
-17.941456 7.571385 1.703720
-13.028109 5.500610 -2.239829
-22.585512 9.540489 3.010417
-17.851679 7.544512 -2.379621
-17.732996 7.501650 -1.684546
-17.951027 7.593885 3.788704
-17.740078 7.508302 -1.009561
-17.916174 7.586520 4.491823
-30.633287 12.977818 -0.580711
-17.948599 7.607639 5.223486
-7.197581 3.062609 -2.095917
-17.703091 7.532758 0.335819
-8.690799 3.699770 -2.180676
-17.785473 7.575140 1.013120
-10.854735 4.625461 -2.293524
-17.770626 7.576147 1.690124
-13.004228 5.546771 -2.239203
-22.563025 9.623942 3.011879
-17.679169 7.544454 -2.360122
-19.762318 8.437493 3.403389
-17.558292 7.500111 -1.670427
-17.800312 7.607170 3.762754
-17.565523 7.510451 -1.001187
-17.746708 7.591583 4.456281
-30.661337 13.116128 -0.582108
-17.779850 7.609437 5.182075
-7.198037 3.091032 -2.099023
-17.529705 7.531354 0.333027
-8.665299 3.724697 -2.177526
-17.609791 7.569402 1.004536
-10.839337 4.661428 -2.293524
-17.609972 7.576765 1.677225
-12.993019 5.592988 -2.240455
-22.547525 9.710501 3.014317
-17.506884 7.543275 -2.340623
-19.759628 8.513926 3.407769
-17.416227 7.507817 -1.659271
-17.648796 7.611732 3.736041
-17.397486 7.506940 -0.993023
-17.569357 7.584740 4.418039
-30.650723 13.232001 -0.582736
-17.637466 7.617800 5.147911
-7.187203 3.116139 -2.099023
-17.365198 7.528990 0.330374
-8.642173 3.748759 -2.174827
-17.433022 7.565626 0.995953
-10.826601 4.700800 -2.294287
-17.426260 7.569920 1.662234
-12.970778 5.634470 -2.239829
-22.529768 9.791544 3.016267
-17.343420 7.541131 -2.322099
-19.780506 8.604912 3.416529
-17.243765 7.504958 -1.645326
-17.472246 7.604400 3.703984
-17.233324 7.503992 -0.985067
-17.397610 7.579140 4.381147
-30.655674 13.361293 -0.583713
-17.451397 7.609820 5.101324
-7.178601 3.140729 -2.099540
-17.210581 7.533430 0.327931
-8.645101 3.785939 -2.178876
-17.271135 7.567116 0.988208
-10.789376 4.727221 -2.289708
-17.280626 7.574874 1.650730
-12.940175 5.674953 -2.237952
-22.549984 9.894055 3.023579
-17.178846 7.540985 -2.303575
-19.763010 8.679467 3.418719
-17.091087 7.506020 -1.633124
-17.326965 7.613219 3.678797
-17.077209 7.507036 -0.977636
-17.235474 7.580198 4.346954
-30.649117 13.485929 -0.584481
-17.293886 7.613093 5.063018
-7.151689 3.158745 -2.094882
-17.056143 7.536884 0.325487
-8.612228 3.807424 -2.173927
-17.109449 7.567578 0.980462
-10.769217 4.763268 -2.288945
-17.122898 7.577100 1.638179
-12.920289 5.720085 -2.237952
-22.537088 9.982357 3.026504
-17.025377 7.544608 -2.286513
-19.763292 8.762007 3.424038
-16.911787 7.497798 -1.618482
-17.117231 7.592461 3.639873
-16.924936 7.510703 -0.970413
-17.068203 7.577845 4.311412
-17.520452 7.782293 -0.334632
-17.108322 7.602807 5.016431
-7.140619 3.183690 -2.094882
-16.876326 7.527942 0.322555
-8.598885 3.837465 -2.173927
-16.967531 7.572181 0.973763
-10.752523 4.800831 -2.288945
-16.969004 7.579938 1.625977
-12.878600 5.755483 -2.234197
-22.534727 10.075551 3.030891
-16.868469 7.545626 -2.268964
-19.764784 8.841209 3.429357
-16.774574 7.507143 -1.607849
-16.893522 7.563916 3.597895
-16.763733 7.509311 -0.962668
-16.938505 7.591154 4.285317
-30.644201 13.733494 -0.586157
-17.008978 7.626303 4.994690
-7.134748 3.210973 -2.096434
-16.756447 7.541191 0.320740
-8.587889 3.866757 -2.174377
-16.795313 7.565739 0.965389
-10.732121 4.836720 -2.288182
-16.793505 7.571971 1.611684
-12.852242 5.794908 -2.232946
-22.537380 10.166550 3.035766
-16.716700 7.544363 -2.251902
-19.771606 8.927223 3.435927
-16.613903 7.504956 -1.594950
-16.714476 7.550387 3.565075
-16.614979 7.508929 -0.955550
-16.767635 7.581449 4.248426
-30.672598 13.874996 -0.587623
-16.799217 7.602787 4.940856
-7.111747 3.229024 -2.092811
-16.602575 7.541744 0.318297
-8.570789 3.895101 -2.173477
-16.652441 7.571409 0.958690
-10.715173 4.874152 -2.288182
-16.655861 7.576472 1.600877
-12.839126 5.843011 -2.234197
-22.548731 10.266540 3.042103
-16.545742 7.536839 -2.232403
-18.651030 8.499765 3.246328
-16.417200 7.485205 -1.578565
-16.590239 7.567598 3.544468
-16.452885 7.508418 -0.947804
-16.652426 7.599480 4.225931
-30.674917 14.005227 -0.588600
-16.653084 7.606805 4.905656
-7.103376 3.256679 -2.093846
-16.476669 7.557524 0.316412
-8.554686 3.925674 -2.173027
-16.479370 7.565727 0.950316
-10.686533 4.908476 -2.285892
-16.519348 7.587572 1.590418
-12.817624 5.890027 -2.234197
-16.526546 7.597869 2.233378
-16.352087 7.521117 -2.209979
-18.583862 8.551548 3.240071
-16.441132 7.572504 3.518518
-16.316422 7.518517 -0.941524
-16.475790 7.591953 4.188138
-30.652430 14.130964 -0.589158
-16.505802 7.612772 4.870457
-7.072108 3.273766 -2.088152
-16.358130 7.575846 0.314667
-8.536704 3.955363 -2.172127
-16.336882 7.569467 0.943617
-10.669333 4.945750 -2.285892
-16.339598 7.577655 1.575776
-12.774447 5.926990 -2.230443
-16.347342 7.588181 2.212904
-16.206898 7.522989 -2.193892
-18.539566 8.609711 3.237568
-16.279293 7.566957 3.489515
-16.170547 7.519845 -0.934616
-16.307825 7.583684 4.152146
-30.653683 14.261496 -0.590136
-16.346022 7.608383 4.831116
-7.071714 3.302104 -2.091258
-16.325672 7.626666 0.314527
-8.535898 3.989424 -2.175277
-16.217602 7.579624 0.938174
-10.620861 4.966135 -2.279023
-16.213318 7.584523 1.566014
-12.738620 5.961783 -2.227627
-16.235792 7.601944 2.201204
-16.059610 7.519452 -2.177318
-18.543112 8.686226 3.243200
-16.235079 7.608525 -1.568629
-16.147457 7.570894 3.466618
-16.037031 7.522534 -0.928335
-16.180262 7.589719 4.126052
-30.653286 14.385157 -0.591043
-16.198292 7.605075 4.794882
-7.050240 3.320598 -2.088152
-16.300291 7.680762 0.314527
-8.508520 4.011061 -2.171677
-16.064594 7.576554 0.930847
-10.611438 5.004678 -2.280549
-16.054739 7.575332 1.553115
-12.720568 6.004834 -2.227940
-16.077667 7.593013 2.183168
-15.900448 7.512711 -2.159281
-18.548399 8.767781 3.249457
-15.994475 7.563968 3.439141
-15.876592 7.511610 -0.920485
-16.025087 7.585294 4.093209
-30.667952 14.522873 -0.592300
-16.063402 7.610291 4.762788
-7.039768 3.347244 -2.088670
-16.298666 7.749632 0.315016
-8.487428 4.037391 -2.169878
-15.911807 7.572505 0.923520
-10.585934 5.040159 -2.279023
-15.911745 7.579288 1.541959
-12.687773 6.046321 -2.226063
-15.939959 7.596141 2.168056
-15.752281 7.510073 -2.142707
-18.496283 8.822273 3.245703
-15.751810 7.516602 -1.526969
-15.867432 7.575171 3.417771
-15.740819 7.518103 -0.914205
-15.877613 7.586842 4.062616
-30.656765 14.648804 -0.593068
-15.918221 7.609659 4.727589
-7.031524 3.373468 -2.089705
-16.273756 7.811052 0.315086
-8.469061 4.066782 -2.168978
-15.775930 7.578878 0.917240
-10.561197 5.073680 -2.277496
-15.795404 7.591632 1.533244
-12.670152 6.092282 -2.226688
-15.797522 7.599438 2.152457
-15.595860 7.505781 -2.125158
-18.485182 8.900290 3.249457
-15.615972 7.518816 -1.516336
-15.791366 7.606660 3.407086
-15.606527 7.520980 -0.907924
-15.742201 7.589749 4.034722
-30.671310 14.794082 -0.594394
-15.782351 7.615897 4.695495
-7.009272 3.392944 -2.086599
-16.257191 7.873037 0.315295
-8.458321 4.098020 -2.169878
-15.645136 7.583377 0.911169
-10.469221 5.074552 -2.261468
-15.639733 7.584125 1.520693
-12.648808 6.136472 -2.226688
-15.663749 7.602530 2.137832
-15.480280 7.516820 -2.112971
-18.482431 8.978567 3.254463
-15.482104 7.521040 -1.505877
-15.750589 7.654871 3.404032
-15.483185 7.528251 -0.902272
-15.608714 7.592655 4.007278
-30.651850 14.916806 -0.595022
-15.634086 7.611746 4.659261
-6.988706 3.413150 -2.084011
-16.226017 7.927982 0.315225
-8.440462 4.125809 -2.168978
-15.546803 7.602843 0.906982
-10.407354 5.089502 -2.251928
-15.502206 7.584386 1.509886
-12.620213 6.177117 -2.225437
-15.524796 7.602161 2.122477
-15.336291 7.513168 -2.096884
-18.489998 9.062160 3.261346
-15.337677 7.517171 -1.494372
-15.720248 7.708076 3.403269
-15.338466 7.524193 -0.895364
-15.480648 7.597297 3.981184
-30.653446 15.050152 -0.596070
-15.506853 7.616870 4.629238
-6.981948 3.440086 -2.085564
-16.894171 8.327616 0.328768
-8.405035 4.144906 -2.163579
-15.419865 7.607579 0.901121
-10.310296 5.086711 -2.234755
-15.397024 7.599652 1.502216
-12.584404 6.214136 -2.222934
-15.380704 7.598274 2.106390
-15.210313 7.517402 -2.083235
-18.497208 9.145908 3.268229
-15.209542 7.520329 -1.484437
-15.689728 7.761159 3.402506
-15.195752 7.520112 -0.888560
-15.399897 7.624485 3.967237
-30.679569 15.196105 -0.597605
-15.369386 7.616060 4.596109
-6.983737 3.471315 -2.089705
-16.916924 8.412362 0.329781
-8.411453 4.184634 -2.168978
-15.305142 7.614191 0.895887
-10.232718 5.092927 -2.221780
-15.252687 7.594743 1.490712
-12.580317 6.266831 -2.226063
-15.245708 7.597905 2.091522
-15.078700 7.514675 -2.068610
-18.489761 9.218657 3.272297
-15.097622 7.530684 -1.476070
-15.680109 7.824646 3.406322
-15.072913 7.524935 -0.882908
-15.287352 7.631990 3.944742
-15.590899 7.786927 -0.304195
-15.252456 7.621217 4.568674
-6.965279 3.490993 -2.087634
-16.921114 8.484541 0.330409
-8.397530 4.212504 -2.168978
-15.194118 7.621918 0.890863
-10.145586 5.091609 -2.206515
-15.134832 7.598788 1.481647
-12.538284 6.297875 -2.222308
-15.114005 7.594942 2.076898
-14.943727 7.509375 -2.053499
-18.489092 9.295005 3.277615
-14.985349 7.536842 -1.467528
-15.650567 7.874836 3.405559
-14.947975 7.524589 -0.877046
-15.167964 7.635328 3.920447
-15.457832 7.784621 -0.302101
-15.104605 7.610039 4.531921
-6.932974 3.503616 -2.081423
-16.919655 8.554141 0.330933
-8.369603 4.233293 -2.165379
-15.067624 7.624412 0.885001
-10.037555 5.079132 -2.186671
-14.970898 7.578745 1.468051
-12.531429 6.346560 -2.224811
-15.000197 7.600161 2.064711
-14.835974 7.520207 -2.042287
-18.484724 9.373777 3.282621
-14.837661 7.524317 -1.455501
-15.624367 7.926692 3.405559
-14.826768 7.525301 -0.871394
-15.038702 7.636169 3.893903
-15.320027 7.782380 -0.299937
-14.971172 7.608458 4.499828
-6.924145 3.529548 -2.082458
-16.911066 8.624051 0.331351
-8.368662 4.269567 -2.168978
-14.937737 7.624298 0.878930
-9.965556 5.086471 -2.174841
-14.827239 7.571157 1.456547
-12.488090 6.379480 -2.221057
-14.906405 7.618146 2.055449
-14.714190 7.523151 -2.029125
-18.490583 9.458035 3.289505
-14.719069 7.528885 -1.446437
-15.621072 7.993705 3.410902
-14.711517 7.531503 -0.866160
-14.920028 7.641535 3.870058
-15.189547 7.782921 -0.297913
-14.848249 7.611316 4.470840
-6.908346 3.551930 -2.081423
-16.180229 8.322650 0.317599
-8.346777 4.295187 -2.167179
-14.825798 7.632510 0.873906
-9.891884 5.092468 -2.162629
-14.754664 7.599152 1.452015
-12.469257 6.424843 -2.221683
-14.775621 7.616467 2.041068
-14.592566 7.525336 -2.015963
-18.496075 9.542448 3.296387
-14.588688 7.529778 -1.436327
-15.729152 8.118415 3.440668
-14.583982 7.530578 -0.860194
-14.798037 7.644378 3.845313
-15.080567 7.793662 -0.296307
-14.725492 7.613415 4.441853
-6.893565 3.576339 -2.080905
-16.072979 8.338561 0.316063
-8.324815 4.320704 -2.165379
-14.689165 7.627156 0.867416
-9.810431 5.096112 -2.148891
-14.602963 7.588865 1.439813
-12.440366 6.467769 -2.220744
-14.622129 7.602071 2.023519
-14.467587 7.524931 -2.002313
-18.494198 9.623363 3.302019
-14.473950 7.534662 -1.427611
-15.746302 8.200499 3.450972
-14.451781 7.529529 -0.854018
-14.666234 7.644520 3.818319
-14.961061 7.798194 -0.294492
-14.609753 7.618323 4.414936
-6.884464 3.602170 -2.081941
-15.982074 8.365882 0.314876
-8.312373 4.352997 -2.166279
-14.562039 7.629035 0.861555
-9.714327 5.089324 -2.131718
-14.498736 7.599096 1.432143
-12.410715 6.507485 -2.219492
-14.502760 7.607659 2.010844
-14.330931 7.520717 -1.987202
-18.485033 9.704860 3.306712
-14.358045 7.541334 -1.418895
-15.736703 8.265453 3.455170
-14.349382 7.539985 -0.849517
-14.453170 7.597740 3.769730
-14.833269 7.800850 -0.292537
-14.501377 7.629543 4.390606
-6.862671 3.622871 -2.079352
-16.920090 8.932280 0.333969
-8.293683 4.380164 -2.165379
-14.461151 7.640633 0.857158
-9.643536 5.097374 -2.120270
-14.372156 7.600029 1.422382
-12.385036 6.552002 -2.219180
-14.384872 7.609967 1.998170
-14.237918 7.535409 -1.977940
-18.508656 9.799824 3.317037
-14.243600 7.544778 -1.410180
-14.226362 7.542006 -0.843865
-14.339145 7.605009 3.747235
-14.724681 7.809484 -0.290932
-14.387626 7.633939 4.364207
-6.841023 3.638968 -2.076247
-15.949473 8.487626 0.315365
-8.285994 4.411306 -2.167179
-14.337016 7.635968 0.851297
-9.554698 5.088881 -2.104242
-14.267322 7.602046 1.414363
-12.362648 6.589951 -2.218867
-14.271979 7.610924 1.985983
-14.111267 7.528388 -1.963803
-18.496969 9.872310 3.320791
-14.116121 7.534138 -1.399895
-15.756276 8.413065 3.471961
-14.121561 7.543380 -0.839050
-14.232685 7.605929 3.725639
-14.631692 7.822440 -0.289605
-14.246392 7.619652 4.329008
-6.835089 3.666478 -2.078317
-15.838696 8.499753 0.313759
-8.261960 4.435595 -2.164929
-14.224057 7.639662 0.846168
-9.483259 5.093405 -2.092412
-14.131885 7.593334 1.403556
-12.330870 6.628387 -2.217302
-14.143920 7.606164 1.971846
-14.004489 7.534334 -1.952591
-18.486748 9.949924 3.325171
-14.023070 7.547486 -1.393272
-15.733727 8.471737 3.473487
-13.996675 7.539582 -0.833189
-14.115128 7.606567 3.701795
-29.407494 15.854174 -0.583155
-14.126192 7.618894 4.300538
-6.820551 3.689394 -2.077800
-15.865208 8.585443 0.314876
-8.239571 4.460696 -2.163129
-14.083148 7.627440 0.839364
-9.415359 5.099363 -2.081345
-14.024711 7.598957 1.395538
-12.304184 6.669508 -2.216677
-14.019563 7.602499 1.958197
-13.876903 7.528271 -1.938454
-18.497042 10.038893 3.333306
-13.902513 7.548447 -1.384033
-15.743742 8.548152 3.482264
-13.886028 7.542634 -0.828164
-13.989178 7.601826 3.675700
-29.404684 15.985376 -0.584202
-14.018050 7.623854 4.275691
-6.813765 3.718071 -2.079870
-15.778971 8.610121 0.313759
-8.220530 4.487561 -2.162230
-13.984569 7.637304 0.835073
-9.334581 5.099951 -2.067606
-13.909352 7.602527 1.386822
-12.258859 6.703188 -2.212922
-13.919788 7.611390 1.947960
-13.770428 7.532841 -1.927242
-18.489614 10.118572 3.338312
-13.783455 7.546220 -1.374795
-15.738134 8.619946 3.487988
-13.774214 7.547415 -0.823140
-13.874071 7.605275 3.652755
-29.394295 16.112913 -0.585109
-13.903271 7.624437 4.248774
-6.778742 3.729725 -2.073141
-15.659715 8.619682 0.312014
-8.204025 4.517663 -2.162230
-13.870348 7.637903 0.829839
-9.272014 5.107872 -2.057684
-13.788502 7.599107 1.377409
-12.237115 6.746892 -2.213235
-13.796197 7.609622 1.934554
-13.660616 7.534840 -1.915542
-18.488771 10.202139 3.344569
-13.659350 7.540366 -1.365033
-15.730295 8.687165 3.492950
-13.670865 7.552949 -0.818534
-13.777134 7.611661 3.633859
-29.372875 16.234766 -0.585808
-13.788657 7.624315 4.221856
-6.766336 3.752184 -2.073141
-15.508642 8.603655 0.309571
