# This PCD file was generated using the MATLAB® pcwrite function
# from Computer Vision Toolbox®.
# .PCD v.7 - Point Cloud Data file format
VERSION .7
FIELDS x y z
SIZE 4 4 4
TYPE F F F
COUNT 1 1 1
WIDTH 1730
HEIGHT 1
VIEWPOINT 0 0 0 1 0 0 0
POINTS 1730
DATA ascii
4.427205 7.746000 -0.780567
4.453447 7.788767 1.743994
4.423874 7.733913 -0.466941
4.434840 7.749937 2.061451
4.428996 7.736591 -0.155606
4.444207 7.760030 2.396147
2.879647 5.013933 -1.549291
4.459074 7.760835 0.156234
3.002726 5.224016 -1.391097
4.458338 7.753287 0.468721
3.474237 6.041883 -1.354744
4.462727 7.757786 0.783007
4.166825 7.240489 -1.323123
4.468888 7.762227 1.099749
4.529687 7.864657 -1.114373
4.461543 7.743225 1.415419
4.461174 7.742586 -0.781787
4.496298 7.800388 1.750100
4.458827 7.732264 -0.467779
4.476467 7.759732 2.068200
4.461970 7.731477 -0.155815
4.478031 7.756179 2.399770
2.898101 5.005522 -1.549809
4.484131 7.741763 0.156164
3.024853 5.220246 -1.392897
4.492033 7.752286 0.469558
3.492354 6.024622 -1.353599
4.497773 7.755949 0.784402
4.183155 7.210521 -1.320307
4.507915 7.767182 1.102674
4.591001 7.907168 -1.122661
4.501084 7.752303 1.419799
4.502186 7.751085 -0.784227
4.519555 7.777854 1.748574
4.497834 7.737373 -0.469035
4.515284 7.764273 2.073599
4.499646 7.737382 -0.156234
4.508587 7.749635 2.402359
2.917500 4.998714 -1.550844
4.519858 7.744122 0.156513
3.031339 5.191674 -1.387948
4.530150 7.755528 0.470710
3.516330 6.017483 -1.354744
4.534877 7.757402 0.786145
4.198072 7.181261 -1.317491
4.535650 7.755619 1.103161
4.625215 7.905608 -1.124610
4.537100 7.751887 1.422615
4.540291 7.754234 -0.786145
4.561193 7.789931 1.754680
4.527503 7.729310 -0.469454
4.547905 7.761025 2.076748
4.539776 7.744054 -0.156688
4.564924 7.783845 2.417887
2.933082 4.987346 -1.550326
4.564103 7.757596 0.157107
3.048454 5.179383 -1.387498
4.569354 7.760322 0.471966
3.530290 5.995637 -1.352454
4.571698 7.761206 0.788062
4.227123 7.173370 -1.318743
4.577816 7.765391 1.106817
4.648750 7.882574 -1.123635
4.576174 7.756418 1.426370
4.574078 7.752864 -0.787539
4.597337 7.789180 1.758114
4.566644 7.734095 -0.470710
4.578936 7.751813 2.078548
4.586108 7.760871 -0.157351
4.595018 7.772852 2.419441
2.944564 4.967105 -1.547220
4.599313 7.755378 0.157386
3.069497 5.173738 -1.388848
4.606610 7.761498 0.473012
3.542180 5.968082 -1.349020
4.725911 7.959346 0.809851
4.250118 7.155176 -1.318117
4.755992 8.003636 1.143134
4.669134 7.854355 -1.121929
4.607259 7.747190 1.427621
4.611294 7.753976 -0.789282
4.635542 7.791644 1.762312
4.603827 7.735271 -0.471756
4.618922 7.757553 2.084397
4.608056 7.736224 -0.157176
4.631021 7.771702 2.424099
2.955938 4.946847 -1.544114
4.635592 7.754723 0.157700
3.089540 5.166337 -1.389748
4.792606 8.011035 0.489237
3.560975 5.952313 -1.348256
4.275071 7.140296 -1.318117
6.174189 10.308152 1.475350
4.712850 7.865252 -1.125829
4.640369 7.741225 1.429498
4.642433 7.744667 -0.789980
4.673816 7.793937 1.766510
4.651351 7.753407 -0.473850
4.649985 7.748065 2.086196
4.656646 7.756096 -0.157909
4.657128 7.753831 2.423582
2.976177 4.941464 -1.545667
4.670891 7.752196 0.157979
3.118619 5.173880 -1.394697
4.832915 8.014783 0.490493
3.584770 5.944891 -1.349401
8.951424 14.838939 1.516161
4.286699 7.103344 -1.314050
6.196793 10.264446 1.472182
4.745409 7.857248 -1.127048
4.682684 7.750341 1.434191
4.719922 7.811975 -0.798521
4.704042 7.782615 1.767655
4.690790 7.757631 -0.475106
4.688097 7.750129 2.091145
4.686800 7.744925 -0.158014
4.696174 7.757359 2.429793
2.992404 4.929395 -1.545150
4.703111 7.744390 0.158154
3.139698 5.167958 -1.396046
4.872271 8.016639 0.491644
3.607538 5.935698 -1.350165
8.945199 14.712269 1.506400
4.308391 7.083272 -1.313111
6.231556 10.241055 1.471938
4.792418 7.872854 -1.131679
4.723068 7.755881 1.438259
4.722294 7.754610 -0.794337
4.743435 7.786267 1.772234
4.714721 7.736095 -0.474792
4.727296 7.753683 2.096544
4.728383 7.752420 -0.158503
4.737309 7.764007 2.437040
3.011611 4.922214 -1.546185
4.741597 7.746689 0.158538
3.162805 5.165277 -1.398296
4.907529 8.011503 0.492377
3.622084 5.913023 -1.347875
9.650267 15.747794 1.615867
4.333088 7.068191 -1.313111
6.269339 10.222627 1.472426
4.816758 7.851001 -1.130948
4.759411 7.754500 1.441074
4.761839 7.758456 -0.796429
4.774693 7.776355 1.773761
4.752152 7.736607 -0.475839
4.756375 7.740452 2.097444
4.761697 7.746090 -0.158712
4.774504 7.763879 2.442217
3.029789 4.913315 -1.546703
4.777007 7.743707 0.158817
3.190028 5.169130 -1.402345
4.947009 8.013018 0.493528
3.637547 5.891990 -1.345967
9.659101 15.639433 1.608198
4.361889 7.059744 -1.314363
7.568908 12.245543 1.767593
4.862920 7.864533 -1.135335
4.790608 7.744558 1.442326
4.821386 7.794313 -0.801833
4.825571 7.798037 1.782538
4.793842 7.743750 -0.477304
4.797728 7.746999 2.103742
4.796081 7.741320 -0.158957
4.815818 7.770156 2.449464
3.038763 4.889584 -1.542562
4.819848 7.752457 0.159340
3.218346 5.174510 -1.406844
4.989719 8.019442 0.494994
3.656016 5.875923 -1.345204
9.650466 15.504129 1.597739
4.378154 7.031059 -1.311860
7.573818 12.158392 1.758819
4.908193 7.876150 -1.139478
4.829111 7.746227 1.445768
4.836971 7.758836 -0.799915
4.862111 7.796139 1.785972
4.825074 7.733746 -0.477723
4.836093 7.748387 2.108691
4.832603 7.739798 -0.159271
4.843937 7.754936 2.449981
3.052737 4.874034 -1.541009
4.852190 7.744057 0.159515
3.243630 5.174805 -1.409993
5.032538 8.025663 0.496459
3.679635 5.868114 -1.346348
9.660064 15.399458 1.590418
4.396366 7.005698 -1.309982
7.575053 12.066309 1.749313
4.944104 7.872416 -1.141428
4.870827 7.752743 1.450148
4.864020 7.741909 -0.799915
4.897655 7.792416 1.789025
4.866926 7.740526 -0.479188
4.878668 7.756206 2.115440
4.870243 7.739805 -0.159620
4.879212 7.751058 2.454122
3.069729 4.863351 -1.541009
4.886664 7.738909 0.159759
3.261675 5.163451 -1.409993
5.072254 8.026624 0.497610
3.693799 5.845279 -1.344059
9.662653 15.284810 1.582051
4.420795 6.990308 -1.309982
7.572554 11.969335 1.739076
4.992785 7.888659 -1.146303
4.912656 7.759058 1.454528
4.902740 7.743398 -0.801833
4.931131 7.785223 1.791315
4.901397 7.735301 -0.479921
4.917192 7.757233 2.120389
4.913296 7.748088 -0.160143
4.923830 7.761713 2.462922
3.088761 4.855865 -1.542044
4.928680 7.745422 0.160248
3.284910 5.160254 -1.412243
5.107425 8.023236 0.498448
3.713128 5.830693 -1.343677
9.656004 15.156884 1.572290
4.441983 6.969837 -1.309044
7.577996 11.885922 1.730789
5.029901 7.886245 -1.148497
4.946859 7.756046 1.457031
4.940455 7.743034 -0.803576
4.976228 7.796099 1.797803
4.943419 7.741711 -0.481386
4.949487 7.748231 2.122638
4.954032 7.755346 -0.160632
4.960983 7.763248 2.468616
3.105694 4.845053 -1.542044
4.971603 7.755973 0.160806
3.310419 5.162457 -1.415842
5.142951 8.017126 0.499180
3.726037 5.806129 -1.341006
9.676551 15.072795 1.567060
4.461868 6.950082 -1.308105
7.578755 11.800596 1.722014
5.077483 7.902924 -1.153372
4.978173 7.745379 1.458282
4.973921 7.735795 -0.804622
5.014797 7.799368 1.802382
4.985271 7.750473 -0.482956
4.983588 7.744887 2.126237
4.985401 7.744733 -0.160772
4.999558 7.763749 2.474310
3.111265 4.818497 -1.536867
5.011664 7.758730 0.161225
3.341112 5.170510 -1.421241
5.185003 8.020928 0.500541
3.744206 5.792092 -1.340624
9.689699 14.983737 1.561134
4.483958 6.931147 -1.307480
7.583233 11.717403 1.713727
5.115824 7.901817 -1.155809
5.020211 7.751168 1.462662
5.009292 7.734310 -0.806191
5.051601 7.796644 1.805817
5.024241 7.751460 -0.484108
5.029676 7.756877 2.134336
5.024377 7.745736 -0.161156
5.040298 7.767319 2.481040
3.131224 4.812467 -1.538420
5.043083 7.747891 0.161365
3.365522 5.168613 -1.423940
5.218419 8.011149 0.501064
3.761186 5.774052 -1.339479
9.741946 14.949820 1.561134
4.499496 6.902213 -1.304976
7.589387 11.637656 1.705927
5.167240 7.920486 -1.161171
5.061275 7.755101 1.466730
5.046063 7.731793 -0.807759
5.080931 7.782252 1.806580
5.061100 7.748924 -0.485050
5.066316 7.753953 2.138385
5.064512 7.748239 -0.161574
5.072669 7.757761 2.483628
3.152241 4.807969 -1.540491
5.078869 7.743617 0.161644
3.385680 5.160093 -1.424840
5.266077 8.022942 0.502949
3.785626 5.767454 -1.341006
9.833439 14.975681 1.567409
4.518137 6.878211 -1.303412
7.579814 11.534783 1.694715
5.205763 7.918987 -1.163609
5.095910 7.748941 1.468920
5.088346 7.737438 -0.810200
5.127486 7.793992 1.813449
5.092513 7.737882 -0.485468
5.104066 7.752499 2.142884
5.102525 7.747214 -0.161923
5.117788 7.767428 2.492427
3.167939 4.795325 -1.539973
5.116896 7.742524 0.161993
3.409046 5.156371 -1.427089
5.298455 8.011174 0.503367
3.799236 5.744380 -1.338716
9.920837 14.994433 1.572987
4.547573 6.870632 -1.304976
7.587152 11.458601 1.687403
5.239949 7.910698 -1.165071
5.136024 7.750865 1.472674
5.127431 7.737897 -0.812117
5.164422 7.790775 1.816883
5.137151 7.746693 -0.487143
5.142948 7.752497 2.147833
5.146125 7.754346 -0.162447
5.155554 7.765614 2.497604
3.176096 4.771372 -1.535832
5.159406 7.747918 0.162482
3.436747 5.159037 -1.431139
5.341896 8.015898 0.504833
3.810556 5.718013 -1.335663
4.564950 6.844857 -1.303099
7.589648 11.375900 1.679116
5.280753 7.912174 -1.167996
5.171822 7.746033 1.475177
5.168791 7.741494 -0.814383
5.205763 7.793922 1.821844
5.171927 7.740339 -0.487876
5.178640 7.747459 2.151432
5.177605 7.742985 -0.162587
5.198740 7.771656 2.505368
3.186277 4.750629 -1.532727
5.199788 7.749789 0.162901
3.464510 5.161570 -1.435188
5.385433 8.020415 0.506298
3.829399 5.703046 -1.335281
4.588817 6.828879 -1.303099
7.589446 11.290028 1.670341
5.328278 7.923345 -1.172383
5.214267 7.750877 1.479557
5.204681 7.736628 -0.815778
5.250477 7.801763 1.827950
5.213412 7.743777 -0.489237
5.220895 7.751963 2.157730
5.215777 7.741448 -0.162936
5.234472 7.766278 2.509510
3.207166 4.745881 -1.534797
5.235770 7.744843 0.163180
3.486873 5.155903 -1.436987
5.426825 8.021419 0.507554
3.855883 5.699400 -1.337571
4.598228 6.791557 -1.299032
7.604316 11.227309 1.664979
5.354791 7.903051 -1.172139
5.254589 7.752252 1.483312
5.239479 7.729959 -0.816998
5.277677 7.783389 1.827950
5.257231 7.750323 -0.490807
5.265433 7.759491 2.164929
5.259614 7.748013 -0.163459
5.273490 7.765538 2.515203
3.218278 4.726672 -1.532209
5.275154 7.744700 0.163564
3.511431 5.153363 -1.439687
5.477293 8.035433 0.509648
3.873544 5.682661 -1.336808
4.613000 6.762411 -1.296529
7.596468 11.131828 1.654742
5.402493 7.913821 -1.176527
5.298326 7.758333 1.488005
5.282159 7.734659 -0.819438
5.325857 7.795717 1.835201
5.294398 7.746765 -0.491749
5.307878 7.763588 2.171227
5.303564 7.754364 -0.163983
5.313658 7.766214 2.521415
3.234754 4.715411 -1.532209
5.323657 7.757565 0.164227
3.538224 5.153927 -1.443286
5.502778 8.015579 0.509543
3.888907 5.662634 -1.335281
4.633223 6.741382 -1.295590
7.598158 11.051270 1.646699
5.435708 7.903094 -1.177745
5.335221 7.756995 1.491134
5.322680 7.735868 -0.821530
5.367502 7.798106 1.840162
5.331599 7.743042 -0.492691
5.340476 7.753036 2.173477
5.341724 7.754849 -0.164367
5.352539 7.767639 2.527627
3.250097 4.702501 -1.531691
5.353899 7.746450 0.164367
3.571920 5.166207 -1.450034
5.552308 8.027533 0.511532
3.897480 5.632880 -1.331465
9.674785 13.977368 1.487226
4.661176 6.734101 -1.297155
7.600864 10.977049 1.639387
5.467536 7.893186 -1.178964
5.373519 7.754560 1.494262
5.365540 7.740166 -0.823970
5.403401 7.794784 1.843597
5.375455 7.751581 -0.494365
5.377266 7.751294 2.177976
5.375600 7.746015 -0.164576
5.395038 7.771128 2.534874
3.267882 4.694868 -1.532727
5.398048 7.752329 0.164890
3.596611 5.163304 -1.452734
5.592596 8.028744 0.512788
3.909405 5.610259 -1.329176
9.664111 13.863488 1.478510
4.688039 6.722652 -1.298093
7.602793 10.898349 1.631587
5.513234 7.900097 -1.182864
5.408247 7.749658 1.496765
5.399159 7.733768 -0.825191
5.440696 7.790360 1.847031
5.412778 7.747504 -0.495308
5.419914 7.754842 2.184275
5.415003 7.747815 -0.164995
5.428529 7.764275 2.538497
3.280922 4.678688 -1.531174
5.434058 7.749122 0.165204
3.628264 5.172088 -1.458583
5.630915 8.023887 0.513730
3.931223 5.599791 -1.329939
9.664350 13.761191 1.471189
4.700091 6.692520 -1.295278
7.601232 10.819477 1.623544
5.539403 7.881770 -1.182864
5.455714 7.759820 1.502397
5.439880 7.734430 -0.827282
5.474404 7.783517 1.849702
5.455681 7.754012 -0.496878
5.464670 7.763916 2.191923
5.458134 7.751756 -0.165484
5.470063 7.765810 2.545227
3.288617 4.656736 -1.527550
5.472610 7.746439 0.165554
3.654170 5.170530 -1.461732
5.673875 8.025383 0.515091
3.948633 5.585123 -1.329557
9.675413 13.680271 1.465960
4.724566 6.677684 -1.295590
7.602252 10.741030 1.615744
5.602437 7.912612 -1.190420
5.494187 7.756848 1.505525
5.482973 7.738151 -0.829723
5.516298 7.785183 1.854663
5.493104 7.749589 -0.497820
5.504139 7.762279 2.196872
5.494417 7.745702 -0.165763
5.511666 7.767153 2.551956
3.305664 4.644651 -1.527550
5.511215 7.743580 0.165903
3.672195 5.157744 -1.461732
5.715761 8.025049 0.516347
3.958826 5.556221 -1.326123
9.676923 13.576571 1.458638
4.744420 6.653890 -1.294339
7.609738 10.672401 1.609407
5.639247 7.905935 -1.192370
5.537292 7.760135 1.509906
5.524997 7.740047 -0.831989
5.563049 7.790478 1.860770
5.529599 7.740779 -0.498552
5.538216 7.749981 2.199121
5.535372 7.746001 -0.166182
5.553352 7.768295 2.558685
3.326358 4.639365 -1.529621
5.564033 7.757453 0.166636
3.704709 5.163249 -1.467131
5.764700 8.034257 0.518231
3.974761 5.537585 -1.324978
9.682418 13.484449 1.452363
4.763010 6.630870 -1.293087
7.608257 10.588018 1.600876
5.682088 7.904557 -1.195295
5.573569 7.753592 1.512408
5.568268 7.743359 -0.834429
5.614283 7.804482 1.868783
5.575254 7.747367 -0.500227
5.582315 7.754323 2.205870
5.572895 7.741237 -0.166496
5.599625 7.775515 2.567485
3.328960 4.608932 -1.523409
5.597925 7.750306 0.166880
3.727517 5.158834 -1.469380
5.809088 8.036748 0.519696
3.990617 5.518903 -1.323833
9.671045 13.369851 1.443648
4.783813 6.613438 -1.292775
7.617727 10.527348 1.595514
5.718747 7.900142 -1.197488
5.614505 7.753286 1.516163
5.605782 7.738397 -0.835998
5.653955 7.804898 1.873363
5.618492 7.753095 -0.501797
5.622867 7.756282 2.211719
5.613968 7.741163 -0.166915
5.632407 7.763738 2.570073
3.351042 4.607241 -1.526515
5.636709 7.746889 0.167229
3.753528 5.156821 -1.472530
9.733211 13.367163 0.866579
4.011206 5.508814 -1.324596
9.720024 13.344146 1.444345
4.792908 6.577543 -1.289020
7.620521 10.454170 1.588445
5.755648 7.892961 -1.199438
5.660160 7.759177 1.521169
5.644327 7.737473 -0.837915
5.689268 7.796214 1.876034
5.657300 7.749567 -0.502844
5.671741 7.766510 2.220267
5.658652 7.745739 -0.167438
5.673153 7.762745 2.576285
3.367103 4.595517 -1.526515
5.680268 7.749744 0.167718
3.776116 5.149972 -1.474329
9.789258 13.345992 0.867416
4.029249 5.493196 -1.324215
9.790116 13.342265 1.447831
4.812334 6.555994 -1.288082
7.621711 10.379510 1.581133
5.794915 7.888821 -1.201876
5.705928 7.764840 1.526175
5.686641 7.738593 -0.840181
5.732725 7.798454 1.881377
5.690230 7.737817 -0.503367
5.712676 7.765499 2.225666
5.706987 7.754930 -0.168067
5.719685 7.769343 2.585085
3.383125 4.583735 -1.526515
5.723912 7.752392 0.168206
3.803331 5.149301 -1.477928
9.743211 13.186442 0.859252
4.037900 5.464887 -1.320780
9.860318 13.340050 1.451317
4.821094 6.520096 -1.284327
5.950897 8.045116 1.228687
5.824780 7.871735 -1.202363
5.749449 7.767104 1.530555
5.726656 7.736312 -0.842099
5.772763 7.795753 1.885575
5.733853 7.740375 -0.504833
5.749029 7.758038 2.229265
5.749503 7.755847 -0.168520
5.765184 7.774157 2.593367
3.388733 4.557943 -1.521856
5.767644 7.754830 0.168695
3.835243 5.154754 -1.483327
9.927513 13.338202 0.871394
4.053437 5.446033 -1.319635
9.940130 13.350303 1.456198
4.845006 6.504812 -1.284640
6.001481 8.054538 1.233318
5.875944 7.883191 -1.207238
5.781252 7.753320 1.531806
5.776258 7.746622 -0.845411
5.817549 7.799158 1.891299
5.782331 7.749129 -0.506717
5.792396 7.759784 2.235564
5.782524 7.743740 -0.168695
5.802685 7.767918 2.598026
3.403463 4.544541 -1.521338
5.811467 7.757053 0.169184
3.862564 5.153810 -1.486926
6.021346 8.034267 0.526186
4.071244 5.430281 -1.319253
4.868870 6.489439 -1.284953
6.046240 8.055767 1.236730
5.914155 7.876918 -1.209432
5.823534 7.756223 1.536187
5.802069 7.724817 -0.845236
5.863605 7.803917 1.897405
5.826148 7.751248 -0.508182
5.835845 7.761322 2.241862
5.824999 7.746897 -0.169184
5.838867 7.762526 2.602684
3.416980 4.529548 -1.520303
5.847999 7.752106 0.169498
3.880804 5.142531 -1.487376
6.083043 8.057837 0.529117
4.088992 5.414468 -1.318872
4.876073 6.454344 -1.281199
6.090872 8.059429 1.240386
5.966582 7.892097 -1.214794
5.863682 7.753177 1.539628
5.854236 7.737888 -0.848897
5.895372 7.792260 1.899313
5.866286 7.750995 -0.509438
5.878018 7.763680 2.248161
5.867695 7.747243 -0.169637
5.882262 7.763653 2.609931
3.427307 4.512039 -1.518233
5.891955 7.753940 0.169986
3.902270 5.133606 -1.488726
6.125643 8.055630 0.530373
4.107863 5.400165 -1.318872
4.891394 6.427854 -1.279321
6.127387 8.049174 1.242092
6.004913 7.885440 -1.216987
5.911058 7.759376 1.544947
5.901743 7.744343 -0.851860
5.948894 7.803383 1.907327
5.900709 7.737383 -0.509962
5.921625 7.764809 2.254459
5.911685 7.748970 -0.170126
5.925737 7.764572 2.617178
3.450865 4.508652 -1.521338
5.936144 7.752929 0.170440
3.915134 5.111535 -1.486477
6.228009 8.128248 0.536653
4.124049 5.380395 -1.317727
4.910111 6.403613 -1.278070
6.170135 8.043989 1.244774
6.037406 7.868098 -1.217719
5.961107 7.765865 1.550579
5.945860 7.743205 -0.854126
5.993001 7.801768 1.912288
5.949715 7.742629 -0.511741
5.957167 7.752326 2.257159
5.963201 7.757375 -0.170789
5.976530 7.771899 2.627013
3.465006 4.492915 -1.520303
5.987728 7.761203 0.171103
3.937415 5.101778 -1.487826
6.247993 8.092721 0.535816
4.136803 5.358200 -1.315819
9.729401 12.597461 1.392574
4.937173 6.390261 -1.279008
6.216574 8.043308 1.248186
6.083200 7.867904 -1.221131
5.995575 7.751776 1.552143
5.987483 7.741313 -0.856218
6.032211 7.796330 1.916104
5.997490 7.748662 -0.513520
6.004632 7.755092 2.264357
5.998942 7.744950 -0.170999
6.029820 7.782011 2.637884
3.471189 4.468587 -1.516162
6.035644 7.767096 0.171697
3.955199 5.088003 -1.487826
6.298275 8.099240 0.537700
4.148252 5.334426 -1.313529
9.697471 12.465919 1.381767
4.953382 6.365195 -1.277444
6.261682 8.043490 1.251598
6.087455 7.816863 -1.216500
6.040806 7.754176 1.556836
6.019365 7.726654 -0.856915
6.079902 7.801553 1.922591
6.041695 7.749730 -0.514986
6.053236 7.761745 2.272455
6.045619 7.749191 -0.171557
6.056950 7.760914 2.637884
3.489146 4.459486 -1.517197
6.065182 7.749131 0.171767
3.972936 5.074165 -1.487826
4.170480 5.324550 -1.314674
9.706515 12.388082 1.376886
4.971917 6.343201 -1.276505
6.300748 8.035642 1.253792
6.108443 7.790386 -1.215525
6.082337 7.754305 1.560903
6.067209 7.732240 -0.859879
6.120434 7.797268 1.926789
6.084744 7.749015 -0.516347
6.098199 7.766151 2.279654
6.094755 7.758977 -0.172220
6.106524 7.771167 2.648237
3.501525 4.444856 -1.516162
6.101984 7.743112 0.172081
3.989740 5.060963 -1.487826
4.190545 5.313775 -1.315437
9.708052 12.305773 1.371308
4.984357 6.315825 -1.274315
6.342119 8.033401 1.256717
6.158842 7.801250 -1.220400
6.133727 7.766649 1.567474
6.118754 7.744911 -0.863539
6.152346 7.784629 1.928697
6.125269 7.747597 -0.517603
6.142047 7.768817 2.286402
6.135335 7.757546 -0.172639
6.147845 7.770568 2.654966
3.516245 4.433220 -1.516162
6.151246 7.752596 0.172744
3.998022 5.037019 -1.484677
4.211804 5.304462 -1.316582
9.706676 12.220465 1.365382
4.997902 6.289980 -1.272438
6.388486 8.037191 1.260617
6.178625 7.770380 -1.218937
6.176788 7.765286 1.571541
6.163117 7.745333 -0.865979
6.203792 7.796449 1.936711
6.170832 7.752243 -0.519277
6.183697 7.765623 2.291801
6.177327 7.754854 -0.173058
6.202621 7.783811 2.666872
3.527647 4.414265 -1.514091
6.201987 7.760760 0.173407
4.020446 5.029122 -1.486477
4.222634 5.278257 -1.313911
9.721520 12.147474 1.361198
5.023390 6.274705 -1.273064
6.440076 8.044285 1.265248
6.218119 7.764260 -1.221375
6.214971 7.757555 1.574357
6.208808 7.747091 -0.868594
6.248292 7.793570 1.941672
6.214197 7.748272 -0.520533
6.234067 7.770268 2.299900
6.210618 7.741040 -0.173233
6.241847 7.777177 2.672048
3.541821 4.400420 -1.513574
6.244187 7.755107 0.173791
4.031518 5.005246 -1.483777
4.243495 5.266544 -1.314674
9.731359 12.073133 1.356666
5.045264 6.257130 -1.273064
6.493194 8.049984 1.269879
6.231577 7.722877 -1.218450
6.261861 7.760409 1.579363
6.250832 7.743974 -0.870686
6.303824 7.806844 1.950450
6.263798 7.754498 -0.522418
6.275852 7.766647 2.305298
6.257712 7.744198 -0.173791
6.281096 7.770370 2.677224
3.553512 4.383527 -1.512021
6.291276 7.760767 0.174384
4.048091 4.991852 -1.483777
26.890482 33.147797 2.236943
4.263091 5.253222 -1.315056
13.919899 17.146772 1.932243
5.053533 6.225029 -1.269935
6.537375 8.049980 1.273291
6.254649 7.699090 -1.217962
6.307601 7.761496 1.584056
6.294163 7.742206 -0.872952
6.343304 7.802653 1.954647
6.309639 7.758478 -0.524092
6.315102 7.762419 2.310247
6.308688 7.751778 -0.174454
6.330138 7.775362 2.686542
3.569252 4.373215 -1.512539
6.329709 7.752702 0.174699
4.058096 4.968634 -1.481078
26.915052 32.942368 2.229407
4.282974 5.242096 -1.315819
5.072730 6.204294 -1.269309
6.579261 8.044011 1.275972
6.258856 7.649557 -1.213575
6.354669 7.763894 1.589062
6.335035 7.737143 -0.874869
6.387916 7.801728 1.959990
6.349341 7.751855 -0.525139
6.370562 7.775002 2.320595
6.358528 7.757545 -0.175083
6.375616 7.775625 2.694306
3.585255 4.360105 -1.512539
6.378325 7.756816 0.175292
4.082844 4.963468 -1.483777
27.012089 32.826641 2.227942
4.302157 5.226365 -1.315819
14.925824 18.125803 2.054261
5.090410 6.179562 -1.268058
6.619916 8.036324 1.278410
6.270373 7.609277 -1.210650
6.404350 7.769099 1.594693
6.379745 7.736508 -0.877310
6.436455 7.802495 1.966096
6.398049 7.753181 -0.526814
6.415142 7.771138 2.326444
6.405931 7.759981 -0.175641
6.422399 7.777157 2.702589
3.602918 4.350538 -1.513574
6.427122 7.758025 0.175850
4.094790 4.940968 -1.481528
27.172400 32.787502 2.231710
4.310351 5.199223 -1.312766
14.989000 18.073595 2.054261
5.114475 6.164795 -1.268684
6.672152 8.039497 1.282797
6.288075 7.574028 -1.208700
6.440261 7.757337 1.596883
6.429627 7.741778 -0.880447
6.487491 7.808671 1.973347
6.441667 7.750769 -0.528175
6.464656 7.775669 2.334542
6.445766 7.752948 -0.175990
6.474216 7.784396 2.712941
3.613130 4.332003 -1.511503
6.472024 7.759706 0.176374
4.117396 4.934843 -1.483777
27.266214 32.667915 2.230035
4.328470 5.184147 -1.312766
14.924280 17.868242 2.036830
5.129826 6.141735 -1.267432
6.721684 8.044748 1.287184
6.323339 7.565319 -1.210650
6.487576 7.759055 1.601889
6.473231 7.739153 -0.882713
6.527204 7.803680 1.977545
6.485276 7.750812 -0.529640
6.519176 7.788557 2.344890
6.483061 7.742664 -0.176269
6.510026 7.772120 2.716565
3.620023 4.311120 -1.508397
6.505504 7.744721 0.176549
4.130835 4.915965 -1.482427
22.006157 26.188774 1.792716
4.350693 5.175776 -1.314292
15.003965 17.843056 2.039618
5.143606 6.114720 -1.265555
6.770173 8.045540 1.291084
6.316473 7.503715 -1.204313
6.539983 7.769236 1.608459
6.523245 7.746599 -0.886025
6.578434 7.809379 1.984795
6.531600 7.751034 -0.531210
6.570189 7.794061 2.353438
6.531903 7.748642 -0.176898
6.550711 7.768210 2.722776
3.640041 4.304357 -1.510468
6.554396 7.750589 0.177177
4.140820 4.894802 -1.480178
4.358586 5.148569 -1.311239
13.564818 16.017754 1.836372
5.163850 6.097633 -1.265555
6.814777 8.044251 1.294496
6.338757 7.479696 -1.203825
6.584945 7.767456 1.612839
6.569571 7.746579 -0.888640
6.619531 7.805490 1.989375
6.572773 7.747607 -0.532466
6.613652 7.793034 2.359737
6.587381 7.759333 -0.177666
6.609052 7.782107 2.735718
3.653041 4.290792 -1.509950
6.607340 7.758111 0.177875
4.154091 4.875866 -1.478828
4.385822 5.146042 -1.314292
5.182541 6.076563 -1.264929
6.862144 8.043065 1.298152
6.349361 7.439406 -1.200901
6.629977 7.765453 1.617220
6.614689 7.744809 -0.891080
6.664589 7.803234 1.994717
6.615345 7.742840 -0.533722
6.654739 7.786197 2.364685
6.639115 7.765172 -0.178329
6.658777 7.785417 2.745035
3.668742 4.277375 -1.509950
6.656511 7.760806 0.178468
4.173625 4.864293 -1.479728
4.417442 5.144829 -1.318109
6.920594 8.057302 0.929255
5.202203 6.054533 -1.264304
6.912169 8.044661 1.302296
6.375293 7.417196 -1.200901
6.664773 7.751248 1.619097
6.662469 7.745841 -0.893869
6.723880 7.814471 2.003876
6.676254 7.756382 -0.536339
6.702304 7.783906 2.371434
6.676617 7.754074 -0.178608
6.707348 7.787007 2.753835
3.678601 4.258694 -1.507880
6.699295 7.752998 0.178852
4.190150 4.847490 -1.479278
6.943256 8.032497 0.556436
4.440512 5.135316 -1.319635
6.944765 8.028576 0.928732
5.218136 6.030360 -1.263052
6.967594 8.049288 1.307171
6.392038 7.381775 -1.198951
6.724115 7.765270 1.626919
6.709036 7.745125 -0.896484
6.770399 7.813209 2.009600
6.721602 7.754160 -0.537804
6.754970 7.789907 2.380432
6.729846 7.760934 -0.179306
6.740816 7.770845 2.756423
3.685835 4.237082 -1.504774
6.748590 7.757898 0.179481
4.211318 4.839449 -1.481078
6.980431 8.018758 0.557169
4.473881 5.137553 -1.324215
14.505623 16.651554 1.932068
5.227726 6.001105 -1.260549
7.015117 8.050081 1.311070
6.416481 7.360539 -1.198951
6.773253 7.767060 1.632237
6.750440 7.738173 -0.898401
6.801436 7.796631 2.011127
6.772228 7.760421 -0.539793
6.799991 7.789483 2.387181
6.772682 7.755469 -0.179725
6.788234 7.770547 2.764705
3.707504 4.233556 -1.507880
6.786172 7.746325 0.179760
4.217909 4.812996 -1.477479
4.511601 5.146307 -1.330320
14.292768 16.297779 1.896509
5.238217 5.970945 -1.258046
7.071978 8.058370 1.316433
6.434279 7.329145 -1.197488
6.821126 7.769794 1.637556
6.803668 7.747187 -0.902062
6.846749 7.793491 2.016470
6.809826 7.748735 -0.540631
6.847724 7.789118 2.394379
6.811564 7.747987 -0.180074
6.844586 7.782808 2.777128
3.719704 4.217690 -1.506845
6.840925 7.756772 0.180528
4.226112 4.790213 -1.474779
4.550329 5.154075 -1.336426
14.365396 16.265715 1.898601
5.252759 5.947618 -1.256795
8.930828 10.108681 1.656205
6.448033 7.295866 -1.195538
6.865214 7.765177 1.641623
6.858389 7.754730 -0.905722
6.901167 7.803099 2.024865
6.860631 7.754530 -0.542619
6.896763 7.792636 2.402477
6.866404 7.755606 -0.180807
6.913982 7.806592 2.794210
3.735137 4.204029 -1.506845
6.899882 7.763331 0.181296
4.253537 4.784146 -1.477928
9.728783 10.942405 0.767350
4.577016 5.146165 -1.338716
9.747283 10.955499 1.282933
5.283436 5.936259 -1.258672
8.920737 10.019456 1.647186
6.465436 7.259197 -1.193588
6.913337 7.762087 1.646316
6.905319 7.750368 -0.908163
6.946755 7.794128 2.029445
6.911621 7.751984 -0.544294
6.938306 7.779188 2.406527
6.918741 7.757251 -0.181435
6.941260 7.779758 2.793693
3.739485 4.179446 -1.502703
6.945591 7.762760 0.181819
4.262881 4.762753 -1.475679
9.772251 10.914328 0.767769
4.600193 5.136005 -1.340242
14.670218 16.373213 1.923353
5.295185 5.909877 -1.256795
8.919464 9.951386 1.640849
6.484173 7.231802 -1.192613
6.961492 7.761437 1.651322
6.946970 7.742528 -0.910080
6.988296 7.788587 2.034024
6.961305 7.755774 -0.546178
6.986199 7.780784 2.414175
6.972504 7.762805 -0.182133
6.985161 7.774160 2.800422
3.754614 4.168461 -1.503221
6.983349 7.750359 0.182098
4.282091 4.750738 -1.476579
4.630343 5.135306 -1.344059
14.881896 16.499054 1.943922
5.305197 5.879623 -1.254292
8.932868 9.896611 1.636949
6.517354 7.217968 -1.194076
7.011020 7.764702 1.656954
6.997983 7.747538 -0.913392
7.032554 7.783080 2.038985
7.016454 7.762547 -0.548376
7.036845 7.782368 2.422273
7.019668 7.763371 -0.182692
7.034228 7.776745 2.809740
3.767845 4.153897 -1.502703
7.039914 7.761221 0.182901
4.284725 4.722081 -1.472080
4.669358 5.142366 -1.350165
14.864385 16.364416 1.934160
5.327321 5.864924 -1.254917
8.925581 9.822865 1.629637
6.530575 7.184564 -1.192126
7.065990 7.770872 1.663524
7.046433 7.746647 -0.916181
7.074175 7.777146 2.043564
7.059634 7.758439 -0.549737
7.090159 7.789255 2.431721
7.065575 7.759518 -0.183180
7.088648 7.782136 2.820610
3.784204 4.144234 -1.503739
7.080451 7.751364 0.183250
4.293294 4.698465 -1.469380
4.693007 5.134100 -1.352073
15.405281 16.847294 1.997261
5.339759 5.837548 -1.253040
8.911573 9.738925 1.620862
6.547574 7.152936 -1.190664
7.118418 7.773842 1.669469
7.101691 7.752858 -0.919842
7.122495 7.775569 2.049670
7.104217 7.752891 -0.551098
7.135739 7.784570 2.438020
7.119643 7.764289 -0.183879
7.134054 7.777274 2.827857
3.798059 4.128915 -1.503221
7.137244 7.758984 0.184018
4.314948 4.689185 -1.471180
4.723763 5.129862 -1.355507
5.358444 5.815031 -1.252414
8.923995 9.684399 1.616963
6.569810 7.127120 -1.190176
7.157564 7.762014 1.672285
7.157082 7.758774 -0.923502
7.182902 7.784038 2.058829
7.154258 7.750282 -0.552772
7.181412 7.776975 2.443868
7.157556 7.751141 -0.184158
7.196549 7.790639 2.841833
3.801947 4.104294 -1.499080
7.192824 7.762103 0.184716
4.332105 4.673339 -1.471180
4.761664 5.134936 -1.361231
5.373333 5.790500 -1.251163
8.390854 9.039126 1.514349
6.585084 7.091354 -1.188226
7.211508 7.763228 1.678229
7.197680 7.748342 -0.925245
7.239429 7.790559 2.067225
7.209826 7.755980 -0.554971
7.232400 7.777548 2.451967
7.213157 7.754140 -0.184856
7.238218 7.778352 2.847010
3.809661 4.083935 -1.496492
7.238973 7.757417 0.185205
4.341743 4.651065 -1.468930
4.795637 5.135503 -1.365811
15.755136 16.865784 2.019224
5.385423 5.763047 -1.249286
8.414225 9.001079 1.512886
6.607084 7.065426 -1.187739
7.272301 7.774070 1.686051
7.239656 7.739173 -0.927163
7.279995 7.779573 2.071041
7.266883 7.762846 -0.557273
7.290143 7.784969 2.462314
7.275725 7.766856 -0.185763
7.287780 7.777003 2.855809
3.829185 4.076243 -1.498562
7.290656 7.758333 0.185833
4.359286 4.637302 -1.469380
26.548384 28.241520 2.031368
4.840435 5.147336 -1.373443
15.868516 16.868738 2.026197
5.402798 5.741338 -1.248660
8.478247 9.006344 1.518736
6.628983 7.039431 -1.187251
7.325125 7.778675 1.692308
7.306244 7.755914 -0.932218
7.320570 7.768404 2.074857
7.310375 7.754874 -0.558529
7.344015 7.787827 2.471312
7.323394 7.765962 -0.186322
7.346669 7.787927 2.868750
3.847374 4.067061 -1.500115
7.341081 7.760261 0.186462
4.366603 4.614329 -1.466681
26.611113 28.110958 2.028646
4.869173 5.141810 -1.376496
15.867010 16.749603 2.018527
5.421806 5.723391 -1.248660
8.513530 8.983941 1.519711
6.633173 6.997239 -1.183839
7.376697 7.778860 1.697940
7.363441 7.762161 -0.936053
7.370614 7.769722 2.081726
7.360799 7.756664 -0.560413
7.387236 7.781809 2.477161
7.376620 7.767904 -0.186985
7.396431 7.786043 2.877550
3.862171 4.055680 -1.500633
7.392950 7.760651 0.187090
4.385373 4.601879 -1.467581
4.880777 5.119952 -1.374970
5.436298 5.698711 -1.247409
8.569505 8.980021 1.524098
6.657556 6.974043 -1.183839
7.420179 7.770204 1.701694
7.411156 7.760756 -0.938842
7.419391 7.766658 2.087832
7.418186 7.762691 -0.562716
7.439942 7.782738 2.485709
7.417513 7.756557 -0.187334
7.451605 7.789494 2.888421
3.868281 4.033809 -1.497527
7.453220 7.769429 0.187928
4.396014 4.580917 -1.465781
4.925810 5.131210 -1.382602
5.456160 5.679699 -1.247409
8.639309 8.990131 1.530923
6.681861 6.950760 -1.183839
7.471905 7.769884 1.707326
7.452014 7.749199 -0.940585
7.483200 7.778919 2.098136
7.472938 7.765531 -0.564810
7.488690 7.779181 2.492908
7.475054 7.762312 -0.188102
7.504218 7.789867 2.898256
3.879655 4.017501 -1.496492
7.498351 7.762067 0.188381
4.414685 4.568348 -1.466681
4.957338 5.128098 -1.386418
5.466337 5.650682 -1.245219
8.698250 8.988447 1.535798
6.711607 6.933096 -1.184814
7.526463 7.772136 1.713583
7.503964 7.748903 -0.943722
7.534898 7.778130 2.105005
7.530579 7.770950 -0.567112
7.555132 7.793572 2.505955
7.527164 7.762010 -0.188730
7.543472 7.776103 2.902915
3.886920 3.997010 -1.493904
7.547712 7.758777 0.188940
4.427888 4.550116 -1.465781
4.998488 5.134679 -1.392906
15.729477 16.152409 1.972509
5.476380 5.621660 -1.243028
8.059025 8.269937 1.417828
6.721907 6.895417 -1.182377
7.583890 7.776928 1.720466
7.560181 7.752615 -0.947383
7.577081 7.767241 2.109203
7.579973 7.767492 -0.568787
7.613603 7.799223 2.516303
7.586349 7.768592 -0.189533
7.607013 7.787041 2.916891
3.903553 3.986177 -1.494939
7.601339 7.759523 0.189603
4.441012 4.531851 -1.464881
5.028751 5.129817 -1.396340
5.500116 5.606743 -1.243967
8.813624 8.981343 1.545060
6.734812 6.860577 -1.180427
7.640051 7.780012 1.727037
7.616508 7.756036 -0.951043
7.624787 7.761750 2.114927
7.618241 7.752380 -0.569625
7.655802 7.787891 2.521251
7.638656 7.767729 -0.190161
7.659892 7.786605 2.926726
3.913376 3.968400 -1.493386
7.657868 7.762838 0.190336
4.458175 4.517708 -1.465331
9.800838 9.928239 0.731133
5.059042 5.124804 -1.399775
15.746660 15.945801 1.960655
5.511326 5.579077 -1.242090
8.222610 8.320779 1.436352
6.755926 6.834204 -1.179939
7.682443 7.768744 1.730478
7.678560 7.764817 -0.955401
7.704303 7.788123 2.129429
7.670541 7.751295 -0.571509
7.706250 7.784662 2.528900
7.691053 7.766591 -0.190790
7.722372 7.795505 2.940185
3.935369 3.962942 -1.496492
7.718745 7.770107 0.191174
4.467051 4.495206 -1.463082
9.771761 9.833351 0.726528
5.094890 5.125218 -1.404736
5.533555 5.562604 -1.242715
8.920914 8.964624 1.552859
6.768538 6.799323 -1.177989
7.736038 7.771223 1.736736
7.721084 7.753494 -0.957319
7.754990 7.784832 2.135916
7.731389 7.758424 -0.574021
7.765021 7.789455 2.539248
7.740764 7.765122 -0.191383
7.764553 7.786267 2.946396
3.934153 3.934154 -1.490798
7.769919 7.769922 0.191802
4.486066 4.484501 -1.464431
9.749514 9.742712 0.722341
5.133585 5.128214 -1.410460
15.902714 15.880530 1.966233
5.535197 5.527475 -1.238961
8.981503 8.965843 1.558221
6.796668 6.782451 -1.178964
7.793887 7.774862 1.743619
7.781959 7.760262 -0.961502
7.797448 7.775707 2.140495
7.796679 7.772227 -0.576952
7.815658 7.788420 2.547346
7.806072 7.776160 -0.192326
7.821798 7.789107 2.957784
3.949920 3.923808 -1.491833
7.815438 7.761072 0.192256
4.496160 4.463325 -1.462632
9.752275 9.677668 0.720038
5.156138 5.116692 -1.411987
15.997720 15.869807 1.971463
5.560067 5.513685 -1.240213
8.984550 8.906485 1.553347
6.811840 6.750302 -1.177502
7.857460 7.783759 1.751753
7.844451 7.770871 -0.966034
7.849655 7.773305 2.147365
7.842211 7.763231 -0.578312
7.869114 7.787138 2.555894
7.855917 7.771364 -0.192884
7.875041 7.787563 2.967619
3.959465 3.905927 -1.490280
7.878080 7.768844 0.193128
4.503386 4.439393 -1.459932
9.736204 9.594502 0.716375
5.183755 5.108310 -1.414658
9.734008 9.588989 1.195428
5.576465 5.491469 -1.239587
9.069341 8.927990 1.562609
6.812725 6.704204 -1.173602
7.912749 7.783988 1.758011
7.918402 7.789548 -0.971786
7.922933 7.791286 2.159958
7.893478 7.759611 -0.580092
7.933775 7.796502 2.568041
7.910098 7.770521 -0.193547
7.936633 7.793868 2.980560
3.973074 3.892083 -1.490280
7.928012 7.763680 0.193687
4.516069 4.420921 -1.459033
9.733947 9.525537 0.713758
5.190328 5.079200 -1.411605
9.724696 9.513153 1.190199
5.589950 5.466448 -1.238335
9.100452 8.896276 1.562609
6.838927 6.683155 -1.174089
7.962479 7.778407 1.763017
7.979748 7.795277 -0.975970
7.971153 7.784155 2.165682
7.943385 7.754331 -0.581767
7.983256 7.790539 2.575240
7.955784 7.761014 -0.194001
7.992838 7.794437 2.991431
3.983866 3.875497 -1.489245
7.990903 7.770814 0.194559
4.532873 4.406487 -1.459482
9.732765 9.458094 0.711246
5.213659 5.066523 -1.413131
9.729259 9.451385 1.186713
5.614667 5.452405 -1.239587
9.094416 8.828506 1.556272
6.853665 6.650949 -1.172627
8.012271 7.772571 1.768023
8.025503 7.785407 -0.978236
8.032099 7.789086 2.174841
8.011991 7.766872 -0.584802
8.041190 7.792458 2.585138
8.007242 7.756850 -0.194594
8.043588 7.789339 3.000231
3.998760 3.862908 -1.489762
8.043874 7.767875 0.195188
4.545421 4.387931 -1.458583
9.734100 9.393552 0.708943
5.234138 5.051021 -1.413895
9.716309 9.373099 1.181135
5.630821 5.430032 -1.238961
9.095164 8.767777 1.551153
6.876841 6.626983 -1.172627
8.067807 7.771962 1.774280
8.082765 7.786371 -0.981897
8.081863 7.782792 2.180947
8.063516 7.762403 -0.586581
8.109064 7.803525 2.598185
8.083266 7.775990 -0.195781
8.099972 7.789331 3.011101
4.002462 3.839564 -1.486139
8.101243 7.768820 0.195921
4.564931 4.376083 -1.459932
9.745203 9.338786 0.707373
5.254573 5.035435 -1.414658
9.717308 9.308811 1.177300
5.635475 5.396679 -1.235832
9.253339 8.858145 1.572846
6.891322 6.594708 -1.171165
8.131999 7.779258 1.782415
8.161723 7.807692 -0.988172
8.134523 7.778955 2.187816
8.125206 7.767337 -0.589094
8.164431 7.802100 2.607183
8.133498 7.769825 -0.196340
8.157847 7.790364 3.022489
4.024232 3.833565 -1.489245
8.154381 7.765314 0.196549
4.568889 4.349371 -1.456333
9.735781 9.264785 0.704337
5.272117 5.017064 -1.414658
9.726649 9.252861 1.174511
5.662869 5.385141 -1.237710
9.335996 8.875031 1.581620
6.917179 6.573346 -1.171652
8.202070 7.791637 1.791801
8.216374 7.805225 -0.991484
8.195793 7.782961 2.196975
8.182691 7.767803 -0.591292
8.217062 7.797698 2.615281
8.192485 7.771666 -0.197107
8.217231 7.792417 3.034395
4.029170 3.811528 -1.486139
8.210498 7.764281 0.197247
4.581208 4.330722 -1.455433
9.731774 9.196447 0.701721
5.283891 4.993234 -1.413131
9.727028 9.188749 1.170676
5.673011 5.357208 -1.235832
9.441983 8.913244 1.594295
6.925647 6.535534 -1.169215
8.240708 7.773809 1.794304
8.272551 7.803846 -0.994970
8.250051 7.779894 2.204226
8.234464 7.762481 -0.593071
8.276845 7.799713 2.625629
8.248676 7.770442 -0.197806
8.279543 7.796793 3.047335
4.032591 3.788184 -1.482516
8.278364 7.773903 0.198224
4.601981 4.320038 -1.457233
9.739059 9.139184 0.699941
5.298427 4.972072 -1.412368
9.727073 9.124752 1.166841
5.696001 5.341424 -1.236771
9.733727 9.124600 1.638168
6.942622 6.505890 -1.168240
8.300954 7.776055 1.801500
8.325915 7.799438 -0.998108
8.320150 7.791305 2.215674
8.297960 7.767814 -0.595688
8.329635 7.794738 2.633727
8.302038 7.766190 -0.198434
8.333517 7.792917 3.057171
4.047204 3.775402 -1.483033
8.339089 7.776324 0.199027
4.614181 4.301291 -1.456333
9.746056 9.081993 0.698162
5.308566 4.946858 -1.410460
9.726795 9.060863 1.163006
5.700154 5.308048 -1.233642
9.753888 9.079755 1.636218
6.962385 6.478910 -1.167752
8.365655 7.782012 1.809634
8.388104 7.802895 -1.002291
8.365981 7.779601 2.220635
8.373301 7.783674 -0.599142
8.395338 7.801429 2.645874
8.367185 7.772554 -0.199341
8.391814 7.792698 3.068559
4.075948 3.775692 -1.488727
8.389653 7.768912 0.199586
4.622018 4.278538 -1.454084
9.755713 9.027567 0.696592
5.331566 4.933630 -1.411987
9.784688 9.051211 1.166144
5.715748 5.285435 -1.233017
9.712641 8.978274 1.624031
6.982041 6.451874 -1.167265
8.429042 7.786273 1.817456
8.459193 7.814126 -1.007520
8.434917 7.788973 2.231702
8.429770 7.781495 -0.601236
8.464050 7.810404 2.658921
8.426603 7.773126 -0.200109
8.445951 7.788238 3.078394
4.076306 3.749671 -1.484068
8.456466 7.776124 0.200528
4.629753 4.255783 -1.451834
9.710689 8.923188 0.691149
5.342972 4.909677 -1.410460
9.287994 8.531782 1.103392
5.735620 5.266786 -1.233329
9.267179 8.506701 1.544572
6.989892 6.414043 -1.164827
8.485286 7.783507 1.823713
8.518722 7.814178 -1.011355
8.482311 7.778060 2.237045
8.480435 7.773616 -0.602910
8.508505 7.796607 2.664320
8.497921 7.784188 -0.201156
8.512974 7.795245 3.092888
4.083665 3.730206 -1.481998
8.510140 7.770826 0.201156
4.647457 4.242225 -1.452734
9.303593 8.492371 0.660166
5.354277 4.885701 -1.408934
9.294169 8.477824 1.100603
5.751049 5.244072 -1.232704
9.274814 8.454240 1.540916
7.000502 6.378908 -1.162877
8.544631 7.785929 1.830909
8.568039 7.804522 -1.013970
8.554411 7.789377 2.248875
8.553308 7.785643 -0.606155
8.565935 7.794403 2.673768
8.544395 7.774804 -0.201645
8.574506 7.799467 3.105829
4.096661 3.715930 -1.481998
8.577332 7.780182 0.202134
4.671604 4.235954 -1.455883
9.308022 8.437042 0.658386
5.362571 4.859071 -1.406644
9.288264 8.413231 1.096419
5.768406 5.224973 -1.232704
9.271894 8.395457 1.535798
7.018675 6.352992 -1.162390
8.602515 7.783890 1.837479
8.627734 7.803971 -1.017805
8.615137 7.792576 2.258034
8.614635 7.789382 -0.608667
8.622093 7.793398 2.683216
8.604123 7.774427 -0.202413
8.623185 7.788911 3.113593
4.091737 3.686807 -1.475786
8.628214 7.771605 0.202692
4.679122 4.213100 -1.453634
9.310692 8.380450 0.656502
5.387407 4.849145 -1.408934
9.280568 8.350397 1.092236
5.788080 5.206125 -1.233017
9.274571 8.339153 1.531410
7.034902 6.323146 -1.161415
8.666369 7.786818 1.845301
8.687655 7.805943 -1.021814
8.667119 7.784756 2.264521
8.677439 7.791290 -0.611179
8.694204 7.803604 2.697163
8.665444 7.775060 -0.203216
8.686273 7.791012 3.126534
4.121859 3.687958 -1.481998
8.686588 7.769437 0.203425
4.682177 4.186351 -1.450034
9.314575 8.325270 0.654723
5.398447 4.825075 -1.407407
9.291829 8.302023 1.090144
5.809162 5.188522 -1.233642
9.271049 8.277639 1.526048
7.062853 6.303840 -1.162390
8.730347 7.789399 1.853123
8.760935 7.816690 -1.027218
8.736728 7.792354 2.275588
8.723962 7.778234 -0.612540
8.765033 7.812108 2.710660
8.729856 7.778022 -0.204088
8.758139 7.800472 3.142581
4.137597 3.676113 -1.483033
8.746548 7.768285 0.204193
4.693848 4.167393 -1.449135
9.306237 8.259560 0.652106
5.415258 4.806201 -1.407407
9.138926 8.108222 1.068878
5.812461 5.155104 -1.230514
9.270182 8.218885 1.521173
7.058073 6.255450 -1.158003
8.797406 7.794243 1.861570
8.815013 7.809842 -1.030355
8.799150 7.793047 2.284747
8.783955 7.776863 -0.614843
8.815599 7.802127 2.717859
8.801886 7.787251 -0.205136
8.820039 7.800575 3.155004
4.141711 3.653980 -1.479927
8.817105 7.776061 0.205205
4.714213 4.156139 -1.450934
9.135723 8.051392 0.638185
5.423163 4.779481 -1.405118
9.243419 8.143439 1.077768
5.842279 5.145229 -1.233017
9.280933 8.170738 1.518248
7.076886 6.228149 -1.157515
8.852740 7.788275 1.867515
8.881115 7.813238 -1.034887
8.863153 7.794700 2.294287
8.845551 7.776482 -0.617250
8.867666 7.793174 2.725507
8.845538 7.770998 -0.205520
8.889311 7.806706 3.170016
4.142817 3.629316 -1.475786
8.889325 7.784761 0.206253
4.716961 4.129390 -1.447335
9.314075 8.150983 0.648652
5.448680 4.768278 -1.407407
9.292785 8.129488 1.080208
5.854254 5.119604 -1.231765
9.281005 8.113466 1.513617
7.104564 6.208632 -1.158490
8.915572 7.788523 1.875024
8.944342 7.813655 -1.039071
8.925800 7.794704 2.303446
8.910259 7.778392 -0.619867
8.946200 7.807025 2.741254
8.910284 7.772936 -0.206392
8.931069 7.788323 3.175192
4.146712 3.607228 -1.472680
8.946626 7.779925 0.206951
4.737230 4.118012 -1.449135
9.321358 8.100086 0.647186
5.459360 4.744082 -1.405881
9.304558 8.082630 1.078291
5.857176 5.086185 -1.228637
9.288277 8.062808 1.510205
7.117196 6.175990 -1.157028
8.981503 7.791006 1.883158
9.003169 7.809800 -1.042731
8.990038 7.795653 2.312987
8.964520 7.770792 -0.621751
9.008745 7.806375 2.752051
8.988755 7.786299 -0.207579
9.002012 7.795041 3.190722
4.170975 3.602832 -1.476822
9.008541 7.778705 0.207753
4.736824 4.088718 -1.444636
9.326896 8.047924 0.645616
5.466970 4.717299 -1.403591
9.308578 8.029277 1.075502
5.877885 5.068289 -1.229262
9.278777 7.997933 1.504112
7.138712 6.151106 -1.157028
9.053544 7.798285 1.892544
9.069624 7.812135 -1.047263
9.055871 7.797537 2.322909
9.024895 7.768115 -0.624054
9.074346 7.807930 2.763749
9.052258 7.786177 -0.208417
9.068720 7.797575 3.204698
4.180594 3.585734 -1.475786
9.082695 7.787569 0.208835
4.746629 4.068354 -1.443286
9.321567 7.986728 0.643314
5.474459 4.690522 -1.401301
9.303252 7.968228 1.071667
5.909047 5.059302 -1.232078
9.281001 7.943549 1.499968
7.145052 6.113250 -1.154590
9.125748 7.805151 1.901931
9.118037 7.798556 -1.049704
9.112880 7.791392 2.330541
9.085352 7.765119 -0.626357
9.132661 7.802788 2.773197
9.118920 7.788295 -0.209324
9.144362 7.807272 3.221780
4.193084 3.571121 -1.475786
9.147890 7.788222 0.209708
4.763770 4.054284 -1.444186
9.322005 7.930846 0.641430
5.484816 4.666296 -1.399775
9.305211 7.913760 1.068704
5.937208 5.047599 -1.234268
9.287496 7.893109 1.496556
7.160299 6.083128 -1.153615
9.189075 7.803935 1.909439
9.155836 7.775706 -1.050924
9.183423 7.796384 2.341608
9.161134 7.774711 -0.629706
9.204424 7.808679 2.786694
9.182652 7.787460 -0.210162
9.214293 7.811531 3.236791
4.199625 3.551472 -1.473716
9.219306 7.793683 0.210720
4.780868 4.040150 -1.445086
9.329800 7.881501 0.640069
5.495074 4.642053 -1.398248
9.302335 7.855518 1.065217
5.972900 5.042139 -1.238023
9.293754 7.842715 1.493143
7.178457 6.055536 -1.153128
9.267598 7.815114 1.920077
9.167686 7.730861 -1.049181
9.257117 7.803505 2.353438
9.221819 7.770997 -0.632009
9.256962 7.797848 2.794342
9.240374 7.781118 -0.210860
9.268110 7.801710 3.246109
4.200160 3.526853 -1.469575
9.281685 7.791021 0.211523
4.785985 4.015920 -1.442386
9.329874 7.828697 0.638289
5.526285 4.635462 -1.402065
9.306797 7.803799 1.062603
6.011661 5.039022 -1.242403
9.311943 7.802579 1.491681
7.199550 6.030444 -1.153128
9.335868 7.819853 1.928837
9.176288 7.683462 -1.047089
9.312906 7.795084 2.360689
9.285650 7.769521 -0.634521
9.324482 7.799247 2.806489
9.318275 7.794056 -0.212047
9.345804 7.814302 3.264226
4.215412 3.514645 -1.470610
9.352008 7.797337 0.212535
4.799277 4.000026 -1.442386
9.354073 7.793525 0.638080
5.533380 4.608605 -1.399775
9.349296 7.784011 1.064346
6.043519 5.031697 -1.245531
9.356073 7.786896 1.494606
7.213405 6.001455 -1.152153
9.408671 7.825109 1.938223
9.201518 7.650112 -1.046915
9.374931 7.794287 2.369848
9.345159 7.766769 -0.636824
9.398261 7.808130 2.820886
9.373114 7.784480 -0.212675
9.413156 7.814952 3.278202
4.235972 3.508039 -1.473716
9.423841 7.801624 0.213548
4.807205 3.978280 -1.440587
9.393716 7.773921 0.639022
5.548633 4.590229 -1.399775
9.430328 7.798676 1.070621
6.091496 5.035745 -1.251789
9.426045 7.789596 1.501430
7.219003 5.963597 -1.149715
9.483300 7.834126 1.948235
9.214547 7.609404 -1.045520
9.449017 7.800257 2.381678
9.421506 7.774782 -0.640173
9.464543 7.807520 2.832584
9.431272 7.780074 -0.213408
9.488201 7.824255 3.295284
4.248193 3.493230 -1.473716
9.488277 7.802079 0.214420
4.820370 3.962318 -1.440587
9.462461 7.775317 0.641848
5.561589 4.568339 -1.399012
9.494448 7.796057 1.074805
6.121901 5.026800 -1.254605
9.499393 7.797335 1.508986
7.241811 5.942142 -1.150203
9.550298 7.833549 1.956370
9.231811 7.569611 -1.044474
9.518861 7.804977 2.392745
9.481222 7.771349 -0.642476
9.523541 7.803266 2.842482
9.504785 7.785117 -0.214455
9.540869 7.811891 3.304084
4.238804 3.462018 -1.466469
9.555725 7.801795 0.215328
4.837193 3.947931 -1.441486
9.537707 7.784309 0.645198
5.564535 4.539946 -1.395959
9.551130 7.789712 1.078291
6.170032 5.030363 -1.260862
9.571176 7.800499 1.516055
7.250196 5.906798 -1.148253
9.625231 7.841759 1.966381
9.239867 7.525118 -1.042557
9.579540 7.798974 2.401140
9.551663 7.773507 -0.645407
9.597587 7.808097 2.856429
9.561571 7.778797 -0.215153
9.601192 7.808245 3.315990
4.253865 3.449633 -1.467504
9.620373 7.801555 0.216200
4.847231 3.929412 -1.440587
9.609819 7.787438 0.648233
5.580349 4.520493 -1.395959
9.621619 7.791430 1.083171
6.205102 5.024790 -1.264616
9.640190 7.803691 1.522879
7.266655 5.880227 -1.147766
9.701694 7.847866 1.976393
9.253682 7.482798 -1.041162
9.660305 7.811606 2.414879
9.630198 7.784480 -0.648966
9.684058 7.825216 2.874425
9.629113 7.778040 -0.216061
9.667465 7.806240 3.329448
4.270994 3.437654 -1.469057
9.697000 7.802162 0.217248
4.847097 3.898559 -1.436087
9.680320 7.785958 0.651059
5.590759 4.495090 -1.394432
9.693592 7.791063 1.088052
6.244368 5.017013 -1.268684
9.699488 7.790238 1.527510
7.286087 5.849794 -1.147278
9.776600 7.849357 1.985779
9.274833 7.443841 -1.040465
9.725448 7.802715 2.423656
9.697412 7.777433 -0.651478
9.733797 7.803823 2.880273
9.713721 7.787728 -0.217317
9.735205 7.802168 3.342907
4.275423 3.416693 -1.466469
9.771244 7.808664 0.218330
4.872180 3.892193 -1.439687
9.743333 7.780788 0.653467
5.609486 4.477995 -1.395195
9.773681 7.799430 1.093979
6.282588 5.013527 -1.273064
9.774928 7.797641 1.535310
7.283716 5.808275 -1.143866
9.853371 7.854582 1.995791
9.299201 7.410181 -1.040291
9.797334 7.807124 2.435105
9.766891 7.780079 -0.654409
9.802309 7.805488 2.892871
9.790911 7.793628 -0.218434
9.804709 7.801817 3.357401
4.283704 3.400093 -1.465433
9.832907 7.801850 0.219098
4.873520 3.865478 -1.436087
9.795476 7.766581 0.655142
5.605845 4.444731 -1.390616
9.843209 7.801631 1.098860
6.327917 5.013651 -1.278696
9.851887 7.802911 1.543110
7.313286 5.790206 -1.145328
9.917899 7.849570 2.003300
9.312513 7.367784 -1.038896
9.859940 7.800891 2.443882
9.826888 7.771954 -0.656607
9.876880 7.808698 2.906818
9.838453 7.775520 -0.218888
9.889486 7.813050 3.377071
4.290066 3.379589 -1.463363
9.913486 7.809556 0.220284
4.896170 3.855675 -1.438787
9.900988 7.794117 0.660375
