# This PCD file was generated using the MATLAB® pcwrite function
# from Computer Vision Toolbox®.
# .PCD v.7 - Point Cloud Data file format
VERSION .7
FIELDS x y z
SIZE 4 4 4
TYPE F F F
COUNT 1 1 1
WIDTH 1657
HEIGHT 1
VIEWPOINT 0 0 0 1 0 0 0
POINTS 1657
DATA ascii
1.884194 -6.798791 0.617237
1.926507 -6.956183 -1.143223
1.839982 -6.648276 0.846992
2.120333 -7.666453 -0.976661
1.877081 -6.791544 1.116004
1.903863 -6.888443 -0.625255
1.872224 -6.778577 1.366956
1.901323 -6.888618 -0.374516
1.868987 -6.776077 1.622797
1.893264 -6.868768 -0.124366
1.864810 -6.770149 1.881615
1.876661 -6.850518 0.123982
1.493733 -5.456427 -1.306066
1.874621 -6.852458 0.372318
1.489912 -5.446200 -1.097533
1.865179 -6.822623 0.618806
1.900650 -6.957150 -1.142285
1.863295 -6.825094 0.868685
2.129610 -7.805951 -0.993479
1.856480 -6.809490 1.117881
1.845970 -6.775600 1.365048
2.561958 -9.410096 -0.511113
1.847881 -6.791962 1.625046
2.547630 -9.370369 -0.169498
1.843193 -6.784074 1.883685
2.536558 -9.387873 0.169742
1.472646 -5.454082 -1.304266
1.855011 -6.870206 0.372946
1.472937 -5.458949 -1.099060
1.817492 -6.740603 0.610787
1.875841 -6.961834 -1.141972
1.812620 -6.731882 0.856010
2.067277 -7.682987 -0.976905
1.841588 -6.844221 1.122574
2.315649 -8.612046 -0.780218
1.828421 -6.804755 1.369627
2.521844 -9.391976 -0.509648
1.636292 -6.098206 1.457683
2.519652 -9.390354 -0.169707
1.824688 -6.805076 1.887826
2.504898 -9.394300 0.169707
1.456558 -5.466467 -1.306066
2.502683 -9.399167 0.509752
1.453873 -5.464057 -1.099060
2.500986 -9.406003 0.851512
1.903504 -7.158921 -1.173259
2.494779 -9.389256 1.192857
2.033636 -7.659102 -0.973005
2.486400 -9.370898 1.535561
2.271785 -8.568080 -0.775512
1.822953 -6.875302 1.382602
2.483524 -9.373258 -0.508182
2.484811 -9.391359 -0.169568
1.809812 -6.845022 1.897144
2.468023 -9.387514 0.169428
1.442420 -5.490366 -1.310565
2.462757 -9.380801 0.508287
1.425775 -5.430871 -1.091428
2.465232 -9.396901 0.849943
1.985703 -7.574434 -1.240213
2.463498 -9.403668 1.193588
2.040571 -7.794819 -0.989335
2.455674 -9.387164 1.536812
2.186381 -8.357757 -0.755815
2.451885 -9.379370 1.884430
2.448771 -9.374141 -0.507764
2.428540 -9.303334 2.219817
2.445958 -9.376756 -0.169149
1.793703 -6.881209 1.905426
2.432228 -9.384459 0.169219
1.426177 -5.506687 -1.313264
2.430998 -9.393207 0.508496
1.415664 -5.470025 -1.098297
1.677647 -6.486982 0.586210
1.960734 -7.587057 -1.241151
2.424206 -9.387223 1.190420
2.071384 -8.026783 -1.017853
2.416479 -9.370813 1.532745
2.132318 -8.268873 -0.747099
2.419131 -9.387871 1.884430
2.415038 -9.378763 -0.507554
1.502023 -5.837304 1.391547
2.410223 -9.373617 -0.168939
2.386966 -9.289887 2.570073
2.395002 -9.375454 0.168904
1.623644 -6.365167 0.344266
1.391708 -5.455910 -1.094480
2.393172 -9.388784 0.847677
1.939602 -7.614912 -1.244593
1.690252 -6.640809 0.841386
2.007634 -7.893524 -1.000060
2.381322 -9.369618 1.531181
2.104424 -8.280128 -0.747448
2.381029 -9.375326 1.880232
2.379829 -9.377456 -0.507031
2.363052 -9.318173 2.219367
2.374542 -9.370342 -0.168730
2.353101 -9.292545 2.568520
2.358356 -9.368243 0.168625
2.362441 -9.398328 0.507868
1.373612 -5.464543 -1.095244
2.357957 -9.387419 0.846805
1.913489 -7.623551 -1.244906
2.351851 -9.376963 1.187008
1.993580 -7.954400 -1.006885
2.348121 -9.375957 1.530868
2.105033 -8.405317 -0.758081
2.342571 -9.360727 1.875653
2.340297 -9.358581 -0.505565
1.564698 -6.261692 1.490076
2.341335 -9.376634 -0.168695
2.319247 -9.295079 2.566967
2.324195 -9.370596 0.168520
2.320498 -9.369681 0.505879
1.351698 -5.457870 -1.092954
2.320866 -9.378186 0.845236
1.886392 -7.628267 -1.244593
2.313868 -9.363915 1.184326
1.960568 -7.940111 -1.004204
1.527023 -6.188940 1.009628
2.036543 -8.253995 -0.743787
2.307060 -9.357409 1.873363
2.304749 -9.355057 -0.504937
2.287694 -9.292814 2.209469
2.302857 -9.361447 -0.168276
2.284943 -9.295615 2.564897
2.287675 -9.363111 0.168241
1.573941 -6.451673 0.348034
1.333568 -5.466370 -1.093717
2.283870 -9.368809 0.843668
1.860221 -7.636724 -1.244906
2.277880 -9.358435 1.182620
1.936592 -7.962337 -1.006153
2.270479 -9.342215 1.522733
2.033598 -8.367535 -0.753374
2.270677 -9.350142 1.870310
2.271137 -9.359162 -0.504728
1.624270 -6.698580 1.591304
2.266870 -9.355825 -0.168032
2.252639 -9.361318 0.168067
2.252230 -9.374002 0.505251
1.319066 -5.490081 -1.097533
2.246967 -9.359287 0.842099
1.833092 -7.641250 -1.244593
2.247976 -9.377911 1.184083
1.949015 -8.137001 -1.027359
2.236474 -9.344321 1.521795
2.000667 -8.359082 -0.751980
2.237112 -9.354193 1.869547
2.233812 -9.347609 -0.503681
2.220047 -9.297186 2.206770
2.231877 -9.353955 -0.167857
2.215063 -9.290668 2.559203
2.215337 -9.349667 0.167718
2.214897 -9.362370 0.504205
1.311646 -5.544326 -1.107455
1.618429 -6.846437 0.615494
1.803683 -7.636067 -1.242715
1.634288 -6.924322 0.873560
1.902830 -8.068402 -1.017853
1.636571 -6.944835 1.130083
1.944057 -8.249658 -0.741521
2.203095 -9.356213 1.868402
2.201170 -9.355349 -0.503681
2.187581 -9.304878 2.206770
2.196926 -9.351956 -0.167683
2.180412 -9.288940 2.556615
2.180871 -9.349553 0.167578
1.561110 -6.703171 0.360699
2.177056 -9.355341 0.840356
1.548404 -6.659129 -1.082839
2.176611 -9.368239 1.180914
1.883632 -8.113669 -1.022728
2.167614 -9.344312 1.519292
1.897689 -8.180700 -0.734723
2.166877 -9.348544 1.865349
2.163543 -9.341571 -0.502530
1.482858 -6.407655 1.518420
2.166972 -9.371258 -0.167892
2.144931 -9.283319 2.552991
2.146432 -9.349313 0.167438
1.547073 -6.749462 0.362898
2.143052 -9.357057 0.839833
1.528674 -6.679898 -1.085342
2.136817 -9.344817 1.177014
1.840707 -8.056333 -1.014684
2.131905 -9.338341 1.517102
2.129428 -9.334997 1.861151
2.129146 -9.341278 -0.502111
1.459184 -6.407092 1.517070
2.126704 -9.345616 -0.167299
2.110799 -9.283215 2.550921
1.609242 -7.123378 0.127472
1.547232 -6.860030 0.368550
1.698639 -7.537455 0.675980
1.496235 -6.644724 -1.078772
2.102440 -9.344473 1.176039
1.797335 -7.994923 -1.006153
2.095400 -9.328379 1.514286
1.897735 -8.448407 -0.757558
2.096830 -9.342374 1.861151
2.095214 -9.342805 -0.501797
2.078518 -9.275933 2.194623
2.088825 -9.329567 -0.166880
1.444914 -6.458877 1.773428
1.593044 -7.167993 0.128170
1.520682 -6.853690 0.367922
2.068620 -9.330942 0.836172
1.481576 -6.688478 -1.085030
2.068094 -9.344002 1.175064
1.760416 -7.960444 -1.001035
1.357883 -6.145318 0.996801
1.890585 -8.556145 -0.766622
2.056588 -9.315128 1.854282
2.060438 -9.340310 -0.501274
2.046125 -9.283133 2.194623
1.556485 -7.067534 -0.126321
2.041787 -9.278857 2.545744
2.039442 -9.330252 0.166705
2.039667 -9.346913 0.501379
2.036885 -9.342000 0.836521
1.463686 -6.718701 -1.089097
2.032509 -9.337586 1.173358
1.712368 -7.873432 -0.989335
2.031063 -9.346641 1.514911
1.866631 -8.589949 -0.769062
1.404220 -6.467443 1.286434
2.023588 -9.327929 -0.500227
2.011645 -9.280696 2.192373
2.022372 -9.338059 -0.166775
2.004482 -9.263270 2.539532
2.004340 -9.325584 0.166496
2.005350 -9.346165 0.500960
2.002592 -9.341260 0.835824
1.439811 -6.721838 -1.088784
1.996579 -9.329096 1.171408
1.715176 -8.021070 -1.007128
1.993886 -9.332424 1.511470
1.812908 -8.485352 -0.759126
1.986178 -9.304299 1.849321
1.987682 -9.319308 -0.499390
1.974362 -9.264790 2.186974
1.988515 -9.339193 -0.166670
1.972136 -9.270210 2.539532
1.970949 -9.328610 0.166426
1.966944 -9.325748 0.499494
1.967920 -9.338446 0.834952
1.398837 -6.643704 -1.075331
1.962777 -9.330181 1.170677
1.678593 -7.986212 -1.002010
1.959266 -9.329661 1.509906
1.864762 -8.879651 -0.793815
1.953688 -9.311175 1.849321
1.954319 -9.322279 -0.499180
1.942410 -9.273533 2.187424
1.949349 -9.314761 -0.166112
1.938183 -9.269474 2.537462
1.939593 -9.341308 0.166531
1.933163 -9.326690 0.499180
1.932886 -9.333551 0.833906
1.404456 -6.787823 -1.097857
1.328190 -6.424881 0.805556
1.659137 -8.032848 -1.007128
1.303489 -6.316512 1.021517
1.833353 -8.884155 -0.793640
1.919191 -9.308324 1.847413
1.918945 -9.315351 -0.498448
1.905314 -9.257352 2.182025
1.912794 -9.301922 -0.165763
1.905037 -9.272398 2.536427
1.406948 -6.896884 0.122865
1.899399 -9.327510 0.498866
1.401215 -6.893345 -1.114126
1.306941 -6.435314 0.806288
1.628324 -8.024973 -1.005422
1.746118 -8.613221 -0.768888
1.291569 -6.376740 1.264682
1.885229 -9.316121 -0.498134
1.407251 -6.960375 1.639443
1.879917 -9.306582 -0.165728
1.866927 -9.250587 2.528662
1.865689 -9.311483 0.165763
1.866437 -9.332126 0.498762
1.575660 -7.885402 0.703521
1.339244 -6.708354 -1.083465
1.265831 -6.346393 0.794588
1.572369 -7.890437 -0.987873
1.173345 -5.893428 0.951747
1.713319 -8.605585 -0.767668
1.849948 -9.300315 1.843215
1.849584 -9.306973 -0.497296
1.834188 -9.237933 2.174377
1.845864 -9.305243 -0.165588
1.833872 -9.253258 2.527627
1.830473 -9.304206 0.165519
1.831541 -9.326824 0.498134
1.555028 -7.926045 0.706659
1.317340 -6.720742 -1.084717
1.824304 -9.315765 1.165558
1.576452 -8.057575 -1.008103
1.820099 -9.311519 1.502710
1.833098 -9.378024 -0.835998
1.817472 -9.306716 1.843215
1.813643 -9.295730 -0.496354
1.801930 -9.244280 2.174377
1.814135 -9.315554 -0.165658
1.798611 -9.244432 2.523486
1.797984 -9.310538 0.165519
1.796327 -9.319432 0.497401
1.794092 -9.316587 0.830071
1.296856 -6.740818 -1.087220
1.790651 -9.316229 1.164827
1.602598 -8.345702 -1.043445
1.786094 -9.310054 1.501458
1.830381 -9.540902 -0.849943
1.782757 -9.301435 1.840925
1.779682 -9.294157 -0.495936
1.172077 -6.126814 1.440137
1.780481 -9.315937 -0.165554
1.763795 -9.237370 2.519862
1.762867 -9.303005 0.165274
1.758960 -9.300135 0.496040
1.764521 -9.338455 0.831466
1.268922 -6.722010 -1.083465
1.250440 -6.630449 0.828468
1.560224 -8.281019 -1.034671
1.750662 -9.300702 1.498955
1.788590 -9.502199 -0.845934
1.189348 -6.324692 1.250944
1.746858 -9.298349 -0.495831
1.730520 -9.220243 2.165829
1.311977 -6.996976 -0.124261
1.731538 -9.243472 2.519862
1.408059 -7.575073 0.134488
1.383301 -7.456364 0.397439
1.190916 -6.425608 0.571742
1.246889 -6.734168 -1.084717
1.723402 -9.316791 1.163365
1.556199 -8.421104 -1.051489
1.716034 -9.295100 1.497078
1.749623 -9.477036 -0.843145
1.188273 -6.442716 1.273459
1.714391 -9.304390 -0.495831
1.130335 -6.140597 1.441486
1.285736 -6.991680 -0.124087
1.695423 -9.228559 2.514168
1.696084 -9.305248 0.165100
1.694541 -9.305996 0.495726
1.215258 -6.693777 -1.077521
1.688744 -9.311030 1.161902
1.488219 -8.213577 -1.024921
1.682384 -9.285191 1.494575
1.689560 -9.334085 -0.829897
1.679318 -9.286750 1.834438
1.679418 -9.296560 -0.495098
1.169114 -6.478196 1.519769
1.678775 -9.302291 -0.164995
1.662411 -9.220822 2.510545
1.661697 -9.291138 0.164751
1.177752 -6.598519 0.351279
1.655801 -9.295615 0.826062
1.188551 -6.672488 -1.073453
1.651946 -9.283355 1.157759
1.452634 -8.171560 -1.019072
1.651688 -9.300732 1.496139
1.648616 -9.292844 -0.825713
1.645427 -9.274870 1.831003
1.644397 -9.278480 -0.493842
1.629369 -9.203033 2.157730
1.644553 -9.298248 -0.164821
1.631223 -9.232276 2.512098
1.216763 -6.943115 0.123039
1.140949 -6.523894 0.347092
1.623595 -9.293203 0.825365
1.180196 -6.762218 -1.087220
1.383250 -7.933838 0.988848
1.464975 -8.411259 -1.048320
1.621922 -9.322009 1.498642
1.455567 -8.365882 -0.742916
1.613042 -9.280558 1.831003
1.611656 -9.282195 -0.493737
1.611061 -9.298022 -0.164716
1.596679 -9.224588 2.508474
1.592395 -9.276891 0.164297
1.103332 -6.441219 0.342487
1.588121 -9.281139 0.823796
1.150594 -6.731249 -1.081588
1.585091 -9.282921 1.156296
1.432267 -8.396754 -1.045883
1.579749 -9.271142 1.489569
1.448443 -8.500541 -0.754420
1.581954 -9.293873 1.832530
1.577238 -9.275950 -0.493109
1.077869 -6.345799 1.486027
1.574582 -9.279930 -0.164297
1.561888 -9.214869 2.504333
1.560334 -9.284364 0.164332
1.071923 -6.391848 0.339660
1.289078 -7.694970 0.682604
1.313579 -7.849643 -1.260549
1.554315 -9.298186 1.157515
1.407853 -8.431071 -1.049539
1.544453 -9.259064 1.486753
1.388276 -8.322779 -0.738209
1.221338 -7.329862 1.444424
1.546160 -9.289281 -0.493528
1.530350 -9.204213 2.154131
1.068419 -6.432885 -0.113825
1.525917 -9.197395 2.498122
1.525320 -9.273970 0.164053
1.523463 -9.282909 0.493005
1.519421 -9.268406 0.821704
1.286172 -7.854180 -1.260549
1.519606 -9.289842 1.155809
1.388017 -8.494708 -1.056851
1.511806 -9.262449 1.486441
1.354723 -8.300045 -0.735769
1.510714 -9.265937 1.824897
1.150303 -7.063123 -0.375039
1.125537 -6.918664 1.618298
1.507833 -9.278854 -0.164088
1.492256 -9.193130 2.495533
1.492303 -9.275289 0.163983
1.150419 -7.166287 0.380378
1.115137 -6.954257 0.616191
1.271244 -7.936643 -1.273064
1.482151 -9.263727 1.151909
1.353658 -8.470098 -1.053195
1.479463 -9.267670 1.486441
1.315508 -8.249864 -0.730888
1.477125 -9.263400 1.823371
1.476560 -9.270263 -0.491958
1.468811 -9.231994 2.158180
1.474807 -9.280111 -0.164018
0.950723 -5.989092 1.624866
1.041333 -6.619574 0.116966
1.454902 -9.269642 0.491749
1.135569 -7.251589 0.642164
1.250084 -7.991992 -1.281199
1.247029 -7.972461 0.990798
1.292828 -8.274719 -1.028334
1.447409 -9.274729 1.486753
1.275655 -8.183535 -0.724613
1.442255 -9.262931 1.822226
1.438583 -9.249955 -0.490597
0.972199 -6.258343 1.462182
1.442405 -9.285203 -0.164018
0.931588 -6.003828 1.627972
1.024348 -6.670783 0.117804
1.420417 -9.260843 0.491016
1.419456 -9.276179 0.821007
0.907133 -5.942015 0.738041
1.237354 -8.114559 -1.007860
1.137499 -7.459712 1.195159
1.253381 -8.229301 -0.728273
1.234228 -8.113060 1.595163
1.407185 -9.260844 -0.490911
0.924615 -6.092151 1.422590
1.406983 -9.270410 -0.163669
1.391852 -9.181513 2.488286
1.063988 -7.085467 0.125064
0.922355 -6.171621 0.545944
1.383304 -9.266960 1.150447
1.185850 -7.953693 -0.987386
1.376223 -9.241623 1.479870
1.197095 -8.048380 -0.711888
1.377439 -9.260881 1.819936
1.366907 -9.212171 2.150082
1.371097 -9.251528 -0.163250
1.358096 -9.174850 2.485181
1.058102 -7.217744 0.127333
1.356858 -9.289570 0.821356
0.077848 -0.533629 -0.085413
1.352951 -9.285482 1.152153
1.155219 -7.938141 -0.984948
1.343672 -9.244416 1.479557
1.150339 -7.914289 -0.699686
1.344541 -9.261748 1.819173
1.148947 -7.924151 -0.419630
0.873630 -6.032731 1.407294
1.336792 -9.242404 -0.163005
0.875295 -6.059142 1.640395
1.322837 -9.248452 0.163075
1.029124 -7.212955 0.381843
1.318801 -9.254801 0.817869
0.075985 -0.533898 -0.085413
0.848693 -5.970695 0.740478
1.125830 -7.930332 -0.983486
1.005792 -7.093683 -0.626824
0.829383 -5.856853 1.149815
1.072334 -7.582036 -0.401312
0.984675 -6.979812 -0.123039
1.293204 -9.178369 2.483628
1.290823 -9.254993 0.163110
0.885878 -6.367852 0.336939
1.000237 -7.199083 0.635888
0.074121 -0.534160 -0.085413
1.282098 -9.251443 1.146791
1.095964 -7.918483 -0.981536
1.284781 -9.294663 1.486127
1.001212 -7.243199 -0.639723
1.276627 -9.247571 1.814594
1.091416 -7.916150 -0.418792
0.927070 -6.741518 -0.118781
0.829819 -6.042139 1.634184
0.889010 -6.540855 0.115221
1.254553 -9.254537 0.489446
1.256029 -9.277602 0.819090
1.063324 -7.874860 0.975686
1.074683 -7.969475 -0.987386
0.791999 -5.880941 0.939858
0.958105 -7.114354 -0.628044
0.853374 -6.345043 1.244456
0.843830 -6.290704 1.465331
0.910701 -6.798227 -0.119724
1.228583 -9.183343 2.482592
1.224343 -9.249903 0.162866
1.220773 -9.260201 0.817172
1.063258 -8.087149 1.001522
1.211730 -9.228889 -1.142891
0.922472 -7.035335 1.123825
1.046978 -7.984891 -0.704567
0.824592 -6.297370 1.234534
1.205548 -9.244305 -0.162726
1.191779 -9.151178 2.472757
1.191793 -9.252137 0.162831
1.186605 -9.237316 0.488085
1.187936 -9.260454 0.816824
0.068523 -0.534907 -0.085413
0.922678 -7.212615 0.892815
1.183531 -9.264569 -1.146791
0.839165 -6.578030 1.050301
1.174914 -9.209895 -0.812292
0.889937 -6.985735 1.368864
0.872604 -6.859229 -0.362374
1.170245 -9.211712 2.143784
1.173524 -9.250440 -0.162761
0.879158 -6.939770 1.874368
1.156008 -9.228462 0.162342
0.973886 -7.796628 0.411779
0.741055 -5.941092 0.523806
0.066656 -0.535143 -0.085413
1.147904 -9.229045 1.141916
1.159994 -9.339561 -1.155565
0.809876 -6.529949 1.042166
0.073078 -0.589218 -0.051945
0.989576 -7.990262 1.565016
1.140121 -9.219019 -0.486829
1.138321 -9.217674 2.144233
0.806910 -6.543431 -0.115081
0.857290 -6.961969 1.879544
0.925658 -7.604704 0.133720
0.773887 -6.376395 0.336625
1.120140 -9.242808 0.814558
1.114013 -9.219200 1.140210
0.080137 -0.664159 -0.082140
0.799128 -6.632758 1.058123
0.073880 -0.613206 -0.054037
0.685205 -5.695560 1.115088
1.108410 -9.226911 -0.487038
0.816259 -6.804939 1.582306
0.780260 -6.514440 -0.114523
1.094279 -9.149730 2.469134
1.092260 -9.242266 0.162447
1.087939 -9.233368 0.487248
1.086006 -9.230833 0.813163
0.062918 -0.535595 -0.085413
1.080670 -9.213174 1.138991
0.081513 -0.695980 -0.086040
0.073591 -0.629292 -0.055431
0.762772 -6.532520 1.278420
1.074576 -9.216836 -0.486306
0.751975 -6.469452 -0.113685
1.061665 -9.147736 2.467581
0.881655 -7.690449 0.135117
0.723004 -6.326080 0.333694
0.913049 -8.001312 0.704567
1.048727 -9.218863 1.139235
0.074154 -0.652868 -0.080678
0.730545 -6.441895 1.026836
0.071394 -0.629545 -0.055431
1.042797 -9.209675 1.801619
0.841816 -7.446283 -0.392729
0.786437 -6.967323 1.618748
0.723116 -6.416398 -0.112708
1.027135 -9.128349 2.461369
0.867571 -7.833287 0.413035
1.019787 -9.222346 0.811769
0.059177 -0.536021 -0.085413
0.869301 -7.886650 0.974224
0.074480 -0.676801 -0.083602
0.746456 -6.793920 1.082527
0.071372 -0.649595 -0.057174
1.011286 -9.219113 1.802764
0.816253 -7.453147 -0.392938
1.006546 -9.205549 2.137935
0.697460 -6.389065 -0.112184
0.994218 -9.122276 2.458781
0.781745 -7.266960 0.127577
0.986932 -9.204536 0.485154
0.852714 -7.965889 0.700907
0.057306 -0.536224 -0.085413
0.696243 -6.525679 0.805800
0.072117 -0.677057 -0.083602
0.677199 -6.368266 1.014321
0.070579 -0.663708 -0.058394
0.856816 -8.070740 1.577609
0.976106 -9.209708 -0.485364
0.759922 -7.181939 1.667337
0.962573 -9.127612 2.459299
0.777069 -7.468540 0.131068
0.954176 -9.201966 0.484840
0.825929 -7.978726 0.701778
0.061525 -0.595369 -0.094799
0.949890 -9.207619 1.136554
0.068940 -0.669406 -0.082627
0.946893 -9.210045 1.466417
0.067854 -0.659987 -0.058046
0.945296 -9.210325 1.799711
0.943545 -9.209085 -0.485154
0.939877 -9.189088 2.132536
0.788729 -7.724655 -0.135535
0.930313 -9.127073 2.458263
0.926793 -9.220126 0.161749
0.922051 -9.205241 0.484840
0.794505 -7.945875 0.698640
0.057092 -0.571992 -0.091045
0.662870 -6.652850 0.820912
0.065031 -0.653840 -0.080678
0.681125 -6.860336 1.091913
0.065156 -0.656254 -0.057697
0.911786 -9.199892 1.797039
0.910410 -9.202385 -0.484631
0.907027 -9.184555 2.130736
0.907129 -9.201987 -0.161400
0.897313 -9.118730 2.455158
0.896466 -9.209061 0.161505
0.892355 -9.200140 0.484422
0.655873 -6.774327 0.595448
0.054915 -0.568237 -0.090419
0.574682 -5.957399 0.734872
0.063738 -0.661944 -0.081652
0.774853 -8.061894 1.282763
0.061188 -0.636623 -0.055954
0.881566 -9.189032 1.794368
0.881496 -9.205200 -0.484631
0.878910 -9.195120 2.132536
0.695317 -7.287791 -0.127787
0.868296 -9.117658 2.454122
0.862821 -9.196206 0.161225
0.046333 -0.494764 -0.114725
0.695736 -7.443296 0.391787
0.857462 -9.190829 0.807585
0.053664 -0.576292 -0.091671
0.685236 -7.372619 0.909145
0.062527 -0.674022 -0.083115
0.619037 -6.685709 1.063442
0.059516 -0.642785 -0.056477
0.848762 -9.184234 1.792842
0.677836 -7.348677 -0.386763
0.845201 -9.180666 2.128487
0.670971 -7.302121 -0.127996
0.835758 -9.112937 2.452052
0.674967 -7.474443 0.130998
0.692474 -7.713397 0.677549
0.049889 -0.556801 -0.088542
0.658082 -7.359148 0.907195
0.060527 -0.678191 -0.083602
0.569233 -6.390722 1.016198
0.056919 -0.639020 -0.056128
0.817046 -9.191051 1.793605
0.618467 -6.971014 -0.366770
0.813666 -9.189384 2.129837
0.656391 -7.427918 -0.130160
0.803433 -9.110026 2.450499
0.797906 -9.194036 0.161086
0.794073 -9.187092 0.483270
0.792592 -9.188651 0.806888
0.050656 -0.588461 -0.093548
0.790232 -9.198784 1.133629
0.057481 -0.670487 -0.082627
0.785694 -9.183560 1.459847
0.054857 -0.641199 -0.056303
0.782001 -9.178104 -0.482747
0.780262 -9.176635 2.126237
0.587515 -6.924060 -0.121294
0.771629 -9.112775 2.450499
0.571163 -6.859213 0.120142
0.618413 -7.458135 0.392206
0.051202 -0.620134 -0.098554
0.635866 -7.717695 0.950825
0.055140 -0.670684 -0.082627
0.751856 -9.164590 1.456405
0.052619 -0.641387 -0.056303
0.750939 -9.173051 1.789025
0.749470 -9.174807 -0.482433
0.636609 -7.809982 1.809057
0.561397 -6.902152 -0.120875
0.739189 -9.107711 2.448428
0.547852 -6.869138 0.120282
0.595221 -7.496086 0.394090
0.727480 -9.182043 0.805842
0.048103 -0.608493 -0.096677
0.609859 -7.731741 0.952287
0.053422 -0.678788 -0.083602
0.720326 -9.173066 1.457344
0.050068 -0.637594 -0.055954
0.717841 -9.161916 1.786354
0.717129 -9.173385 -0.482224
0.611010 -7.833527 1.814005
0.714797 -9.184826 -0.160806
0.706944 -9.104458 2.446875
0.699457 -9.173974 0.160597
0.694522 -9.172606 0.804796
0.045384 -0.600778 -0.095425
0.601664 -7.983237 0.982998
0.051945 -0.690847 -0.085065
0.434584 -5.793306 0.920148
0.047842 -0.637765 -0.055954
0.685415 -9.158492 1.785209
0.685104 -9.175833 -0.482224
0.683689 -9.178472 2.124887
0.681991 -9.177293 -0.160632
0.674018 -9.091457 2.442734
0.668155 -9.186332 0.160772
0.665147 -9.189316 0.482852
0.523027 -7.243402 0.635365
0.044138 -0.612755 -0.097302
0.520441 -7.242794 0.891596
0.050385 -0.702904 -0.086527
0.424503 -5.936652 0.942674
0.052010 -0.727357 -0.063798
0.558877 -7.835074 1.526854
0.520385 -7.313447 -0.384251
0.651233 -9.174972 2.123538
0.649812 -9.177624 -0.160597
0.641869 -9.087974 2.441181
0.634841 -9.170653 0.160457
0.467424 -6.786587 0.356513
0.505522 -7.358482 0.645301
0.041729 -0.608963 -0.096677
0.483379 -7.072265 0.870391
0.048471 -0.710998 -0.087502
0.409004 -6.014961 0.954876
0.043659 -0.642059 -0.056303
0.532586 -7.852647 1.529907
0.065918 -0.974433 -0.051185
0.617890 -9.157744 2.119039
0.617233 -9.171855 -0.160457
0.610531 -9.095942 2.442734
0.602957 -9.174809 0.160492
0.434742 -6.650660 0.349290
0.597913 -9.171424 0.804099
0.042422 -0.652472 -0.103560
0.485149 -7.481982 0.920601
0.048551 -0.750782 -0.092377
0.590145 -9.150689 1.452338
0.041674 -0.646184 -0.056651
0.063922 -0.996582 -0.052336
0.586169 -9.163736 2.119939
0.578530 -9.094161 2.441699
0.571177 -9.180849 0.160562
0.409181 -6.614261 0.347301
0.565280 -9.163512 0.803227
0.042570 -0.692049 -0.109817
0.399114 -6.506814 0.800438
0.049081 -0.802463 -0.098714
0.477272 -7.825730 1.241777
0.039297 -0.644337 -0.056477
0.556405 -9.149533 1.781775
0.058388 -0.962908 -0.050557
0.458561 -7.584288 1.754168
0.389289 -6.457292 -0.112917
0.546203 -9.086483 2.439111
0.428604 -7.300315 0.127647
0.427166 -7.319484 0.384251
0.534564 -9.187308 0.805145
0.037866 -0.652752 -0.103560
0.530098 -9.165735 1.127291
0.045365 -0.786775 -0.096764
0.526134 -9.152614 1.452025
0.036933 -0.642481 -0.056303
0.524574 -9.153378 1.782156
0.056280 -0.985040 -0.051708
0.403825 -7.089718 1.639443
0.520134 -9.159848 -0.160143
0.513719 -9.074834 2.435488
0.380061 -6.928061 0.363630
0.372490 -6.811765 0.596843
0.033222 -0.609487 -0.096677
0.402681 -7.411329 0.911339
0.044121 -0.814679 -0.100177
0.493437 -9.140587 1.449835
0.034368 -0.636638 -0.055780
0.490722 -9.119867 1.775287
0.051129 -0.953320 -0.050033
0.488720 -9.142128 2.113640
0.488477 -9.167598 -0.160248
0.482139 -9.078501 2.436005
0.384856 -7.442922 0.130090
0.325042 -6.328962 0.332124
0.468578 -9.155001 0.802007
0.033308 -0.653001 -0.103560
0.352017 -6.924987 0.851379
0.036658 -0.723631 -0.088965
0.461627 -9.144227 1.450148
0.032949 -0.652673 -0.057174
0.460464 -9.152897 1.781393
0.047801 -0.953492 -0.050033
0.353251 -7.070955 1.634494
0.456472 -9.169247 -0.160248
0.450352 -9.078199 2.435488
0.370236 -7.679910 0.134209
0.305525 -6.383922 0.334950
0.353300 -7.409248 0.648962
0.029904 -0.629435 -0.099805
0.433336 -9.154922 1.125342
0.033944 -0.719789 -0.088477
0.429333 -9.137889 1.448896
0.035346 -0.752293 -0.065890
0.427225 -9.126992 1.776050
0.044938 -0.963629 -0.050557
0.424612 -9.139477 2.112290
0.423723 -9.154803 -0.159969
0.418215 -9.070066 2.432899
0.273759 -6.122950 0.106983
0.329620 -7.430486 0.389798
0.324972 -7.354703 0.644081
0.028401 -0.645324 -0.102308
0.401726 -9.164311 1.126317
0.032297 -0.739735 -0.090915
0.397091 -9.131439 1.447645
0.028218 -0.648906 -0.056826
0.310837 -7.176820 1.396340
0.038475 -0.891945 -0.046788
0.392121 -9.127275 2.109141
0.025730 -0.601358 -0.010506
0.386058 -9.059891 2.429793
0.283509 -6.879112 0.120177
0.373812 -9.147801 0.479816
0.301727 -7.415515 0.649310
0.026948 -0.665156 -0.105437
0.263239 -6.525647 0.801900
0.032742 -0.815216 -0.100177
0.249422 -6.237206 0.988666
0.026157 -0.656968 -0.057523
0.300076 -7.536852 1.466176
0.025789 -0.650596 -0.034123
0.360951 -9.146112 2.113190
0.025829 -0.657393 -0.011484
0.354054 -9.051531 2.427205
0.028565 -0.757346 0.013229
0.342995 -9.178989 0.481386
0.339036 -9.158719 0.801833
0.025674 -0.696835 -0.110443
0.249593 -6.774494 0.832368
0.031933 -0.870870 -0.107001
0.255384 -6.998052 1.109120
0.032107 -0.884038 -0.077394
0.023620 -0.656674 -0.034437
0.327078 -9.137638 2.110941
0.024393 -0.681460 -0.011903
0.322387 -9.050780 2.426687
0.022387 -0.657519 0.011484
0.309736 -9.144200 0.479502
0.307598 -9.175776 0.803227
0.023504 -0.704818 -0.111694
0.218509 -6.586883 0.809213
0.028893 -0.870976 -0.107001
0.242160 -7.338481 1.162934
0.026407 -0.804492 -0.070422
0.297837 -9.122309 1.774142
0.020615 -0.634794 -0.033286
0.218280 -6.721559 1.552612
0.021884 -0.677543 -0.011833
0.290792 -9.051850 2.426687
0.014977 -0.484663 -0.129927
0.021803 -0.709557 0.012391
0.279106 -9.135195 0.478979
0.022255 -0.736848 0.064495
0.022353 -0.744382 -0.117952
0.201878 -6.762182 0.830662
0.026656 -0.892894 -0.109682
0.210558 -7.094405 1.124138
0.027382 -0.928050 -0.081229
0.267872 -9.133059 1.776050
0.018975 -0.650830 -0.034123
0.265899 -9.120126 2.106442
0.026531 -0.915476 -0.015986
0.260606 -9.046973 2.425135
0.020765 -0.757600 0.013229
0.246838 -9.122138 0.478246
0.018527 -0.689118 0.060312
0.019884 -0.744452 -0.117952
0.242219 -9.128212 1.121198
0.024481 -0.928701 -0.114070
0.176795 -6.751499 1.069699
0.024878 -0.950044 -0.083147
0.237483 -9.129972 1.775287
0.016559 -0.640906 -0.033600
0.233664 -9.105413 2.102843
0.024099 -0.945549 -0.016510
0.228830 -9.040103 2.423064
0.025961 -1.085524 0.018953
0.016587 -0.709097 0.062055
0.016414 -0.706994 -0.112007
0.169884 -7.372661 0.905489
0.021512 -0.940688 -0.115532
0.206916 -9.117968 1.444516
0.020160 -0.888377 -0.077743
0.204948 -9.101303 1.769563
0.014322 -0.640960 -0.033600
0.201878 -9.106174 2.102843
0.014555 -0.661739 -0.011553
0.197229 -9.038915 2.422546
0.023315 -1.141588 0.019931
0.014667 -0.737038 0.064495
0.014648 -0.742597 -0.117639
0.143993 -7.365271 0.904514
0.017036 -0.879231 -0.107976
0.125447 -6.533342 1.034971
0.017059 -0.888442 -0.077743
0.128063 -6.730781 1.308568
0.011745 -0.623034 -0.032658
0.169908 -9.097081 2.100593
0.012726 -0.687778 -0.012007
0.165536 -9.031822 2.420476
0.015471 -0.913730 0.015951
0.011898 -0.725132 0.063449
0.011863 -0.730793 -0.115762
0.146490 -9.122309 1.120223
0.014156 -0.891194 -0.109439
0.107822 -6.863587 1.087220
0.014677 -0.934315 -0.081752
0.141374 -9.100550 1.769181
0.009632 -0.627065 -0.032867
0.138123 -9.095671 2.100143
0.010385 -0.691817 -0.012077
0.133979 -9.030413 2.419958
0.006534 -0.492579 -0.131998
0.008873 -0.677839 0.011833
0.008763 -0.697281 0.061009
0.009155 -0.738734 -0.117013
0.111389 -9.116850 1.119492
0.010662 -0.885287 -0.108707
0.107958 -9.095969 1.440762
0.010853 -0.914442 -0.080009
0.106361 -9.095137 1.768036
0.007316 -0.635086 -0.033286
0.075408 -6.646725 1.534616
0.007483 -0.669856 -0.011693
0.099347 -9.034723 2.420993
0.004890 -0.500326 -0.134068
0.006469 -0.673866 0.011763
0.007261 -0.784889 0.041136
0.006437 -0.709261 0.062055
0.006541 -0.734811 -0.116387
0.007470 -0.873409 -0.107245
0.076240 -9.100242 1.441387
0.006777 -0.808882 -0.070770
0.074693 -9.105268 1.769944
0.005179 -0.645094 -0.033809
0.052253 -6.652794 1.535966
0.004991 -0.649882 -0.011344
0.067678 -9.017631 2.416335
0.003047 -0.484885 -0.129927
0.004092 -0.669885 0.011693
0.004061 -0.705021 0.036949
0.003872 -0.693341 0.060660
0.004019 -0.742731 -0.117639
0.039673 -7.576993 0.930351
0.004501 -0.889310 -0.109195
0.044483 -9.102427 1.441700
0.004148 -0.848748 -0.074257
0.042835 -9.089767 1.766891
0.002900 -0.639116 -0.033495
0.039607 -9.077145 2.095644
0.002773 -0.661893 -0.011553
0.026080 -6.496765 1.740817
0.001701 -0.649899 0.011344
0.001636 -0.721009 0.037787
0.001427 -0.681396 0.059615
0.001449 -0.754593 -0.119516
0.015868 -9.091709 1.116323
0.001394 -0.887335 -0.108951
0.009375 -6.714300 1.063442
0.000965 -0.691359 -0.060486
0.011101 -9.085935 1.766128
0.000651 -0.621147 -0.032553
0.007911 -9.065537 2.092945
0.000472 -0.675897 -0.011798
0.004722 -9.019814 2.416852
-0.000344 -0.492622 -0.131998
-0.000581 -0.665898 0.011623
-0.000900 -0.736988 0.038624
-0.000968 -0.693351 0.060660
-0.001185 -0.754593 -0.119516
-0.015874 -9.095679 1.116811
-0.001677 -0.873439 -0.107245
-0.019059 -9.100541 1.441387
-0.001853 -0.884619 -0.077394
-0.020579 -9.070212 1.763075
-0.001528 -0.625140 -0.032762
-0.023698 -9.051868 2.089795
-0.001876 -0.671895 -0.011728
-0.019288 -6.500653 1.741852
-0.002209 -0.527391 -0.141315
-0.002940 -0.673891 0.011763
-0.003379 -0.717008 0.037577
-0.003271 -0.669435 0.058569
-0.003819 -0.754584 -0.119516
-0.039434 -7.531337 0.924745
-0.004758 -0.879383 -0.107976
-0.050683 -9.074739 1.437320
-0.004562 -0.816867 -0.071468
-0.052296 -9.079901 1.764983
-0.003781 -0.637114 -0.033390
-0.055200 -9.036139 2.086196
-0.004083 -0.649888 -0.011344
-0.058234 -9.017696 2.416335
-0.003783 -0.492608 -0.131998
-0.005324 -0.677876 0.011833
-0.005500 -0.685038 0.035902
-0.005775 -0.689343 0.060312
-0.006487 -0.758517 -0.120142
-0.065914 -7.552989 0.927426
-0.007414 -0.849587 -0.104320
-0.080828 -9.080447 1.438259
-0.006636 -0.731177 -0.063972
-0.084009 -9.081626 1.765365
-0.006061 -0.643089 -0.033704
-0.085238 -9.043702 2.087996
-0.006200 -0.645872 -0.011274
-0.064215 -6.569914 1.760487
-0.005459 -0.496456 -0.133033
-0.007259 -0.649861 0.011344
-0.007726 -0.681022 0.035693
-0.007642 -0.653459 0.057174
-0.008909 -0.750590 -0.118890
-0.109438 -9.087093 1.115836
-0.011331 -0.940866 -0.115532
-0.110963 -9.082105 1.438571
-0.010838 -0.874592 -0.076523
-0.114026 -9.073445 1.763838
-0.008092 -0.635077 -0.033286
-0.115176 -9.039472 2.087096
-0.008394 -0.649847 -0.011344
-0.117787 -8.997794 2.411158
-0.007216 -0.504162 -0.135104
-0.009298 -0.641835 0.011204
-0.010103 -0.680990 0.035693
-0.009868 -0.657414 0.057523
-0.011458 -0.754507 -0.119516
-0.139298 -9.068817 1.113642
-0.014800 -0.952729 -0.116995
-0.142511 -9.071787 1.437007
-0.014524 -0.914391 -0.080009
-0.145729 -9.074955 1.764220
-0.010114 -0.623063 -0.032658
-0.146604 -9.031220 2.085296
-0.010957 -0.667808 -0.011658
-0.149067 -8.989602 2.409088
-0.009133 -0.507995 -0.136139
-0.011905 -0.655792 0.011449
-0.012304 -0.664973 0.034856
-0.012873 -0.689247 0.060312
-0.014446 -0.766310 -0.121393
-0.172536 -9.068246 1.113642
-0.016501 -0.859387 -0.105539
-0.175913 -9.079103 1.438259
-0.018031 -0.922300 -0.080706
-0.178408 -9.044917 1.758496
-0.012398 -0.623021 -0.032658
-0.179549 -9.022829 2.083497
-0.013164 -0.655768 -0.011449
-0.181974 -8.987064 2.408570
-0.010661 -0.492507 -0.131998
-0.014265 -0.653745 0.011414
-0.014493 -0.658936 0.034542
-0.015177 -0.679235 0.059440
-0.016899 -0.750453 -0.118890
-0.205680 -9.063583 1.113155
-0.020537 -0.904969 -0.111145
-0.164114 -7.176643 1.136966
-0.020608 -0.894346 -0.078266
-0.210345 -9.059941 1.761549
-0.014666 -0.626968 -0.032867
-0.210541 -9.000718 2.078548
-0.014793 -0.627730 -0.010960
-0.213345 -8.986374 2.408570
-0.016282 -0.647697 0.011309
-0.017032 -0.672861 0.035274
-0.016765 -0.653289 0.057174
-0.018877 -0.730646 -0.115762
-0.023744 -0.912834 -0.112120
-0.182534 -6.970691 1.104427
-0.024151 -0.916181 -0.080183
-0.240544 -9.065082 1.762694
-0.017065 -0.638895 -0.033495
-0.240336 -8.998022 2.078098
-0.016875 -0.627678 -0.010960
-0.242830 -8.974030 2.405464
-0.014364 -0.507874 -0.136139
-0.018088 -0.635646 0.011100
-0.019323 -0.670801 0.035170
-0.019046 -0.657213 0.057523
-0.021300 -0.730579 -0.115762
-0.217485 -7.415101 0.910852
-0.027164 -0.920682 -0.113095
-0.204110 -6.877210 1.089723
-0.020631 -0.691051 -0.060486
-0.270252 -9.052460 1.760404
-0.019004 -0.632846 -0.033181
-0.271743 -8.997128 2.078098
-0.019491 -0.641606 -0.011204
-0.273741 -8.959611 2.401841
-0.015608 -0.488509 -0.130962
-0.020818 -0.651568 0.011379
-0.021987 -0.680710 0.035693
-0.022170 -0.679043 0.059440
-0.023978 -0.730496 -0.115762
-0.297549 -9.065005 1.113642
-0.030116 -0.912646 -0.112120
-0.241673 -7.285133 1.154486
-0.023176 -0.694958 -0.060835
-0.303231 -9.045522 1.759259
-0.021188 -0.628780 -0.032972
-0.304717 -8.996072 2.078098
-0.022272 -0.657523 -0.011484
-0.305210 -8.964393 2.403394
-0.017176 -0.484590 -0.129927
-0.023135 -0.649489 0.011344
-0.024291 -0.678633 0.035588
-0.024540 -0.678962 0.059440
-0.027388 -0.754097 -0.119516
-0.330555 -9.057901 1.112911
-0.032224 -0.878805 -0.107976
-0.252479 -6.885487 1.091287
-0.024061 -0.653061 -0.057174
-0.334514 -9.036561 1.757733
-0.023235 -0.624710 -0.032762
-0.246903 -6.607464 1.526518
-0.024119 -0.645451 -0.011274
-0.336501 -8.963273 2.403394
-0.025600 -0.657402 0.011484
-0.025798 -0.656592 0.034437
-0.026516 -0.668918 0.058569
-0.028480 -0.718473 -0.113884
-0.284382 -7.142658 0.877703
-0.034821 -0.870760 -0.107001
-0.362922 -9.035990 1.432314
-0.026661 -0.660936 -0.057871
-0.364874 -9.045209 1.759641
-0.025549 -0.630617 -0.033076
-0.365468 -8.982107 2.075398
-0.025474 -0.623385 -0.010890
-0.368103 -8.969765 2.405464
-0.027470 -0.647319 0.011309
-0.027635 -0.648521 0.034018
-0.028221 -0.656883 0.057523
-0.030818 -0.714422 -0.113259
-0.393490 -9.085191 1.116567
-0.037515 -0.862700 -0.106026
-0.392885 -9.034737 1.432314
-0.028419 -0.650891 -0.057000
-0.396187 -9.037997 1.758496
-0.027838 -0.632519 -0.033181
-0.396735 -8.978829 2.074948
-0.027276 -0.617304 -0.010786
-0.397418 -8.958845 2.402876
-0.029342 -0.641231 0.011204
-0.030634 -0.664381 0.034856
-0.031068 -0.668722 0.058569
-0.034287 -0.737995 -0.117013
-0.423801 -9.087802 1.117054
-0.040190 -0.858605 -0.105539
-0.285171 -6.069564 0.962385
-0.030503 -0.646808 -0.056651
-0.323132 -6.851996 1.333373
-0.029935 -0.632423 -0.033181
-0.426230 -8.971624 2.073599
-0.029811 -0.625194 -0.010925
-0.428503 -8.953544 2.401841
-0.030892 -0.627144 0.010960
-0.033349 -0.672250 0.035274
-0.032196 -0.646726 0.056651
-0.036074 -0.722087 -0.114510
-0.331377 -6.609997 0.812625
-0.043586 -0.866390 -0.106514
-0.456547 -9.043611 1.434191
-0.032949 -0.652673 -0.057174
-0.457201 -9.025288 1.756588
-0.031940 -0.628325 -0.032972
-0.456849 -8.956458 2.070450
-0.033323 -0.651049 -0.011379
-0.459655 -8.950066 2.401323
-0.033818 -0.641011 0.011204
-0.036543 -0.688085 0.036112
-0.035301 -0.662526 0.058046
-0.039649 -0.741683 -0.117639
-0.484896 -9.041013 1.111692
-0.045330 -0.842446 -0.103589
-0.487686 -9.034073 1.432940
-0.035334 -0.654543 -0.057348
-0.488703 -9.023637 1.756588
-0.033808 -0.622227 -0.032658
-0.488215 -8.956755 2.070899
-0.035813 -0.654922 -0.011449
-0.490788 -8.946476 2.400805
-0.036730 -0.652868 0.011414
-0.038493 -0.679977 0.035693
-0.037501 -0.660409 0.057871
-0.041114 -0.721818 -0.114510
-0.515772 -9.027374 1.110230
-0.046908 -0.818500 -0.100664
-0.520126 -9.048092 1.435443
-0.037504 -0.650431 -0.057000
-0.522226 -9.029624 1.758114
-0.036782 -0.634062 -0.033286
-0.519140 -8.949161 2.069550
-0.036821 -0.632833 -0.011065
-0.522014 -8.944708 2.400805
-0.038404 -0.640752 0.011204
-0.041706 -0.691793 0.036321
-0.038719 -0.640380 0.056128
-0.045672 -0.753210 -0.119516
-0.417998 -6.873588 0.845530
-0.049424 -0.810397 -0.099689
-0.372153 -6.084643 0.965514
-0.041595 -0.678130 -0.059440
-0.554955 -9.021771 1.756969
-0.038368 -0.621963 -0.032658
-0.551937 -8.947198 2.069550
-0.038523 -0.622715 -0.010890
-0.553956 -8.929238 2.397182
-0.040499 -0.636616 0.011135
-0.045261 -0.707581 0.037159
-0.040683 -0.634269 0.055605
-0.045897 -0.713612 -0.113259
-0.438077 -6.792770 0.835780
-0.051113 -0.790401 -0.097252
-0.585925 -9.036151 1.434191
-0.041753 -0.642186 -0.056303
-0.587124 -9.005963 1.754298
-0.041689 -0.637762 -0.033495
-0.584598 -8.943170 2.069100
-0.041198 -0.628555 -0.010995
-0.587187 -8.934859 2.399253
-0.042832 -0.636463 0.011135
-0.047315 -0.699439 0.036740
-0.044760 -0.659957 0.057871
-0.047708 -0.701614 -0.111381
-0.615001 -9.021157 1.110230
-0.055092 -0.806052 -0.099202
-0.618095 -9.020147 1.432001
-0.044516 -0.647992 -0.056826
-0.620399 -9.007668 1.755061
-0.042926 -0.621665 -0.032658
-0.617910 -8.948743 2.070899
-0.045158 -0.652339 -0.011414
-0.619932 -8.932647 2.399253
-0.045365 -0.642302 0.011239
-0.048503 -0.683341 0.035902
-0.048928 -0.687628 0.060312
-0.050878 -0.713274 -0.113259
-0.644912 -9.019069 1.110230
-0.055778 -0.778145 -0.095789
-0.650411 -9.051543 1.437320
-0.046838 -0.651823 -0.057174
-0.648552 -9.003716 1.754680
-0.045166 -0.625511 -0.032867
-0.647019 -8.938870 2.069100
-0.048479 -0.668141 -0.011693
-0.650110 -8.938250 2.401323
-0.048494 -0.654105 0.011449
-0.054449 -0.730969 0.038415
-0.050734 -0.679506 0.059615
-0.053957 -0.720972 -0.114510
-0.676243 -9.014782 1.109986
-0.058494 -0.777945 -0.095789
-0.679033 -9.009822 1.431063
-0.048663 -0.645695 -0.056651
-0.680422 -9.007271 1.755824
-0.047651 -0.629332 -0.033076
-0.677774 -8.930728 2.067750
-0.047323 -0.622108 -0.010890
-0.680426 -8.924368 2.398217
-0.051860 -0.667888 0.011693
-0.056252 -0.722819 0.037996
-0.052174 -0.667407 0.058569
-0.056782 -0.724718 -0.115136
-0.708327 -9.020283 1.110961
-0.060452 -0.769831 -0.094814
-0.710147 -9.023275 1.433566
-0.050604 -0.641549 -0.056303
-0.711704 -9.002883 1.755443
-0.050163 -0.633144 -0.033286
-0.708156 -8.938145 2.070000
-0.050177 -0.631914 -0.011065
-0.710015 -8.922063 2.398217
-0.052461 -0.647780 0.011344
-0.054448 -0.670870 0.035274
-0.055682 -0.683116 0.059963
-0.057898 -0.708775 -0.112633
-0.738236 -9.017884 1.110961
-0.063652 -0.777540 -0.095789
-0.738126 -8.997245 1.429811
-0.052731 -0.641378 -0.056303
-0.740426 -8.986778 1.752772
-0.052262 -0.632975 -0.033286
-0.738273 -8.941574 2.071349
-0.052107 -0.629752 -0.011030
-0.739120 -8.913882 2.396664
-0.053600 -0.635647 0.011135
-0.061508 -0.726400 0.038205
-0.056937 -0.671017 0.058917
-0.060248 -0.708579 -0.112633
-0.766956 -9.001540 1.109255
-0.066028 -0.773358 -0.095302
-0.771213 -9.014296 1.432940
-0.056671 -0.661041 -0.058046
-0.770224 -8.984273 1.752772
-0.054019 -0.628818 -0.033076
-0.769648 -8.940884 2.071799
-0.056711 -0.657458 -0.011519
-0.771394 -8.924722 2.400288
-0.057568 -0.655376 0.011484
-0.057727 -0.654558 0.034437
-0.060098 -0.678742 0.059615
-0.062670 -0.706386 -0.112320
-0.797145 -8.984968 1.107549
-0.067321 -0.757304 -0.093352
-0.800570 -8.987938 1.429186
-0.058093 -0.650917 -0.057174
-0.804547 -8.997033 1.755824
-0.056324 -0.628616 -0.033076
-0.801890 -8.932179 2.070450
-0.060078 -0.669206 -0.011728
-0.802371 -8.920050 2.399770
-0.060699 -0.663126 0.011623
-0.071822 -0.781630 0.041136
-0.061737 -0.670592 0.058917
-0.064047 -0.694360 -0.110443
-0.831898 -9.001752 1.109986
-0.070096 -0.757052 -0.093352
-0.832960 -8.979042 1.428247
-0.060917 -0.656662 -0.057697
-0.834857 -8.982441 1.753535
-0.059258 -0.636370 -0.033495
-0.832521 -8.923506 2.069100
-0.059739 -0.639116 -0.011204
-0.835599 -8.922820 2.401323
-0.065284 -0.686799 0.012042
-0.064836 -0.678306 0.059615
-0.069107 -0.721662 -0.114823
-0.605685 -6.313383 0.778745
-0.073498 -0.764707 -0.094327
-0.659631 -6.850529 1.090035
-0.062445 -0.648512 -0.057000
-0.866394 -8.981425 1.753916
-0.061479 -0.636159 -0.033495
-0.863289 -8.916666 2.068200
-0.063707 -0.656817 -0.011519
-0.866179 -8.914080 2.399770
-0.065720 -0.666667 0.011693
-0.066024 -0.666179 0.058569
-0.066941 -0.674239 -0.107314
-0.631256 -6.346786 0.783132
-0.076167 -0.764446 -0.094327
-0.895821 -8.990855 1.431063
-0.065104 -0.652255 -0.057348
-0.896764 -8.968578 1.752008
-0.062903 -0.627991 -0.033076
-0.894798 -8.917476 2.069100
-0.067282 -0.670530 -0.011763
-0.895349 -8.907314 2.398735
-0.069147 -0.678381 0.011903
-0.072824 -0.709548 0.062404
-0.072404 -0.705454 -0.112320
-0.923938 -8.986785 1.109255
-0.077481 -0.752341 -0.092864
-0.926998 -8.985709 1.430750
-0.067790 -0.655988 -0.057697
-0.924684 -8.947981 1.748574
-0.064574 -0.623806 -0.032867
-0.924365 -8.914459 2.069100
-0.068796 -0.662335 -0.011623
-0.927034 -8.909899 2.400288
-0.074870 -0.709955 0.012461
-0.964411 -9.114542 0.480339
-0.075177 -0.709303 0.062404
-0.076117 -0.716983 -0.114197
-0.954883 -8.979558 1.108767
-0.079266 -0.744170 -0.091889
-0.956891 -8.968668 1.428560
-0.069867 -0.653766 -0.057523
-0.958207 -8.966172 1.752772
-0.067602 -0.631520 -0.033286
-0.954645 -8.903428 2.067300
-0.071748 -0.668056 -0.011728
-0.957925 -8.904688 2.399770
-0.984719 -9.035112 0.158642
-0.984931 -9.007878 0.474897
-0.077776 -0.709022 0.062404
-0.074430 -0.677428 -0.107940
-0.986221 -8.976170 1.108767
-0.081429 -0.739943 -0.091402
-0.987975 -8.963310 1.428247
-0.072149 -0.653518 -0.057523
-0.992358 -8.974308 1.755061
-0.070575 -0.637224 -0.033600
-0.987271 -8.899869 2.067300
-0.071655 -0.645939 -0.011344
-0.990281 -8.912809 2.402876
-1.020066 -9.051314 0.158991
-1.016594 -8.992299 0.474268
-0.076664 -0.677071 0.059615
-0.079910 -0.704644 -0.112320
-1.021129 -8.990246 1.110961
-0.085935 -0.755418 -0.093352
-1.022610 -8.975331 1.430750
-0.074430 -0.653262 -0.057523
-1.023232 -8.966887 1.754298
-0.072346 -0.633005 -0.033390
-1.019218 -8.904114 2.069100
-0.071972 -0.627792 -0.011030
-1.022281 -8.903364 2.401323
-1.057196 -9.095370 0.159829
-1.054917 -9.048211 0.477409
-0.078102 -0.668883 0.058917
-0.075027 -0.641576 -0.102308
-1.058279 -9.035917 1.117054
-0.086259 -0.735398 -0.090915
-1.054854 -8.979554 1.432001
-0.076012 -0.647062 -0.057000
-1.054527 -8.963262 1.754298
-0.074789 -0.634732 -0.033495
-1.049836 -8.896631 2.068200
-0.078153 -0.661296 -0.011623
-1.052672 -8.893985 2.399770
-1.087749 -9.081697 0.159655
-1.089196 -9.080357 0.479293
-1.095652 -9.107291 0.802530
-0.073958 -0.613854 -0.097928
-1.096471 -9.087350 1.123879
-0.089302 -0.739034 -0.091402
-1.097186 -9.079945 1.448583
-0.078749 -0.650749 -0.057348
-1.095728 -9.041383 1.770326
-0.075800 -0.624554 -0.032972
-1.083942 -8.918060 2.074049
-0.076967 -0.633243 -0.011135
-1.082393 -8.892364 2.400288
-1.120153 -9.070554 0.478979
-1.126947 -9.099458 0.802181
-0.082306 -0.664575 -0.106063
-1.126356 -9.081695 1.123635
-0.090284 -0.726914 -0.089940
-1.128386 -9.072140 1.447958
-0.080774 -0.648493 -0.057174
-1.128131 -9.057181 1.774142
-0.078366 -0.628263 -0.033181
-1.110369 -8.889278 2.068200
-1.136527 -9.085798 -0.159829
-1.113187 -8.886613 2.399770
-1.152055 -9.093921 0.160004
-1.153066 -9.076496 0.479502
-1.158624 -9.107529 0.803227
-0.081131 -0.636851 -0.101682
-1.156793 -9.067861 1.122417
-0.093324 -0.730532 -0.090427
-1.161050 -9.075983 1.449209
-0.085452 -0.667984 -0.058917
-1.161735 -9.068768 1.777195
-0.082337 -0.641852 -0.033914
-1.141640 -8.887280 2.068650
-1.169256 -9.089709 -0.159969
-1.145187 -8.890338 2.401841
-1.182758 -9.081913 0.159864
-1.185518 -9.078356 0.479816
-1.187308 -9.079722 0.801136
-0.081814 -0.624811 -0.099805
-1.192054 -9.091324 1.125829
-0.096390 -0.734139 -0.090915
-0.898663 -6.835243 1.091913
-0.084667 -0.643977 -0.056826
-1.195435 -9.080230 1.780248
-0.084316 -0.639581 -0.033809
-1.171891 -8.877446 2.067300
-1.203075 -9.101432 -0.160248
-1.175707 -8.882456 2.400805
-1.214187 -9.075747 0.159829
-1.217200 -9.074162 0.479816
-1.218464 -9.071574 0.800787
-0.081362 -0.604945 -0.096677
-1.225900 -9.102846 1.127779
-0.097891 -0.725928 -0.089940
-1.227555 -9.091147 1.452963
-0.085315 -0.631831 -0.055780
-1.234488 -9.130477 1.790933
-0.089763 -0.663033 -0.035065
-1.206275 -8.898406 2.073149
-1.238602 -9.124918 -0.160737
-1.206445 -8.876384 2.400288
-0.067992 -0.495708 -0.134068
-1.245045 -9.065511 0.159724
-1.249956 -9.077774 0.480235
-1.254477 -9.098844 0.803576
-0.087255 -0.632052 -0.101057
-1.254405 -9.074915 1.124854
-0.098792 -0.713784 -0.088477
-1.260909 -9.098547 1.454841
-0.089708 -0.647317 -0.057174
-1.262576 -9.098886 1.785591
-0.098124 -0.706237 -0.037368
-1.235985 -8.884489 2.070899
-1.263826 -9.073006 -0.159899
-1.237955 -8.875946 2.401323
-0.068645 -0.487816 -0.131998
-1.278913 -9.076949 0.160004
-1.278379 -9.061712 0.479607
-1.284555 -9.082574 0.802530
-0.086691 -0.612185 -0.097928
-1.285518 -9.066550 1.124367
-0.099051 -0.697712 -0.086527
-1.293850 -9.113873 1.457969
-0.091967 -0.647000 -0.057174
-1.296541 -9.109974 1.788644
-0.099462 -0.697981 -0.036949
-1.265339 -8.868546 2.068200
-1.294188 -9.070745 -0.159934
-1.268475 -8.879441 2.403394
-0.071451 -0.495222 -0.134068
-1.309006 -9.072659 0.160004
-1.310860 -9.063124 0.479921
-1.316252 -9.078033 0.802530
-0.089287 -0.615804 -0.098554
-1.315576 -9.062238 1.124367
-0.100793 -0.693451 -0.086040
-1.322812 -9.089753 1.454841
-0.093937 -0.644704 -0.057000
-1.329575 -9.125051 1.792460
-0.094280 -0.646263 -0.034228
-1.295023 -8.866229 2.068650
-1.322950 -9.046385 -0.159585
-1.299181 -8.873047 2.402876
-1.342129 -9.077925 0.160178
-1.340615 -9.056751 0.479816
-1.345763 -9.069678 0.802181
-0.086211 -0.580318 -0.092922
-1.350706 -9.081151 1.127291
-0.098535 -0.661680 -0.082140
-1.355275 -9.100947 1.457344
-0.095193 -0.638477 -0.056477
-1.356781 -9.089287 1.786354
-0.103030 -0.689387 -0.036530
-1.326829 -8.867437 2.070000
-1.354124 -9.049860 -0.159724
-1.327454 -8.861048 2.400805
-1.368937 -9.051675 0.159794
-0.079646 -0.526011 -0.122823
-1.373717 -9.061892 0.480339
-1.378014 -9.068864 0.802530
-0.089322 -0.587841 -0.094174
-1.377828 -9.056997 1.124854
-0.103717 -0.680974 -0.084577
-1.390012 -9.115689 1.460472
-0.097722 -0.640110 -0.056651
-1.387507 -9.088618 1.787117
-0.105315 -0.689042 -0.036530
-1.356227 -8.862988 2.070000
-1.387221 -9.054960 -0.159899
-1.358378 -8.856359 2.400805
-1.402716 -9.050550 0.159864
-1.407228 -9.058768 0.480444
-1.412110 -9.079748 0.803925
-0.093300 -0.599221 -0.096051
-1.413460 -9.067577 1.126804
-0.105600 -0.676666 -0.084090
-1.417925 -9.075403 1.454841
-0.099341 -0.635828 -0.056303
-1.423844 -9.102870 1.790933
-0.105059 -0.670892 -0.035588
-1.389608 -8.863733 2.071349
-1.421019 -9.053765 -0.159969
-1.392029 -8.858956 2.402876
-1.435238 -9.051522 0.159969
-1.436646 -9.039993 0.479711
-1.443797 -9.074763 0.803925
-0.096012 -0.602793 -0.096677
-1.442602 -9.046906 1.124854
-0.106084 -0.664532 -0.082627
-1.460194 -9.136719 1.465478
-0.105647 -0.661054 -0.058569
-1.457470 -9.109476 1.793223
-0.106452 -0.664605 -0.035274
-1.418998 -8.849208 2.069100
-1.453248 -9.052700 -0.160039
-1.423863 -8.859766 2.404429
-0.078761 -0.486285 -0.131998
-1.467787 -9.052380 0.160073
-1.469475 -9.042809 0.480130
-1.476104 -9.073603 0.804273
-0.100021 -0.614152 -0.098554
-1.478006 -9.065326 1.127779
-0.110322 -0.675913 -0.084090
-1.482522 -9.073082 1.456092
-0.108275 -0.662648 -0.058743
-1.484190 -9.073332 1.787117
-0.111354 -0.679997 -0.036112
-1.449247 -8.840355 2.068200
-1.486135 -9.055464 -0.160178
-1.453527 -8.847116 2.402359
-1.498395 -9.041282 0.159969
-1.501686 -9.041566 0.480339
-1.504499 -9.048740 0.802530
-0.102164 -0.613799 -0.098554
-1.514209 -9.087524 1.131191
-0.112680 -0.675524 -0.084090
-1.518739 -9.095128 1.460472
-0.110259 -0.660300 -0.058569
-1.520383 -9.095205 1.792460
-0.114386 -0.683544 -0.036321
-1.480741 -8.839087 2.069100
-1.518396 -9.054166 -0.160248
-1.483762 -8.838179 2.401323
-1.529947 -9.035996 0.159969
-0.085648 -0.505312 -0.118324
-1.533237 -9.036268 0.480339
-1.536077 -9.043433 0.802530
-0.104306 -0.613439 -0.098554
-1.541923 -9.058701 1.128266
-0.115705 -0.679040 -0.084577
-1.547156 -9.070298 1.457344
-0.114574 -0.671696 -0.059615
-1.547495 -9.062750 1.787117
-0.121819 -0.712671 -0.037891
-1.513230 -8.843468 2.071349
-1.549993 -9.048811 -0.160248
-1.513950 -8.829137 2.400288
-0.083191 -0.481627 -0.130962
-1.561479 -9.030602 0.159969
-1.565793 -9.036765 0.480653
-1.566954 -9.034091 0.802181
-0.095633 -0.550791 -0.088542
-1.569456 -9.029794 1.125342
-0.117394 -0.674720 -0.084090
-1.580163 -9.072627 1.458595
-0.115208 -0.661477 -0.058743
-1.575750 -9.037951 1.783301
-0.113661 -0.651249 -0.034646
-1.544761 -8.841971 2.072249
-1.587770 -9.078801 -0.160876
-1.544427 -8.821895 2.399770
-1.595424 -9.038880 0.160213
-1.595937 -9.023378 0.480235
-1.601258 -9.044261 0.803576
