# This PCD file was generated using the MATLAB® pcwrite function
# from Computer Vision Toolbox®.
# .PCD v.7 - Point Cloud Data file format
VERSION .7
FIELDS x y z
SIZE 4 4 4
TYPE F F F
COUNT 1 1 1
WIDTH 1674
HEIGHT 1
VIEWPOINT 0 0 0 1 0 0 0
POINTS 1674
DATA ascii
8.522184 4.725872 -1.196513
48.588207 26.932873 8.798814
9.981517 5.532843 -0.998456
14.056061 7.784995 -0.842086
4.699246 2.591983 -1.437999
5.333467 2.939379 -1.405944
6.121730 3.372409 -1.358560
48.748985 26.844316 4.868868
7.152310 3.936898 -1.293087
8.517757 4.684613 -1.193588
48.580322 26.718302 8.781293
9.990290 5.492215 -0.997410
14.058644 7.722416 -0.840620
4.718436 2.581126 -1.441105
5.339767 2.919805 -1.405044
6.119682 3.343488 -1.355507
48.765450 26.631979 4.861198
7.168794 3.915050 -1.293713
8.554157 4.667749 -1.196513
48.496399 26.452091 8.749381
10.009402 5.457306 -0.997410
14.066639 7.666192 -0.839573
4.713384 2.558096 -1.436963
28.363995 15.387589 0.563259
5.360205 2.906720 -1.407744
6.144542 3.330665 -1.358560
48.671303 26.371418 4.843070
7.178944 3.888119 -1.293087
8.577378 4.641646 -1.197488
48.451809 26.219685 8.725603
10.006416 5.412706 -0.995319
14.075740 7.607558 -0.838527
4.718883 2.539795 -1.435928
5.352653 2.879698 -1.403245
6.152672 3.307335 -1.357797
48.647232 26.139109 4.831565
7.176135 3.855878 -1.290272
8.550750 4.590640 -1.191639
48.452538 26.001812 8.709333
10.025249 5.377746 -0.995319
14.065687 7.541959 -0.836433
4.730687 2.525954 -1.436963
5.345478 2.851824 -1.398746
6.153212 3.281372 -1.355507
48.645744 25.930773 4.822850
7.206985 3.840096 -1.293400
8.573731 4.564493 -1.192613
48.434879 25.774996 8.689936
10.058031 5.350207 -0.996713
14.049607 7.470307 -0.833921
4.741622 2.509500 -1.437481
5.358846 2.834969 -1.399645
6.168669 3.260631 -1.356270
48.599525 25.677853 4.808905
7.210531 3.808118 -1.291523
8.593123 4.536393 -1.193101
48.402271 25.541225 8.668035
10.055499 5.303908 -0.994621
14.052155 7.405729 -0.832456
4.746931 2.491139 -1.436446
5.376103 2.818930 -1.401445
6.162624 3.229966 -1.352454
48.547680 25.434071 4.794960
7.223779 3.782927 -1.291523
8.606174 4.503024 -1.192613
48.370369 25.308910 8.646447
10.075716 5.269701 -0.994796
14.060220 7.347379 -0.831409
4.738460 2.465638 -1.431269
5.375050 2.795689 -1.398746
6.173861 3.208436 -1.352454
48.636158 25.264463 4.794960
7.246803 3.764413 -1.293400
8.624583 4.476291 -1.193101
48.346188 25.081703 8.626423
10.086975 5.230826 -0.994098
14.056135 7.286010 -0.829734
4.746611 2.449909 -1.431269
5.388239 2.778697 -1.399645
6.180977 3.186144 -1.351691
48.521301 25.000843 4.775437
7.238825 3.728242 -1.289646
8.626034 4.438893 -1.191151
48.342110 24.865791 8.610154
10.100724 5.195522 -0.993750
14.067269 7.229599 -0.828897
4.762013 2.436845 -1.433340
5.390965 2.756325 -1.397846
6.206048 3.171695 -1.354744
48.491180 24.771486 4.763933
7.248275 3.701155 -1.289020
8.645015 4.410558 -1.191639
48.298374 24.630520 8.587002
10.106370 5.153903 -0.992530
14.049713 7.158687 -0.826385
4.768767 2.419334 -1.432822
5.400554 2.737489 -1.397846
6.206574 3.144687 -1.352454
48.470699 24.548067 4.753474
7.303449 3.697242 -1.296529
8.649729 4.374980 -1.190176
48.271236 24.404724 8.566978
10.122522 5.117692 -0.992355
14.046089 7.095195 -0.824710
4.773731 2.400939 -1.431787
5.396147 2.711619 -1.394247
50.446339 25.338802 2.958552
6.196458 3.112432 -1.347875
48.413654 24.307190 4.739529
7.288063 3.657548 -1.291523
8.657849 4.341199 -1.189201
48.253712 24.184727 8.548832
10.126077 5.075182 -0.990961
14.063629 7.042541 -0.824291
4.780354 2.383397 -1.431269
5.426511 2.703194 -1.399645
50.577396 25.183908 2.961064
6.210801 3.092533 -1.348638
48.373333 24.075939 4.727327
7.283099 3.623288 -1.288394
8.676507 4.312716 -1.189689
48.217537 23.956385 8.527556
10.134809 5.035375 -0.990089
14.045194 6.972089 -0.821779
4.778253 2.361561 -1.428164
5.427178 2.679920 -1.397396
6.207473 3.063884 -1.345585
48.367752 23.862850 4.718612
7.260270 3.580367 -1.282137
8.687943 4.280654 -1.189201
48.169735 23.723330 8.504404
10.150537 4.999084 -0.989915
14.037184 6.907157 -0.819895
4.796877 2.349966 -1.431269
5.424245 2.654966 -1.394247
6.239293 3.052549 -1.350165
48.339787 23.639587 4.707805
7.262073 3.549803 -1.280260
8.705660 4.253561 -1.189689
48.166485 23.523596 8.490012
10.137485 4.948770 -0.986952
14.039669 6.847606 -0.818639
4.804643 2.334047 -1.431269
5.429514 2.635261 -1.393347
6.238783 3.026701 -1.347875
48.313942 23.428722 4.697694
7.298692 3.537762 -1.284640
8.701852 4.216015 -1.187251
48.126892 23.306904 8.469363
10.153841 4.915123 -0.986952
14.037128 6.788833 -0.817174
27.774202 13.426585 -0.538477
4.808877 2.316423 -1.430234
5.448759 2.622313 -1.396046
6.248786 3.005994 -1.347875
48.315948 23.232126 4.690373
7.317503 3.516963 -1.285891
8.716516 4.185612 -1.187251
48.093975 23.084072 8.449339
10.164698 4.878836 -0.986429
14.055960 6.740522 -0.816964
47.916035 22.967806 12.267481
27.835331 13.336458 -0.538756
4.806472 2.294630 -1.427128
5.447326 2.598242 -1.393347
6.262785 2.985855 -1.348638
48.292427 23.013628 4.680263
7.297636 3.476106 -1.280260
8.731073 4.155162 -1.187251
48.077934 22.870241 8.432445
10.165472 4.835623 -0.984860
14.061364 6.682847 -0.815918
47.929020 22.768641 12.250385
4.810959 2.276187 -1.426093
5.466933 2.584210 -1.396046
6.244768 2.950557 -1.342532
48.257172 22.790449 4.669107
7.306151 3.448927 -1.279634
8.727571 4.116189 -1.184814
48.021671 22.638271 8.408667
10.176882 4.797564 -0.984337
14.077380 6.630315 -0.815499
47.884785 22.543104 12.218891
4.811880 2.256098 -1.424022
5.454744 2.555189 -1.390647
6.272809 2.937065 -1.346348
48.249805 22.581333 4.660740
7.321725 3.425074 -1.280260
8.767062 4.097468 -1.188226
48.028820 22.437050 8.396152
10.202594 4.766224 -0.985209
14.071480 6.567623 -0.813824
47.910206 22.351089 12.205395
4.830237 2.244173 -1.427128
5.474236 2.541055 -1.393347
6.272337 2.910194 -1.344059
48.205437 22.355762 4.648887
7.319300 3.392848 -1.277757
8.748890 4.051822 -1.183839
47.992123 22.216141 8.376128
10.255331 4.747318 -0.988695
14.025435 6.486602 -0.809847
47.818130 22.105204 12.162204
4.841552 2.228913 -1.428164
5.486613 2.523561 -1.394247
6.271756 2.883360 -1.341769
48.138340 22.120813 4.634943
7.327508 3.365630 -1.277131
8.762979 4.021260 -1.183839
47.997551 22.015549 8.363613
10.277271 4.713985 -0.989218
14.037097 6.432615 -0.809219
47.817039 21.902454 12.142408
4.838756 2.207190 -1.425058
5.498936 2.506008 -1.395146
6.292501 2.866334 -1.344059
48.142723 21.919628 4.627970
7.360788 3.349849 -1.280886
8.784189 3.993935 -1.184814
10.271898 4.668188 -0.987126
14.037642 6.373672 -0.807963
47.786732 21.687073 12.115414
4.846432 2.190284 -1.425058
5.504096 2.485198 -1.394247
6.288154 2.837889 -1.341006
48.164467 21.726854 4.622740
7.361629 3.319268 -1.279008
8.787218 3.958354 -1.183351
10.289944 4.633128 -0.987300
14.048877 6.319713 -0.807335
47.751938 21.470621 12.087520
4.854048 2.173353 -1.425058
5.509181 2.464377 -1.393347
6.301607 2.817523 -1.341769
48.058109 21.477316 4.605309
7.337100 3.277436 -1.272751
8.819110 3.935749 -1.185789
10.320613 4.603672 -0.988695
14.052608 6.262507 -0.806288
47.766071 21.276833 12.072224
4.858072 2.154833 -1.424022
5.492807 2.434077 -1.387048
6.311401 2.795514 -1.341769
48.089069 21.290060 4.601126
7.341270 3.248605 -1.271500
8.814639 3.896911 -1.183351
10.365779 4.580500 -0.991484
14.048803 6.202120 -0.804822
47.708122 21.051739 12.038930
4.876176 2.142523 -1.427128
5.508407 2.418023 -1.388848
6.313931 2.770309 -1.340242
48.115654 21.101250 4.596594
7.367038 3.229306 -1.274002
8.813643 3.859746 -1.181401
10.440110 4.569857 -0.997062
14.070369 6.153039 -0.804822
47.690247 20.845284 12.015985
4.858826 2.114697 -1.419881
5.519969 2.401299 -1.389748
6.327163 2.749819 -1.341006
48.079365 20.885571 4.586135
7.377706 3.204859 -1.274002
8.819107 3.827343 -1.180427
10.518150 4.560330 -1.002988
14.050377 6.088877 -0.802520
47.651814 20.640556 11.988991
4.883552 2.106222 -1.425058
5.528317 2.382014 -1.389748
6.329035 2.725714 -1.339479
7.359816 3.166594 -1.268997
8.825119 3.793396 -1.179452
10.577148 4.544303 -1.007172
14.042179 6.027194 -0.800845
47.608959 20.424910 11.960197
4.894427 2.090681 -1.426093
5.533013 2.361174 -1.388848
6.352957 2.709768 -1.342532
7.418073 3.161019 -1.277131
8.860226 3.771897 -1.182377
10.677279 4.543241 -1.015190
14.052106 5.973449 -0.800217
47.597458 20.223557 11.939503
4.894578 2.070572 -1.424022
5.523273 2.334258 -1.384349
6.351527 2.682990 -1.340242
7.389023 3.118207 -1.270248
8.836754 3.725524 -1.177502
10.755499 4.532245 -1.021117
14.050780 5.915065 -0.798961
47.552807 20.008902 11.910708
4.898212 2.051982 -1.422987
5.549363 2.322488 -1.388848
6.346363 2.654743 -1.337190
7.436316 3.107627 -1.276505
8.838712 3.690068 -1.176039
10.841126 4.523827 -1.027740
14.038161 5.852146 -0.797077
47.532429 19.805302 11.888213
4.894639 2.030429 -1.419881
33.927711 14.067212 0.641097
5.553836 2.301610 -1.387948
6.351964 2.631070 -1.336426
7.425215 3.072588 -1.272751
19.376595 8.014165 2.574612
8.862545 3.663745 -1.177502
10.901044 4.504220 -1.031924
14.025271 5.789394 -0.795193
47.543621 19.615488 11.873816
4.898123 2.011864 -1.418846
5.572653 2.286649 -1.390647
6.353844 2.605903 -1.334900
7.399336 3.031674 -1.266494
8.882629 3.635792 -1.178477
10.946205 4.478208 -1.034713
14.012115 5.726803 -0.793308
47.536037 19.418447 11.854920
4.908695 1.996208 -1.419881
5.558936 2.258383 -1.385249
6.370178 2.586660 -1.336426
7.435501 3.016224 -1.270874
8.873191 3.595815 -1.175552
10.965461 4.441475 -1.035062
14.050535 5.685345 -0.794355
47.563774 19.236355 11.845022
4.912049 1.977620 -1.418846
5.555937 2.234600 -1.382549
6.375526 2.562943 -1.335663
7.431320 2.984360 -1.268371
8.907796 3.573691 -1.178477
19.808794 7.943016 3.380236
10.973502 4.400202 -1.034364
18.793840 7.532218 3.935627
14.033215 5.621413 -0.792262
47.503998 19.019493 11.813530
4.940456 1.969045 -1.425058
5.581809 2.222402 -1.387048
6.380784 2.539225 -1.334900
7.467391 2.968616 -1.272751
8.909147 3.538177 -1.177014
19.733583 7.833004 3.362715
10.988796 4.361868 -1.034364
14.011907 5.556194 -0.789959
4.918548 1.940443 -1.416776
5.604037 2.208619 -1.390647
6.382302 2.514056 -1.333373
7.466679 2.938193 -1.270874
8.921442 3.507063 -1.177014
18.698116 7.346544 3.181877
10.992828 4.319114 -1.033319
18.798452 7.382179 3.925704
14.027499 5.505786 -0.789750
19.545517 7.667679 4.847245
4.928889 1.924669 -1.417811
5.582664 2.177711 -1.383449
6.383722 2.488911 -1.331847
7.491615 2.917845 -1.273377
8.907730 3.465820 -1.173602
11.000411 4.277824 -1.032621
14.005671 5.440886 -0.787447
19.354172 7.514759 4.793257
4.935578 1.907451 -1.417811
37.198597 14.376126 0.696107
5.586220 2.157783 -1.382549
6.421678 2.477919 -1.337953
7.497564 2.891566 -1.272751
8.933994 3.441969 -1.175552
18.891478 7.274468 3.206281
11.017132 4.240123 -1.032796
14.008725 5.388671 -0.786609
48.580246 18.677404 12.015985
4.941876 1.891074 -1.417811
5.590076 2.136880 -1.381649
6.422523 2.453809 -1.336426
7.507611 2.865379 -1.272751
19.632305 7.489003 2.579974
8.942245 3.409346 -1.175064
11.019963 4.199306 -1.031750
19.680735 7.495675 4.093616
14.008785 5.332630 -0.785563
4.948446 1.873813 -1.417811
5.590211 2.114595 -1.379850
6.405339 2.421657 -1.331084
7.532351 2.844736 -1.275254
19.721476 7.444259 2.588261
8.913231 3.362697 -1.169702
11.023370 4.156592 -1.030704
19.633297 7.399231 4.078351
14.038527 5.287924 -0.786191
4.940485 1.851105 -1.413670
37.167316 13.918482 0.692756
5.601209 2.096436 -1.380750
6.410076 2.397906 -1.330320
7.538535 2.817045 -1.274628
19.948177 7.450387 2.614585
8.947230 3.339896 -1.172627
11.015411 4.109734 -1.028612
19.600140 7.308708 4.066140
14.015726 5.223547 -0.783888
4.957786 1.837876 -1.416776
19.818232 7.342794 0.368909
5.604837 2.075516 -1.379850
19.822874 7.336635 1.107743
6.418408 2.375514 -1.330320
19.721624 7.295259 1.839683
7.540911 2.787971 -1.273377
19.616554 7.248600 2.567787
8.947660 3.304520 -1.171165
19.762119 7.294549 3.336435
11.029691 4.071255 -1.028612
14.007638 5.164920 -0.782423
19.415295 7.154981 4.777061
19.749733 7.274315 -0.367373
4.978680 1.825881 -1.420917
19.772398 7.247414 0.367583
5.612048 2.055940 -1.379850
19.773340 7.239931 1.103556
6.419287 2.350397 -1.328794
7.554307 2.762990 -1.274002
19.880383 7.267322 2.598986
8.977788 3.280076 -1.173602
19.431196 7.095434 3.276364
11.025118 4.025897 -1.026869
19.894129 7.260542 4.116514
14.006820 5.109146 -0.781376
19.827612 7.224504 -0.368351
4.970496 1.803219 -1.416776
37.123047 13.460336 0.689265
5.615526 2.035011 -1.378950
6.445911 2.334659 -1.332610
7.560189 2.735261 -1.273377
19.745087 7.139825 2.578024
8.970514 3.241968 -1.171165
11.042850 3.988744 -1.027218
19.365372 6.991057 4.002028
14.013298 5.056150 -0.780748
4.973122 1.784556 -1.415740
37.090748 13.302326 0.687799
5.629933 2.018026 -1.380750
6.431842 2.304203 -1.328031
7.577132 2.711515 -1.274628
8.981775 3.210638 -1.171165
19.428173 6.940997 3.267603
11.056707 3.950169 -1.027218
19.256533 6.875887 3.974552
14.008287 4.999151 -0.779492
4.979321 1.767185 -1.415740
5.622249 1.993153 -1.377150
6.425042 2.276490 -1.324978
7.575377 2.681096 -1.272751
8.992929 3.179263 -1.171165
11.044128 3.902260 -1.024777
14.003054 4.942243 -0.778236
4.978168 1.747232 -1.413670
27.925238 9.795712 0.516556
5.636528 1.976093 -1.378950
6.436655 2.255346 -1.325741
7.554858 2.644194 -1.267745
19.234156 6.728170 2.501978
8.992726 3.143928 -1.169702
19.893875 6.951149 3.337686
11.072730 3.868940 -1.026172
13.990045 4.882812 -0.776561
4.987887 1.731112 -1.414705
27.936592 9.690303 0.516137
5.636027 1.953851 -1.377150
6.459329 2.238007 -1.328794
7.590177 2.626849 -1.272125
19.666500 6.802455 2.555113
9.007399 3.113813 -1.170189
20.067389 6.933266 3.362715
11.086169 3.830262 -1.026172
13.999454 4.831337 -0.776142
4.997554 1.714944 -1.415740
27.974031 9.594017 0.516207
5.635438 1.931643 -1.375351
6.478246 2.219262 -1.331084
7.595561 2.599064 -1.271500
19.716423 6.742752 2.558525
9.018213 3.082350 -1.170189
19.450998 6.648188 3.255714
11.091928 3.788972 -1.025474
13.985990 4.772118 -0.774468
5.007169 1.698731 -1.416776
5.649196 1.915445 -1.377150
6.459920 2.187820 -1.325741
7.585428 2.567527 -1.268371
19.419003 6.569196 2.517090
9.009583 3.046068 -1.167752
11.101312 3.748953 -1.025126
20.064400 6.775820 4.116514
14.013093 4.729541 -0.775096
5.005447 1.679660 -1.414705
5.655848 1.895713 -1.377150
6.463416 2.165140 -1.324978
7.579358 2.536017 -1.265868
19.374039 6.478712 2.508315
9.012626 3.012089 -1.166777
11.091007 3.704542 -1.023034
19.823490 6.617471 4.062324
13.999200 4.670494 -0.773421
5.003947 1.659743 -1.412634
5.666130 1.877186 -1.378050
6.478389 2.145032 -1.326504
7.573160 2.504584 -1.263365
9.026855 2.981853 -1.167265
11.107654 3.667056 -1.023383
14.026800 4.625348 -0.774049
4.998696 1.638654 -1.409528
5.654128 1.851333 -1.373551
6.493302 2.124846 -1.328031
20.057959 6.559834 1.846307
7.574346 2.475680 -1.262113
9.037209 2.950327 -1.167265
11.112809 3.625791 -1.022685
14.008677 4.565220 -0.772165
5.004385 1.621196 -1.409528
5.653140 1.829184 -1.371752
6.485734 2.097336 -1.324978
20.114861 6.500801 1.849445
7.575423 2.446795 -1.260862
9.043674 2.917542 -1.166777
11.102644 3.579639 -1.020594
14.039738 4.521187 -0.773002
5.024732 1.608431 -1.413670
5.666915 1.811815 -1.373551
6.481795 2.071100 -1.322688
7.587681 2.421540 -1.261488
9.042457 2.882337 -1.165315
19.853230 6.324529 3.300142
11.126461 3.544492 -1.021640
14.021177 4.461248 -0.771118
5.019264 1.587387 -1.410564
5.673205 1.792021 -1.373551
6.485240 2.047281 -1.321925
7.607391 2.398601 -1.263365
9.052463 2.850757 -1.165315
11.115961 3.498452 -1.019548
14.036664 4.412281 -0.771118
5.021087 1.568703 -1.409528
5.668264 1.768725 -1.370852
6.499845 2.026967 -1.323451
7.574225 2.359110 -1.256482
9.039613 2.812063 -1.162390
11.120493 3.457264 -1.018851
14.051981 4.363253 -0.771118
5.033917 1.553444 -1.411599
5.678129 1.750075 -1.371752
6.495624 2.000796 -1.321162
7.597519 2.337301 -1.258985
9.075937 2.788660 -1.165802
11.140115 3.420763 -1.019548
14.116769 4.329411 -0.773839
5.039308 1.535864 -1.411599
5.673018 1.726838 -1.369052
6.517594 1.982683 -1.324215
7.605632 2.310765 -1.258985
9.036229 2.741973 -1.159465
11.148173 3.380696 -1.019199
14.074451 4.262736 -0.770699
5.052039 1.520490 -1.413670
5.675277 1.705906 -1.368152
6.505673 1.954270 -1.320398
7.617434 2.285343 -1.259610
9.068564 2.717249 -1.162390
11.178991 3.347484 -1.020942
14.081592 4.211288 -0.770281
5.023982 1.492944 -1.404352
5.681198 1.686084 -1.368152
6.512454 1.931554 -1.320398
7.598849 2.250882 -1.255230
9.081330 2.688294 -1.162877
11.152396 3.297141 -1.017456
14.168995 4.183604 -0.774258
5.043734 1.480628 -1.408493
5.690498 1.668330 -1.369052
6.522592 1.911049 -1.321162
7.598689 2.223450 -1.253979
9.071143 2.652591 -1.160440
11.144144 3.254552 -1.015713
14.290162 4.167914 -0.780120
5.059749 1.467123 -1.411599
5.681024 1.645115 -1.365453
6.536436 1.891593 -1.322688
7.606020 2.198241 -1.253979
9.080348 2.620908 -1.160440
11.163094 3.217841 -1.016410
14.388352 4.144825 -0.784725
5.057663 1.446442 -1.409528
5.694227 1.627418 -1.367252
6.532000 1.864385 -1.320398
7.617825 2.171434 -1.254605
9.081805 2.587018 -1.159465
11.178090 3.179948 -1.016759
14.445713 4.104073 -0.787028
5.058962 1.427730 -1.408493
5.707655 1.608653 -1.369052
6.527129 1.838381 -1.318109
7.625358 2.144831 -1.254605
9.079759 2.550495 -1.158003
11.181451 3.138753 -1.016062
14.475337 4.057932 -0.787866
5.052749 1.406952 -1.405388
5.705726 1.586629 -1.367252
6.548639 1.819792 -1.321162
7.617571 2.113973 -1.252102
9.073301 2.514546 -1.156053
11.165456 3.092261 -1.013621
14.508662 4.012706 -0.788912
27.095232 7.483633 -0.490657
5.057630 1.389307 -1.405388
5.718748 1.568764 -1.369052
6.551164 1.795886 -1.320398
7.632525 2.089454 -1.253353
9.093513 2.485997 -1.157515
11.176183 3.053264 -1.013621
14.495606 3.954674 -0.787447
5.062449 1.371643 -1.405388
27.360527 7.408060 0.494776
5.709139 1.544721 -1.365453
6.553603 1.771980 -1.319635
7.635957 2.061770 -1.252727
9.109802 2.456309 -1.158490
11.171382 3.010089 -1.012227
14.466891 3.892637 -0.785144
5.070702 1.355844 -1.406423
27.462217 7.337943 0.496172
5.717996 1.526788 -1.366353
6.563237 1.751248 -1.320398
7.619847 2.030336 -1.248973
9.094877 2.419959 -1.155565
11.181302 2.973029 -1.012227
14.495164 3.848737 -0.785981
5.067931 1.336169 -1.404352
5.708215 1.502848 -1.362753
6.527539 1.717343 -1.312003
46.962627 12.346703 4.248320
7.665099 2.013762 -1.255230
9.095589 2.386184 -1.154590
11.180049 2.930947 -1.011181
14.485324 3.792050 -0.784725
5.076304 1.319442 -1.405388
5.724743 1.485852 -1.365453
6.556298 1.700460 -1.316582
47.005444 12.182685 4.248320
7.641486 1.979071 -1.250224
9.100019 2.353423 -1.154103
11.186857 2.888956 -1.010832
14.521680 3.747448 -0.785981
5.073620 1.298912 -1.403317
5.733671 1.466824 -1.366353
6.554878 1.674476 -1.315056
7.644860 1.950071 -1.249599
9.104330 2.320669 -1.153615
11.177567 2.844972 -1.009089
14.527575 3.692234 -0.785563
5.074377 1.280247 -1.402282
5.727670 1.442944 -1.363653
6.568299 1.653501 -1.316582
7.655452 1.924339 -1.250224
9.105075 2.285345 -1.152640
11.164238 2.800123 -1.006997
14.509376 3.633734 -0.783888
5.063817 1.258799 -1.398141
5.724858 1.422065 -1.361854
6.570220 1.629616 -1.315819
46.939087 11.633661 4.230888
7.654120 1.897043 -1.248973
9.093333 2.250372 -1.150203
11.154602 2.756353 -1.005254
14.498076 3.579856 -0.782632
46.562130 11.488495 11.072091
5.071715 1.242918 -1.399176
5.729788 1.402071 -1.361854
6.560331 1.604090 -1.312766
7.664535 1.871248 -1.249599
9.116562 2.222380 -1.152153
11.199002 2.725878 -1.008392
14.537654 3.535838 -0.784097
46.507271 11.302870 11.049596
5.076237 1.224320 -1.399176
5.738436 1.382976 -1.362753
6.566166 1.580033 -1.312766
7.671341 1.843145 -1.249599
9.112682 2.187761 -1.150690
11.173573 2.678417 -1.005254
14.527206 3.476956 -0.782841
5.072962 1.204808 -1.397105
5.747259 1.362832 -1.363653
6.571641 1.557105 -1.312766
7.658505 1.811806 -1.246470
9.116776 2.153436 -1.150203
11.182855 2.639395 -1.005254
14.570359 3.433551 -0.784516
46.586960 10.969783 11.049596
5.073373 1.186214 -1.396070
5.736799 1.339219 -1.360054
6.573213 1.533265 -1.312003
7.676326 1.787752 -1.248347
9.139706 2.125194 -1.152153
11.188118 2.599444 -1.004906
46.610809 10.820947 9.301176
14.539454 3.372737 -0.782213
46.530045 10.785105 11.027101
5.066188 1.165899 -1.392964
5.745237 1.320057 -1.360954
6.582352 1.511188 -1.312766
7.674819 1.759179 -1.247096
9.131587 2.089736 -1.150203
11.197124 2.560372 -1.004906
14.551139 3.321967 -0.782213
27.274240 6.216586 -0.488283
5.073995 1.149060 -1.393999
5.753612 1.300855 -1.361854
6.579927 1.486473 -1.311239
7.680912 1.732379 -1.247096
9.138827 2.057846 -1.150203
11.213768 2.523017 -1.005603
14.554851 3.269399 -0.781795
27.338701 6.130977 -0.489051
5.074204 1.130500 -1.392964
5.754313 1.279916 -1.360954
6.577410 1.461790 -1.309713
7.702341 1.708978 -1.249599
9.145600 2.027531 -1.150203
11.195272 2.477833 -1.003163
14.558372 3.216860 -0.781376
27.421368 6.054072 -0.490168
5.070377 1.112010 -1.390894
5.747104 1.258327 -1.358254
6.578386 1.439130 -1.308950
7.677087 1.676685 -1.244593
9.140637 1.994650 -1.148741
11.183960 2.436456 -1.001419
14.592379 3.173654 -0.782632
27.542904 5.985192 -0.491983
5.077814 1.096006 -1.391929
5.747436 1.238440 -1.357355
6.590799 1.418961 -1.310476
7.698056 1.654536 -1.247096
9.159188 1.965236 -1.150203
11.199772 2.401022 -1.002117
14.528607 3.109366 -0.778654
46.517139 9.946938 10.982111
5.085388 1.079078 -1.392964
37.044838 7.853857 0.660992
5.732658 1.214335 -1.352856
6.591870 1.395135 -1.309713
46.728230 9.881266 4.178595
7.707650 1.628469 -1.247721
9.146568 1.929153 -1.147766
11.184690 2.356980 -1.000025
14.566737 3.064386 -0.780120
5.096688 1.062896 -1.395035
5.744494 1.195904 -1.354655
6.585405 1.368570 -1.307423
7.697814 1.598347 -1.245219
9.141583 1.894799 -1.146303
11.216665 2.320817 -1.002117
14.577869 3.010979 -0.780120
5.085409 1.041110 -1.390894
5.779387 1.181086 -1.361854
6.594225 1.345207 -1.308187
7.707490 1.570913 -1.245844
9.156250 1.862861 -1.147278
11.209476 2.276521 -1.000722
14.565319 2.952762 -0.778864
5.081614 1.020943 -1.388823
5.756927 1.154527 -1.355555
6.595030 1.321411 -1.307423
7.705449 1.541098 -1.244593
9.147442 1.826182 -1.145328
11.197816 2.233478 -0.998979
14.512855 2.889425 -0.775514
5.096519 1.005441 -1.391929
5.722485 1.127894 -1.346557
6.599603 1.298380 -1.307423
7.710517 1.515539 -1.244593
9.184615 1.801951 -1.149228
11.197722 2.192848 -0.998282
14.514516 2.839745 -0.775096
5.077066 0.984124 -1.385717
5.749346 1.112355 -1.351956
6.611582 1.277979 -1.308950
7.715760 1.488617 -1.244593
9.155762 1.763120 -1.144841
46.425705 8.940172 7.488206
11.201019 2.154952 -0.997933
14.547879 2.793578 -0.776352
5.103245 0.970729 -1.391929
5.753004 1.093282 -1.351956
6.592857 1.250504 -1.304370
46.534962 8.818109 4.143733
7.712892 1.461549 -1.243341
9.138152 1.728328 -1.141916
11.208473 2.115837 -0.997933
14.533509 2.740882 -0.775096
5.087446 0.950252 -1.386752
5.760616 1.073909 -1.352856
6.596968 1.228632 -1.304370
46.563946 8.663754 4.143733
7.717946 1.434618 -1.243341
9.148032 1.697141 -1.142403
46.485477 8.623977 7.488206
11.223264 2.080112 -0.998630
14.531203 2.687957 -0.774468
5.083131 0.931095 -1.384682
5.764146 1.054799 -1.352856
46.696945 8.536817 2.487842
6.585765 1.202774 -1.301317
46.593906 8.501150 4.143733
7.722661 1.409015 -1.243341
9.149706 1.666082 -1.141916
11.203012 2.035937 -0.996190
14.536108 2.639037 -0.774258
5.094115 0.913823 -1.386752
5.760480 1.031286 -1.351056
46.531322 8.330398 2.477375
6.601725 1.180703 -1.303607
46.526684 8.312807 4.135017
7.716346 1.377271 -1.241464
9.163567 1.633931 -1.142891
11.226091 1.997652 -0.997585
14.518602 2.578317 -0.772793
5.116144 0.900274 -1.391929
5.767707 1.012853 -1.351956
46.558689 8.176058 2.477375
6.601737 1.158127 -1.302844
46.554001 8.158461 4.135017
7.709197 1.349629 -1.239587
9.137648 1.598065 -1.138991
11.213028 1.956986 -0.995842
14.511333 2.527412 -0.771955
5.103871 0.880674 -1.387788
5.763352 0.992399 -1.350156
46.586952 8.013475 2.477375
6.593932 1.134230 -1.300554
7.725310 1.326067 -1.241464
9.158824 1.568838 -1.140941
46.406647 7.940797 7.456919
11.208008 1.915821 -0.994796
14.507822 2.477263 -0.771327
5.099445 0.860677 -1.385717
5.762938 0.971626 -1.349256
6.594172 1.109404 -1.299791
7.722327 1.296430 -1.240213
9.140751 1.532920 -1.138016
46.336670 7.762427 7.441275
11.187116 1.872079 -0.992355
14.536502 2.427365 -0.772374
5.087171 0.840351 -1.381576
5.766460 0.950498 -1.349256
6.590257 1.085102 -1.298265
7.711210 1.266909 -1.237710
9.161980 1.501974 -1.139966
46.266022 7.584645 7.425632
11.193581 1.833025 -0.992355
46.252098 7.565786 9.109985
14.505466 2.370163 -0.770281
5.097702 0.823820 -1.383647
5.765733 0.930748 -1.348357
6.586252 1.060841 -1.296738
7.727071 1.243212 -1.239587
9.166910 1.471581 -1.139966
11.223520 1.797720 -0.994447
46.276932 7.412376 9.109985
14.505358 2.320782 -0.769862
5.096589 0.806311 -1.382612
5.749699 0.907577 -1.343858
46.497002 7.331150 2.466908
6.593611 1.039610 -1.297501
7.746975 1.218685 -1.242090
9.156302 1.437118 -1.138016
11.186421 1.751747 -0.990612
14.501530 2.268293 -0.769234
5.107147 0.788803 -1.384682
5.764387 0.889285 -1.346557
46.522312 7.168787 2.466908
6.581854 1.013045 -1.294448
7.735770 1.187886 -1.239587
9.145566 1.402737 -1.136066
46.342907 7.099748 7.425632
11.212163 1.715704 -0.992355
14.505797 2.214514 -0.769025
5.079305 0.766361 -1.376400
5.763753 0.867570 -1.345657
6.593115 0.991233 -1.295975
7.739869 1.160874 -1.239587
9.158499 1.370385 -1.137041
11.174733 1.670074 -0.988520
46.159046 6.890300 9.071823
14.485783 2.159745 -0.767559
5.089594 0.749751 -1.378470
5.774311 0.849587 -1.347457
6.577112 0.965360 -1.292159
7.716313 1.131191 -1.235207
46.238049 6.770135 5.737853
9.159064 1.339430 -1.136554
46.172424 6.744065 7.390591
11.170637 1.629622 -0.987649
46.065086 6.720176 9.048926
14.512630 2.114579 -0.768606
5.107350 0.735072 -1.382612
5.777241 0.829427 -1.347457
46.397125 6.652881 2.456441
6.595823 0.945775 -1.295211
7.724126 1.104811 -1.235832
46.206375 6.600820 5.731028
9.183336 1.310252 -1.138991
46.078342 6.566141 7.371819
11.179924 1.593134 -0.987997
46.012459 6.548537 9.034043
14.492240 2.059969 -0.767141
5.106058 0.716703 -1.381576
5.772382 0.808174 -1.345657
46.420063 6.490894 2.456441
6.587418 0.921115 -1.292922
7.724022 1.077294 -1.235207
46.229134 6.439499 5.731028
9.172124 1.276002 -1.137041
46.046200 6.397634 7.363058
11.169630 1.551902 -0.986603
14.459774 2.003889 -0.765047
5.116185 0.699922 -1.383647
5.779029 0.788547 -1.346557
6.582813 0.897053 -1.291395
7.731651 1.050859 -1.235832
9.160786 1.241841 -1.135091
11.182876 1.513975 -0.987300
14.462723 1.952864 -0.764838
5.099448 0.679505 -1.378470
5.774019 0.767342 -1.344757
46.464252 6.166641 2.456441
6.597580 0.875618 -1.293685
7.727438 1.022825 -1.234581
9.129641 1.205187 -1.130704
11.188093 1.474927 -0.987300
14.473411 1.902899 -0.765047
5.097957 0.661205 -1.377435
5.780528 0.747680 -1.345657
6.600597 0.852584 -1.293685
7.707452 0.992815 -1.230826
9.153481 1.175838 -1.133141
11.177364 1.433833 -0.985906
14.460155 1.849827 -0.764000
5.111734 0.644855 -1.380541
5.771502 0.726042 -1.342958
46.308002 5.817215 2.445974
6.595742 0.828558 -1.292159
7.726551 0.967874 -1.233329
45.333607 5.670703 5.609646
9.157529 1.143877 -1.133141
45.288155 5.648986 7.228525
11.178347 1.394323 -0.985557
45.188503 5.628525 8.851630
14.498236 1.803281 -0.765675
45.179329 5.611391 10.510613
5.129294 0.628892 -1.384682
5.777870 0.706363 -1.343858
46.327038 5.663630 2.445974
6.610285 0.806961 -1.294448
7.729882 0.940896 -1.233329
45.254593 5.500437 5.597459
9.169349 1.112862 -1.134116
45.239967 5.490669 7.217887
11.167323 1.353374 -0.984163
45.227364 5.473100 8.855446
14.456853 1.746914 -0.763163
45.101906 5.441967 10.488117
5.112275 0.608699 -1.379506
5.764699 0.685357 -1.340258
46.346523 5.501893 2.445974
6.597466 0.782031 -1.291395
7.713343 0.912933 -1.230201
45.292297 5.352697 5.599896
9.133561 1.077799 -1.129241
11.191766 1.316715 -0.985906
14.470501 1.699899 -0.763582
5.098913 0.589964 -1.375364
5.778672 0.666574 -1.342958
6.592221 0.759249 -1.289869
7.720408 0.886455 -1.230826
45.267319 5.189579 5.594534
9.125434 1.044553 -1.127779
11.172316 1.276877 -0.983814
14.444595 1.645756 -0.761907
45.137905 5.134841 10.488117
5.104781 0.572592 -1.376400
36.587666 4.097508 0.642633
5.784837 0.646830 -1.343858
46.288532 5.167541 2.440949
6.587027 0.735360 -1.288342
7.692042 0.856007 -1.225821
45.237812 5.026262 5.588685
9.121133 1.011820 -1.126804
11.160862 1.236118 -0.982419
14.438341 1.594013 -0.761279
45.155552 4.977258 10.488117
5.118272 0.556022 -1.379506
36.601746 3.969758 0.642633
5.771560 0.624954 -1.340258
6.593458 0.712786 -1.289106
7.698912 0.829572 -1.226446
45.227448 4.865359 5.585272
9.108819 0.978276 -1.124854
11.165110 1.197149 -0.982419
14.443817 1.543600 -0.761279
45.118393 4.813805 10.475520
5.135551 0.539769 -1.383647
36.615379 3.841978 0.642633
5.773706 0.604805 -1.340258
6.595905 0.689767 -1.289106
7.693902 0.801876 -1.225195
45.295490 4.712807 5.591610
9.127975 0.948113 -1.126804
11.161294 1.157348 -0.981722
14.413358 1.489473 -0.759395
45.092278 4.651893 10.465623
5.106653 0.518717 -1.375364
5.764149 0.583468 -1.337559
6.582646 0.665162 -1.286053
7.692724 0.774616 -1.224569
45.133904 4.536809 5.569674
9.083824 0.911490 -1.120954
45.148479 4.522335 7.186600
11.177161 1.119570 -0.982768
45.077312 4.507282 8.805836
14.414495 1.438758 -0.759185
45.011284 4.484791 10.443128
5.104588 0.500510 -1.374329
5.781667 0.564861 -1.341158
46.157387 4.501379 2.430482
6.592744 0.642940 -1.287579
7.695380 0.747761 -1.224569
45.153416 4.379605 5.570160
9.098804 0.880926 -1.122417
45.163986 4.364719 7.186600
11.165134 1.079016 -0.981374
45.092773 4.349894 8.805836
14.431357 1.389585 -0.759813
45.026665 4.327654 10.443128
5.106303 0.482687 -1.374329
5.768082 0.543212 -1.337559
6.598858 0.620289 -1.288342
7.682209 0.719419 -1.222066
45.192146 4.224169 5.573086
9.093919 0.848424 -1.121442
45.209686 4.217871 7.191607
11.160899 1.039294 -0.980676
45.107685 4.192452 8.805836
14.416233 1.337360 -0.758767
5.115653 0.465561 -1.376400
5.777615 0.524788 -1.339359
6.593161 0.596545 -1.286816
7.708161 0.696073 -1.225821
45.304760 4.083202 5.585272
9.100636 0.818616 -1.121929
11.164459 1.000326 -0.980676
14.400695 1.287764 -0.757720
5.124866 0.449270 -1.378470
5.775529 0.504279 -1.338459
6.602927 0.575361 -1.288342
7.690865 0.667456 -1.222692
45.370155 3.929497 5.591610
9.071796 0.784106 -1.118029
11.155804 0.962278 -0.979631
14.393163 1.236459 -0.757092
45.263000 3.880404 10.488117
5.114853 0.430405 -1.375364
5.765603 0.483138 -1.335759
6.597069 0.551653 -1.286816
46.011719 3.839476 4.039495
7.681336 0.639620 -1.220815
45.431072 3.775034 5.597459
9.066563 0.751785 -1.117054
11.163067 0.923657 -0.979979
14.365542 1.183595 -0.755417
5.112473 0.412239 -1.374329
5.778909 0.463943 -1.338459
46.128727 3.695235 2.425249
6.595041 0.528309 -1.286053
46.024841 3.678829 4.039495
7.703213 0.614372 -1.223943
45.542915 3.624311 5.609646
9.077048 0.720758 -1.118029
11.138416 0.882479 -0.977539
14.377551 1.134067 -0.755836
45.479382 3.579298 10.532208
5.121585 0.394983 -1.376400
5.768835 0.442877 -1.335759
46.141346 3.534181 2.425249
6.596845 0.505283 -1.286053
7.689553 0.586283 -1.221440
45.630508 3.471024 5.618908
9.083467 0.689367 -1.118517
11.141429 0.843601 -0.977539
14.369472 1.082969 -0.755208
45.588757 3.427860 10.554704
5.130640 0.377672 -1.378470
36.218941 2.659759 0.633906
5.770345 0.422736 -1.335759
6.614233 0.483399 -1.289106
7.675791 0.558289 -1.218938
45.693825 3.315445 5.625246
9.066019 0.656225 -1.116079
45.681576 3.306564 7.254180
11.128408 0.803554 -0.976144
45.635406 3.287188 8.893607
14.329339 1.029657 -0.752905
5.116510 0.358681 -1.374329
36.091915 2.530136 0.631533
5.760052 0.402782 -1.333060
6.600212 0.459219 -1.286053
7.693366 0.533924 -1.221440
45.827347 3.172432 5.640357
9.060224 0.625612 -1.115105
45.763786 3.151960 7.265443
11.123194 0.764160 -0.975447
45.704811 3.139906 8.905056
14.332674 0.982137 -0.752905
45.657692 3.120635 10.565501
5.129236 0.342482 -1.377435
36.060619 2.401469 0.630835
5.776978 0.383707 -1.336659
6.609533 0.437847 -1.287579
7.675472 0.505769 -1.218312
45.846066 3.012953 5.641332
9.070276 0.594499 -1.116079
45.770569 2.991947 7.264817
11.086030 0.722733 -0.971961
45.715496 2.980335 8.905056
14.359932 0.933652 -0.754161
45.648861 2.959990 10.561002
5.107321 0.322222 -1.371223
5.793841 0.364520 -1.340258
6.599338 0.412885 -1.285290
7.689103 0.478368 -1.220189
45.868191 2.853630 5.642795
9.064371 0.562344 -1.115105
45.741299 2.829708 7.258560
11.076554 0.683292 -0.970915
45.671246 2.809394 8.894371
14.323387 0.878564 -0.752068
5.108415 0.304391 -1.371223
5.779576 0.342358 -1.336659
45.996613 2.716594 2.414781
6.604658 0.390076 -1.286053
7.678895 0.450832 -1.218312
45.878342 2.685505 5.642795
9.058444 0.528653 -1.114130
45.759251 2.662508 7.259811
11.062960 0.643700 -0.969520
45.676853 2.649715 8.893607
14.314404 0.827872 -0.751440
5.117161 0.286991 -1.373294
5.772954 0.321746 -1.334860
45.906105 2.550489 2.409548
6.609900 0.367238 -1.286816
7.684366 0.424240 -1.218938
45.915184 2.526859 5.646207
9.072127 0.497684 -1.115592
45.748539 2.501671 7.256682
11.069118 0.605293 -0.969869
45.627018 2.487039 8.882159
14.305240 0.777253 -0.750812
5.121990 0.269329 -1.374329
5.766256 0.301190 -1.333060
45.815002 2.385028 2.404314
6.599379 0.343549 -1.284526
7.693691 0.397828 -1.220189
45.824604 2.361471 5.634020
9.042089 0.464382 -1.111692
45.713589 2.339774 7.249800
11.071163 0.566659 -0.969869
45.635418 2.327766 8.882159
14.299887 0.726905 -0.750393
45.658897 2.312985 10.554704
5.119040 0.251257 -1.373294
5.775059 0.281438 -1.334860
45.823051 2.225077 2.404314
6.596615 0.320319 -1.283763
7.687140 0.370587 -1.218938
45.733429 2.196725 5.621833
9.039689 0.432629 -1.111205
45.678074 2.178107 7.242917
11.053173 0.527058 -0.968126
45.682487 2.170305 8.889791
14.298347 0.676798 -0.750184
45.569366 2.149011 10.532208
5.119886 0.233390 -1.373294
35.971447 1.633452 0.628531
5.768219 0.260924 -1.333060
45.830536 2.065142 2.404314
6.589848 0.296941 -1.282236
7.684441 0.343573 -1.218312
45.713047 2.035866 5.618421
9.068909 0.402301 -1.114617
45.685398 2.018636 7.242917
11.054945 0.488469 -0.968126
45.650558 2.009135 8.882159
14.308605 0.627230 -0.750602
5.124530 0.215678 -1.374329
35.940971 1.506361 0.627903
5.765201 0.240626 -1.332160
45.837467 1.905139 2.404314
6.606537 0.274587 -1.285290
7.654014 0.315447 -1.213306
45.648476 1.873343 5.609646
9.074224 0.370802 -1.115105
45.664536 1.858037 7.238536
11.048620 0.449555 -0.967429
45.657291 1.849761 8.882159
14.282768 0.576149 -0.749137
5.117529 0.197492 -1.372259
35.922031 1.379998 0.627484
5.762110 0.220350 -1.331260
45.843838 1.745135 2.404314
6.591760 0.250928 -1.282236
7.647172 0.288428 -1.212054
45.694412 1.715466 5.614522
9.063561 0.338686 -1.113642
11.054104 0.411131 -0.967777
14.240781 0.524681 -0.746834
5.122049 0.179761 -1.373294
35.918636 1.254310 0.627344
5.755054 0.199969 -1.329461
45.809731 1.583707 2.402220
6.600444 0.228187 -1.283763
7.671823 0.262545 -1.215809
45.688217 1.555557 5.613059
9.048818 0.306506 -1.111692
11.053481 0.372478 -0.967603
14.190626 0.473234 -0.744113
5.114922 0.161636 -1.371223
35.918793 1.128805 0.627274
5.763508 0.180121 -1.331260
45.854904 1.425020 2.404314
6.589427 0.204778 -1.281473
7.648999 0.235037 -1.212054
45.665592 1.395205 5.609646
9.081578 0.275884 -1.115592
11.062679 0.334135 -0.968300
14.212155 0.424295 -0.745159
5.100006 0.143350 -1.367082
35.886539 1.002403 0.626646
5.767998 0.160108 -1.332160
45.779736 1.262755 2.400127
6.597952 0.181993 -1.283000
7.637926 0.208011 -1.210177
45.670185 1.235803 5.609646
9.066611 0.243753 -1.113642
11.063779 0.295514 -0.968300
14.193584 0.374153 -0.744113
5.123651 0.126115 -1.373294
35.869823 0.876632 0.626297
5.768522 0.139974 -1.332160
45.739941 1.101897 2.397824
6.598547 0.158962 -1.283000
45.760071 1.094370 4.004632
7.662303 0.181913 -1.213932
45.674221 1.076387 5.609646
9.051531 0.211729 -1.111692
11.048808 0.256524 -0.966906
14.162856 0.323872 -0.742438
5.112471 0.107986 -1.370188
35.884663 0.751676 0.626507
5.761182 0.119674 -1.330361
45.691593 0.941169 2.395103
6.610839 0.136172 -1.285290
45.636127 0.932036 3.993476
7.651041 0.154923 -1.212054
45.598309 0.915342 5.599896
9.052215 0.180134 -1.111692
11.049636 0.217952 -0.966906
14.159908 0.274358 -0.742229
5.132132 0.090479 -1.375364
35.851082 0.625790 0.625878
5.761565 0.099564 -1.330361
45.670635 0.781247 2.393847
6.583792 0.112623 -1.279947
45.666992 0.773213 3.995917
7.639685 0.128018 -1.210177
45.601227 0.756178 5.599896
9.048818 0.148471 -1.111205
11.042360 0.179254 -0.966209
14.040957 0.223028 -0.735948
5.116964 0.072344 -1.371223
35.853046 0.500650 0.625878
5.769671 0.079558 -1.332160
6.576293 0.089532 -1.278420
45.669415 0.613810 3.995917
7.644036 0.101400 -1.210803
45.559921 0.596412 5.594534
9.069131 0.117143 -1.113642
45.501087 0.579757 7.207250
11.034949 0.140603 -0.965511
45.494827 0.571736 8.843997
13.989726 0.173374 -0.733227
5.121039 0.055418 -1.372259
35.838509 0.381574 0.625599
5.777698 0.060507 -1.333960
6.580480 0.067766 -1.279184
7.644330 0.076053 -1.210803
45.545773 0.445180 5.592585
9.045650 0.086836 -1.110717
45.502758 0.428876 7.207250
11.027387 0.103936 -0.964814
45.496475 0.420854 8.843997
14.002207 0.127087 -0.733855
5.101883 0.037401 -1.367082
35.827625 0.256377 0.625390
5.758387 0.040201 -1.329461
6.588529 0.044850 -1.280710
7.640598 0.049341 -1.210177
45.527199 0.286078 5.590147
9.053838 0.055307 -1.111692
45.464470 0.269792 7.200992
11.019712 0.065392 -0.964117
45.352390 0.261233 8.815758
14.034521 0.078384 -0.735530
5.101983 0.019591 -1.367082
35.792309 0.131206 0.624761
5.762390 0.020115 -1.330361
6.584719 0.021837 -1.279947
7.640724 0.022671 -1.210177
45.563648 0.127244 5.594534
9.053976 0.023700 -1.111692
45.441433 0.111042 7.197238
10.995965 0.026870 -0.962025
45.376583 0.102964 8.820337
14.006748 0.029331 -0.734064
45.428947 0.087226 10.488117
5.105884 0.001784 -1.368118
35.788551 0.006257 0.624691
5.754630 -0.000000 -1.328561
6.584755 -0.001149 -1.279947
7.621003 -0.003990 -1.207049
45.488380 -0.031757 5.585272
9.030183 -0.007880 -1.108767
45.453396 -0.047599 7.199115
11.007946 -0.011527 -0.963071
45.360958 -0.055419 8.817285
13.970814 -0.019507 -0.732180
5.113586 -0.016065 -1.370188
35.776360 -0.118639 0.624482
5.762390 -0.020115 -1.330361
6.576858 -0.024106 -1.278420
7.613041 -0.030561 -1.205797
45.539604 -0.190757 5.591610
9.038040 -0.039436 -1.109742
45.381836 -0.205938 7.187851
11.019793 -0.050007 -0.964117
45.419384 -0.214035 8.828732
13.990633 -0.068372 -0.733227
5.113499 -0.033915 -1.370188
35.727730 -0.243195 0.623644
5.754489 -0.040175 -1.328561
6.561028 -0.046951 -1.275367
7.664247 -0.057521 -1.213932
45.526752 -0.349627 5.590147
9.021966 -0.070860 -1.107792
45.404549 -0.364539 7.191607
10.991658 -0.088249 -0.961676
45.328060 -0.371837 8.811178
13.982320 -0.117141 -0.732808
5.101759 -0.051646 -1.367082
5.769903 -0.060424 -1.332160
45.874439 -0.488421 2.404314
6.580456 -0.070062 -1.279184
7.612642 -0.083709 -1.205797
45.457764 -0.507789 5.581860
9.053424 -0.102712 -1.111692
45.418800 -0.523210 7.194109
10.999253 -0.126708 -0.962374
45.298996 -0.529737 8.805836
13.965849 -0.165758 -0.731971
5.097684 -0.069402 -1.366047
5.750172 -0.080293 -1.327661
6.576245 -0.092976 -1.278420
7.620204 -0.110396 -1.207049
45.404110 -0.665707 5.575523
9.033161 -0.134019 -1.109255
45.357441 -0.680859 7.184723
10.990775 -0.164982 -0.961676
45.296871 -0.687857 8.805836
13.989150 -0.214875 -0.733227
45.228699 -0.702613 10.443128
5.105137 -0.087328 -1.368118
5.749856 -0.100364 -1.327661
6.579806 -0.116000 -1.279184
7.607922 -0.136782 -1.205171
45.409451 -0.824337 5.576498
9.016760 -0.165259 -1.107305
45.366642 -0.839401 7.186600
11.002084 -0.203567 -0.962722
45.294197 -0.845968 8.805836
13.948377 -0.262952 -0.731133
45.225971 -0.860487 10.443128
5.104801 -0.105148 -1.368118
5.741677 -0.120271 -1.325861
6.544031 -0.138221 -1.272314
7.603448 -0.163252 -1.204545
45.358662 -0.981809 5.570648
9.020097 -0.196819 -1.107792
45.296288 -0.996278 7.175962
10.997323 -0.241883 -0.962374
45.290966 -1.004070 8.805836
13.931399 -0.311282 -0.730296
45.222694 -1.018350 10.443128
5.112128 -0.123152 -1.370188
5.749016 -0.140503 -1.327661
6.559210 -0.161449 -1.275367
7.638378 -0.190680 -1.210177
45.350990 -1.140035 5.570160
8.991573 -0.227601 -1.104380
45.292736 -1.146480 7.175962
10.980478 -0.279863 -0.960979
45.247932 -1.161151 8.798203
13.974154 -0.361045 -0.732599
45.218861 -1.176200 10.443128
5.100080 -0.140677 -1.367082
5.744622 -0.159458 -1.326761
6.570381 -0.184675 -1.277657
7.586364 -0.214557 -1.202043
45.350925 -1.290531 5.570648
9.018549 -0.258212 -1.107792
45.288460 -1.304575 7.175962
10.951552 -0.317382 -0.958539
45.232063 -1.310851 8.795914
13.948922 -0.406684 -0.731343
5.107310 -0.157827 -1.369153
35.671341 -1.108553 0.622946
5.744030 -0.179510 -1.326761
6.538336 -0.205475 -1.271551
7.601364 -0.241539 -1.204545
45.365986 -1.449461 5.573086
8.985847 -0.288671 -1.103893
45.283627 -1.462653 7.175962
10.954423 -0.353826 -0.958888
45.278225 -1.470389 8.805836
13.919472 -0.454460 -0.729877
5.106728 -0.175654 -1.369153
35.679249 -1.233477 0.623156
5.723893 -0.198883 -1.322262
6.561123 -0.229119 -1.276131
45.398533 -1.593285 3.974302
7.588630 -0.267653 -1.202668
45.336845 -1.606965 5.570160
8.964947 -0.319329 -1.101455
10.949138 -0.391919 -0.958539
13.925783 -0.503334 -0.730296
5.094501 -0.193040 -1.366047
35.706699 -1.359231 0.623714
5.727059 -0.219010 -1.323162
45.392181 -1.743792 2.380658
6.540666 -0.251267 -1.272314
45.340927 -1.749748 3.969769
7.595545 -0.294447 -1.203920
45.255585 -1.762275 5.560898
8.991548 -0.351707 -1.104867
45.469696 -1.786509 7.207250
10.919830 -0.429041 -0.956098
13.939906 -0.552574 -0.731133
5.097656 -0.210981 -1.367082
35.837597 -1.489509 0.626088
5.737941 -0.239488 -1.325861
45.365864 -1.901393 2.379611
6.535826 -0.273932 -1.271551
45.334541 -1.908006 3.969769
7.598418 -0.321125 -1.204545
45.300720 -1.922424 5.567236
8.962500 -0.381908 -1.101455
45.463184 -1.945217 7.207250
10.922248 -0.467326 -0.956447
45.260345 -1.944452 8.805836
13.909957 -0.600025 -0.729668
5.100749 -0.228947 -1.368118
5.729284 -0.259163 -1.324062
45.378899 -2.060644 2.380658
6.554442 -0.297635 -1.275367
45.287804 -2.064428 3.966284
7.573571 -0.346563 -1.200791
45.273907 -2.079631 5.564798
8.996805 -0.414837 -1.105842
45.456116 -2.103901 7.207250
10.916569 -0.505265 -0.956098
45.253281 -2.102429 8.805836
13.875857 -0.647087 -0.727993
5.099918 -0.246751 -1.368118
45.481480 -2.208502 0.794818
5.728344 -0.279161 -1.324062
45.359459 -2.218448 2.380030
6.541598 -0.319937 -1.273078
45.280319 -2.222499 3.966284
7.572315 -0.372998 -1.200791
45.234650 -2.236085 5.560898
8.987371 -0.445845 -1.104867
45.448498 -2.262560 7.207250
10.906780 -0.542972 -0.955401
45.120178 -2.254110 8.781412
13.869525 -0.695319 -0.727784
5.095167 -0.264351 -1.367082
5.719550 -0.298748 -1.322262
45.317532 -2.374991 2.378251
6.556125 -0.343592 -1.276131
45.280243 -2.380962 3.966981
7.570967 -0.399428 -1.200791
45.226566 -2.393970 5.560898
8.958009 -0.475741 -1.101455
45.440323 -2.421191 7.207250
10.904819 -0.581040 -0.955401
45.115955 -2.411805 8.782175
13.878979 -0.744371 -0.728412
5.078782 -0.281281 -1.362941
45.437000 -2.524413 0.794329
5.722364 -0.318928 -1.323162
45.285038 -2.531826 2.376995
6.523523 -0.364722 -1.270025
45.303486 -2.540790 3.969769
7.585304 -0.426740 -1.203294
45.217937 -2.551826 5.560898
8.984040 -0.508578 -1.104867
10.902724 -0.619102 -0.955401
45.130783 -2.570614 8.786755
13.940104 -0.796458 -0.731761
5.085484 -0.299461 -1.365012
5.736779 -0.339823 -1.326761
45.276394 -2.681983 2.376995
6.522210 -0.387491 -1.270025
45.270473 -2.697491 3.967678
7.571938 -0.452508 -1.201417
45.184975 -2.708225 5.557974
8.962395 -0.538744 -1.102430
45.103352 -2.711233 7.156565
10.876631 -0.655717 -0.953310
13.901355 -0.842938 -0.729877
44.956234 -2.733890 10.398138
5.080551 -0.316971 -1.363976
39.982159 -2.494447 0.699248
5.723951 -0.358115 -1.324062
40.084072 -2.514852 2.104848
6.532574 -0.410995 -1.272314
39.919842 -2.518538 3.499477
7.566453 -0.477367 -1.200791
39.905937 -2.524654 4.909629
8.936786 -0.566953 -1.099505
39.897026 -2.538073 6.331842
10.862346 -0.692918 -0.952264
13.890511 -0.888521 -0.729459
5.083328 -0.334070 -1.365012
5.718777 -0.377836 -1.323162
45.308903 -2.993529 2.379716
6.542929 -0.433434 -1.274604
45.473721 -3.020361 3.987201
7.560798 -0.503513 -1.200165
8.950598 -0.599205 -1.101455
45.091736 -3.018705 7.157816
10.871916 -0.729736 -0.953310
13.883339 -0.936734 -0.729249
44.936584 -3.039831 10.398138
5.082131 -0.351812 -1.365012
5.705828 -0.395988 -1.320463
45.270283 -3.149727 2.378251
6.521791 -0.454904 -1.270788
45.264145 -3.165177 3.969769
7.570911 -0.529410 -1.202043
45.087914 -3.160762 5.549686
8.944601 -0.628605 -1.100968
45.045456 -3.173587 7.152184
10.881227 -0.768524 -0.954355
45.040688 -3.181152 8.776833
13.884140 -0.983050 -0.729459
44.926254 -3.188830 10.398138
5.088578 -0.370110 -1.367082
45.286877 -3.301821 0.792584
5.708225 -0.417183 -1.321362
45.222580 -3.313004 2.376367
6.496668 -0.475945 -1.266209
45.153469 -3.315864 3.961054
7.557099 -0.556285 -1.200165
45.087906 -3.326873 5.551149
8.926400 -0.660213 -1.099018
45.017765 -3.337497 7.149682
10.870530 -0.805912 -0.953658
45.020893 -3.345630 8.775306
13.888412 -1.034525 -0.729877
44.914268 -3.353471 10.398138
5.075698 -0.386989 -1.363976
45.346859 -3.465367 0.793840
5.710620 -0.437403 -1.322262
45.190826 -3.469311 2.375320
6.522372 -0.500724 -1.271551
45.109837 -3.471013 3.958265
7.547233 -0.582053 -1.198914
45.032475 -3.480873 5.545786
8.935916 -0.692288 -1.100480
44.986145 -3.493089 7.146553
10.875597 -0.844469 -0.954355
44.997196 -3.501848 8.773016
13.888698 -1.083309 -0.730087
44.952797 -3.514180 10.409835
5.058910 -0.403476 -1.359835
45.334488 -3.623636 0.793840
5.709059 -0.457334 -1.322262
45.178440 -3.627035 2.375320
6.501015 -0.521917 -1.267735
45.129223 -3.631011 3.961054
7.541217 -0.608077 -1.198288
45.043797 -3.639963 5.548712
8.945316 -0.724437 -1.101943
44.993366 -3.651697 7.149682
10.836837 -0.879526 -0.951218
44.924038 -3.653962 8.761186
13.912701 -1.134054 -0.731552
44.940258 -3.671073 10.409835
5.072873 -0.422415 -1.363976
45.249821 -3.775875 0.792584
5.688008 -0.475636 -1.317763
45.173466 -3.785382 2.375739
6.499154 -0.544607 -1.267735
45.116272 -3.788519 3.961054
7.546922 -0.635059 -1.199540
44.999168 -3.794504 5.544812
8.922953 -0.753986 -1.099505
44.972477 -3.808064 7.148430
10.845613 -0.918357 -0.952264
44.926659 -3.812082 8.764239
13.904677 -1.182273 -0.731343
44.876686 -3.823620 10.398138
5.067518 -0.439786 -1.362941
45.276207 -3.937268 0.793282
5.686313 -0.495488 -1.317763
45.136105 -3.940959 2.374483
6.516771 -0.568997 -1.271551
45.074989 -3.943550 3.958614
7.536788 -0.660709 -1.198288
44.985645 -3.951558 5.544812
8.920267 -0.785129 -1.099505
44.966778 -3.965718 7.149682
10.854249 -0.957260 -0.953310
44.909168 -3.968537 8.763475
13.900465 -1.230802 -0.731343
5.085192 -0.459209 -1.368118
45.222359 -4.091684 0.792584
5.688431 -0.515686 -1.318663
45.086269 -4.095238 2.372599
6.487372 -0.589255 -1.266209
45.076820 -4.102312 3.960008
7.526567 -0.686296 -1.197037
44.995304 -4.110730 5.547737
8.909564 -0.815538 -1.098530
44.960529 -4.123379 7.150933
10.850842 -0.995142 -0.953310
44.914589 -4.127071 8.767292
13.860285 -1.276021 -0.729459
44.848900 -4.136823 10.398138
5.056631 -0.474431 -1.360871
45.239658 -4.252508 0.793142
5.698236 -0.536635 -1.321362
45.079651 -4.253344 2.373017
6.485275 -0.611897 -1.266209
45.042389 -4.257759 3.958265
7.543791 -0.714427 -1.200165
44.968819 -4.266643 5.546274
8.914568 -0.847384 -1.099505
44.926197 -4.278423 7.147804
10.835402 -1.031880 -0.952264
44.899914 -4.283827 8.767292
13.855747 -1.324394 -0.729459
5.058789 -0.492453 -1.361906
45.244438 -4.412339 0.793491
5.688571 -0.555764 -1.319563
45.084408 -4.412621 2.374064
6.490916 -0.635296 -1.267735
