# This PCD file was generated using the MATLAB® pcwrite function
# from Computer Vision Toolbox®.
# .PCD v.7 - Point Cloud Data file format
VERSION .7
FIELDS x y z
SIZE 4 4 4
TYPE F F F
COUNT 1 1 1
WIDTH 1682
HEIGHT 1
VIEWPOINT 0 0 0 1 0 0 0
POINTS 1682
DATA ascii
15.178505 10.727104 0.974077
5.801363 4.098484 -1.380694
6.788299 4.793947 -1.316240
7.514300 5.302725 -1.129241
9.577492 6.753674 -1.025300
13.746877 9.690169 -0.881442
15.218774 10.719760 -0.324929
4.447160 3.123199 -1.456116
15.281421 10.728015 0.325906
5.056603 3.548570 -1.426190
15.199503 10.662589 0.973030
5.802066 4.070202 -1.377641
6.804992 4.770220 -1.316240
7.542521 5.283294 -1.130704
24.883659 17.423733 4.811299
9.589581 6.712206 -1.024080
13.767525 9.632969 -0.880605
15.275764 10.680326 -0.325348
4.460163 3.107981 -1.456634
15.335183 10.686036 0.326255
5.064161 3.527557 -1.424840
15.305468 10.657405 0.977426
5.836282 4.062366 -1.382221
6.835405 4.754268 -1.318743
7.554398 5.252398 -1.129729
24.941082 17.334517 4.810673
9.593320 6.665047 -1.021988
13.740392 9.539165 -0.876627
15.365526 10.663417 -0.326465
4.461452 3.085801 -1.453528
15.430169 10.668428 0.327442
5.083470 3.513403 -1.426640
15.410158 10.646643 0.981613
5.827813 4.026347 -1.376878
44.542923 30.762545 4.736043
6.829199 4.714669 -1.314363
7.573597 5.224676 -1.129729
25.072754 17.290081 4.823814
9.604560 6.620797 -1.020594
13.753876 9.477541 -0.875371
15.506620 10.677346 -0.328629
4.466359 3.065057 -1.451457
15.529967 10.657501 0.328768
5.082847 3.486819 -1.423040
15.509823 10.635706 0.985591
5.861963 4.018279 -1.381457
6.836656 4.682908 -1.312485
7.578687 5.189233 -1.127779
9.619392 6.581603 -1.019722
13.729162 9.386490 -0.871603
15.665971 10.706643 -0.331212
4.483419 3.053797 -1.453528
5.100425 3.471457 -1.424390
5.853229 3.982332 -1.376115
6.849690 4.656798 -1.311860
7.586903 5.156054 -1.126317
9.652196 6.554702 -1.020768
13.765151 9.340748 -0.871812
4.501522 3.044324 -1.456116
5.110294 3.453431 -1.423940
5.872909 3.967297 -1.377641
6.871645 4.638477 -1.313111
7.590794 5.121985 -1.124367
9.645794 6.503725 -1.017805
13.829179 9.317365 -0.873906
4.503574 3.023994 -1.453528
5.120100 3.435381 -1.423490
5.876251 3.941237 -1.375351
6.883707 4.613466 -1.312485
7.594544 5.087945 -1.122417
9.654061 6.462838 -1.016410
49.382744 33.046391 11.550051
13.786956 9.222595 -0.869300
28.666321 19.168722 -0.601933
4.502324 3.001543 -1.449904
5.123355 3.412980 -1.421241
5.889287 3.921730 -1.375351
6.892391 4.586235 -1.311234
7.611374 5.062733 -1.122417
9.665485 6.424168 -1.015364
13.794173 9.161352 -0.867835
28.626444 19.004974 -0.599769
4.508461 2.981825 -1.448351
5.127700 3.388808 -1.418991
5.903621 3.900120 -1.375351
6.902561 4.556587 -1.309982
7.640700 5.040027 -1.123879
9.685641 6.386504 -1.015016
13.834328 9.115131 -0.868254
28.645758 18.859735 -0.598652
4.525302 2.970308 -1.450422
5.139499 3.370887 -1.418991
5.913916 3.877335 -1.374588
49.495365 32.438240 5.177400
6.925032 4.536796 -1.311234
7.661569 5.015501 -1.124367
9.711208 6.354839 -1.015364
13.755736 8.994639 -0.861345
28.600935 18.687429 -0.596349
4.545355 2.960821 -1.453528
5.151235 3.352925 -1.418991
43.446041 28.268145 2.716446
5.917541 3.850245 -1.372298
6.934204 4.508287 -1.309982
7.689016 4.995218 -1.125829
9.714379 6.306187 -1.013273
13.763589 8.931357 -0.859880
28.602228 18.546144 -0.595022
4.531838 2.928413 -1.445763
5.169455 3.339154 -1.420791
43.494118 28.083801 2.713305
5.928315 3.826399 -1.371535
49.391384 31.867197 5.142537
6.954000 4.484984 -1.310608
7.696396 4.961891 -1.124367
9.724610 6.264684 -1.012052
13.944020 8.975981 -0.869091
28.552444 18.372601 -0.592649
4.543659 2.913620 -1.446281
38.396015 24.611982 0.796074
5.180018 3.319132 -1.420341
43.554897 27.908091 2.711003
5.948247 3.809919 -1.373062
6.946321 4.445773 -1.306228
7.724564 4.940068 -1.125829
9.744742 6.229625 -1.011878
14.113284 9.015420 -0.877674
28.562477 18.238379 -0.591532
4.558692 2.900852 -1.447834
38.308720 24.377153 0.792584
5.176197 3.292526 -1.416292
43.668900 27.766611 2.712049
5.958197 3.787024 -1.372298
6.967695 4.426953 -1.307480
7.744256 4.916552 -1.126317
9.752967 6.187035 -1.010484
14.183587 8.994236 -0.880186
28.457048 18.031540 -0.588041
4.573185 2.888815 -1.449387
38.251545 24.153608 0.789652
5.182715 3.271316 -1.414942
5.964080 3.763056 -1.370772
6.986445 4.404712 -1.308105
7.744574 4.878909 -1.123879
9.778487 6.157846 -1.011007
13.291919 8.363887 -0.823035
28.428406 17.874611 -0.586157
4.588151 2.875913 -1.450940
38.223785 23.949852 0.787348
5.200709 3.257341 -1.416742
5.970522 3.738049 -1.369245
49.261971 30.830133 5.084317
6.978334 4.365629 -1.303725
7.788491 4.868680 -1.127779
9.791475 6.118393 -1.010135
13.348137 8.334365 -0.824710
28.436327 17.741417 -0.585040
4.573556 2.844574 -1.443175
28.807209 17.909994 0.592090
5.200461 3.231968 -1.413592
5.976864 3.713039 -1.367719
49.200024 30.552893 5.066886
6.983460 4.334994 -1.301848
7.815562 4.847740 -1.129241
9.789065 6.069480 -1.007695
13.995158 8.670599 -0.862811
28.471205 17.632275 -0.584551
4.594967 2.835693 -1.446798
28.840918 17.798605 0.591567
5.217784 3.218799 -1.415392
6.003160 3.700393 -1.370772
49.197811 30.314085 5.055730
7.001160 4.313886 -1.302473
7.868782 4.844693 -1.134604
9.808497 6.034227 -1.007520
13.955780 8.582295 -0.858624
28.488287 17.505554 -0.583643
4.605991 2.821453 -1.447316
5.217354 3.193443 -1.412243
6.005348 3.674322 -1.368482
49.151897 30.061359 5.040740
7.002693 4.281176 -1.299971
7.926301 4.842034 -1.140453
9.820999 5.994760 -1.006649
14.060671 8.579305 -0.863229
28.487757 17.368525 -0.582387
4.608047 2.799533 -1.444728
5.243460 3.184316 -1.416292
6.018777 3.652282 -1.368482
49.176567 29.829353 5.032024
7.025093 4.259580 -1.301222
7.966922 4.828740 -1.143866
9.841861 5.960448 -1.006649
14.256063 8.626976 -0.873278
28.483181 17.229668 -0.581060
4.617790 2.783434 -1.444728
5.243411 3.158037 -1.413142
6.028122 3.629229 -1.367719
49.109688 29.554762 5.014593
7.033149 4.230957 -1.299971
8.025398 4.824053 -1.149715
9.852362 5.919897 -1.005603
14.272387 8.568938 -0.872440
28.433418 17.064270 -0.578826
4.622504 2.764322 -1.443175
5.247164 3.136631 -1.411343
6.017159 3.594069 -1.362376
49.041496 29.281008 4.997161
7.059015 4.214697 -1.302161
8.082265 4.821825 -1.155565
48.827950 29.118839 9.004369
9.855851 5.875271 -1.003860
14.187484 8.454088 -0.865532
28.430954 16.928093 -0.577570
4.629985 2.747991 -1.442657
5.256403 3.117306 -1.410893
6.035800 3.578099 -1.363903
49.011482 29.043066 4.984262
7.036290 4.167888 -1.295278
8.140048 4.817847 -1.161415
48.818840 28.894386 8.984971
9.868420 5.838499 -1.003163
14.130946 8.353691 -0.860299
28.424963 16.797089 -0.576313
4.649537 2.737695 -1.445763
5.258315 3.094914 -1.408643
6.055022 3.560990 -1.365429
49.067894 28.845564 4.979730
7.050074 4.144530 -1.295278
8.186790 4.808922 -1.165802
48.779716 28.641798 8.959316
9.885305 5.801997 -1.002814
14.093110 8.268374 -0.856321
28.442015 16.673498 -0.575476
4.656921 2.721287 -1.445246
5.269087 3.076539 -1.408643
6.056623 3.534955 -1.363140
48.991184 28.582300 4.962299
7.081563 4.129845 -1.298406
8.241260 4.802306 -1.171165
48.773575 28.409693 8.939918
9.897606 5.765170 -1.002117
14.087360 8.199039 -0.854228
28.430901 16.533895 -0.574079
4.658036 2.700170 -1.442657
5.273048 3.054221 -1.406844
6.058733 3.507889 -1.360850
48.918224 28.311304 4.944868
7.085676 4.099167 -1.296529
8.302655 4.799340 -1.177502
48.684296 28.130568 8.905502
9.917668 5.730588 -1.002117
14.084760 8.131844 -0.852343
4.654036 2.676188 -1.438516
5.292127 3.040649 -1.409093
6.060726 3.480850 -1.358560
48.930347 28.090786 4.936152
7.089662 4.068507 -1.294652
8.353798 4.790080 -1.182377
48.665665 27.893646 8.884228
9.923048 5.685282 -1.000548
14.064529 8.054839 -0.849413
4.672204 2.663898 -1.441105
5.301014 3.021194 -1.408643
6.087091 3.466386 -1.361613
7.104525 4.042496 -1.294652
8.408429 4.782479 -1.187739
48.649391 27.659174 8.863578
9.944564 5.651596 -1.000722
14.087011 7.999287 -0.848994
4.674747 2.643770 -1.439034
5.296784 2.993115 -1.404594
6.099153 3.445118 -1.361613
48.869869 27.592991 4.910006
7.111713 4.013787 -1.293400
8.467400 4.775033 -1.193588
48.638958 27.429037 8.844180
9.952084 5.609998 -0.999502
14.076564 7.928506 -0.846691
4.697427 2.634995 -1.443175
5.301580 2.972675 -1.403245
6.111142 3.423805 -1.361613
48.854645 27.359917 4.898850
7.135325 3.995974 -1.295278
8.483189 4.746926 -1.193588
48.593044 27.180002 8.818524
9.968123 5.573287 -0.999153
14.064424 7.860342 -0.844388
4.702763 2.617525 -1.442140
5.322143 2.959835 -1.405944
6.108735 3.395892 -1.358560
48.753536 27.091291 4.879676
7.149229 3.971045 -1.295278
8.513594 4.724989 -1.195538
48.555103 26.947763 8.795372
9.983068 5.538265 -0.998805
14.063828 7.795704 -0.842714
4.688194 2.588022 -1.434893
5.331928 2.942171 -1.405944
6.117113 3.372650 -1.357797
48.739601 26.861355 4.868868
7.165817 3.949223 -1.295903
8.522259 4.692902 -1.194563
48.541565 26.719088 8.775974
9.981393 5.491856 -0.996713
14.054599 7.729776 -0.840620
4.700588 2.573498 -1.435928
5.342678 2.922605 -1.405944
6.121958 3.347510 -1.356270
48.721184 26.629889 4.857712
7.155978 3.909668 -1.291523
8.556825 4.671149 -1.197001
48.507401 26.469046 8.752196
10.004002 5.458886 -0.997062
14.047764 7.659094 -0.838527
4.712939 2.558916 -1.436963
28.317371 15.368692 0.562386
5.339141 2.896507 -1.402345
6.137058 3.327991 -1.357034
48.687721 26.391306 4.845162
7.180000 3.890316 -1.293400
8.555622 4.631798 -1.194563
48.474392 26.231905 8.729670
10.019487 5.422043 -0.996713
14.060359 7.602407 -0.837689
4.735448 2.549780 -1.441105
5.352653 2.879698 -1.403245
6.152095 3.308409 -1.357797
48.663731 26.158920 4.833657
7.200496 3.868967 -1.294652
8.553446 4.594010 -1.192126
48.467140 26.020546 8.712775
10.034843 5.385149 -0.996364
14.055127 7.536296 -0.835805
4.737062 2.530420 -1.439034
5.358735 2.860095 -1.402345
6.156103 3.284294 -1.356270
48.641209 25.939285 4.822850
7.199342 3.837633 -1.292149
8.554618 4.558155 -1.190176
48.434593 25.796543 8.691500
10.049129 5.349967 -0.996016
14.072987 7.485898 -0.835387
4.719823 2.501127 -1.431269
5.364746 2.840487 -1.401445
6.156550 3.258350 -1.353981
48.600159 25.710747 4.810299
7.212028 3.813740 -1.292149
8.598559 4.543101 -1.194076
48.349682 25.535055 8.660213
10.056244 5.311032 -0.994970
14.055341 7.416814 -0.832874
4.738785 2.490030 -1.434375
5.378078 2.823555 -1.402345
6.164409 3.235017 -1.353217
48.576698 25.481699 4.799144
7.214799 3.783039 -1.290272
8.607334 4.509372 -1.193101
48.386017 25.338646 8.650827
10.069426 5.273127 -0.994447
14.056372 7.354739 -0.831409
4.744021 2.471689 -1.433340
5.374074 2.797565 -1.398746
6.175663 3.213480 -1.353217
48.587574 25.271536 4.791474
7.217446 3.752362 -1.288394
8.608928 4.471980 -1.191151
48.344444 25.102217 8.627675
10.080699 5.234271 -0.993750
14.057137 7.292755 -0.829944
4.759487 2.458659 -1.435410
5.369952 2.771640 -1.395146
6.169396 3.182901 -1.349401
48.501949 25.012297 4.774392
7.237523 3.730768 -1.289646
8.617426 4.438269 -1.190176
48.329906 24.880880 8.609529
10.097136 5.198141 -0.993575
14.054092 7.229021 -0.828269
4.757724 2.436745 -1.432305
5.396943 2.761755 -1.399645
6.183965 3.163132 -1.350165
48.489613 24.792061 4.764630
7.239948 3.700086 -1.287769
8.643473 4.413579 -1.191639
48.306587 24.666584 8.590756
10.108122 5.159237 -0.992878
14.068561 7.174485 -0.827641
4.761032 2.417500 -1.430752
5.395645 2.738552 -1.396946
6.184463 3.136201 -1.347875
48.497673 24.583000 4.756960
7.273321 3.686776 -1.291523
8.650978 4.381302 -1.190664
48.247879 24.424641 8.565101
10.108294 5.114924 -0.991135
14.063760 7.113365 -0.825966
4.775924 2.405175 -1.432822
5.415615 2.724957 -1.399645
50.433067 25.365211 2.958552
6.194828 3.115676 -1.347875
48.411602 24.337906 4.740575
7.282617 3.659589 -1.290897
8.666220 4.351075 -1.190664
48.233982 24.206444 8.547581
10.109172 5.073334 -0.989566
14.077795 7.058855 -0.825338
4.777378 2.385037 -1.430752
5.411144 2.699077 -1.396046
50.564205 25.210386 2.961064
6.212695 3.097536 -1.349401
48.449883 24.145699 4.736043
7.281201 3.627101 -1.288394
8.692015 4.326111 -1.192126
48.229744 23.993944 8.531937
10.123251 5.036243 -0.989218
14.048696 6.982998 -0.822198
4.783942 2.367490 -1.430234
5.422280 2.681034 -1.396496
6.223468 3.075832 -1.349401
48.401695 23.911112 4.723144
7.276107 3.592915 -1.285266
8.678580 4.281689 -1.188226
48.182114 23.760778 8.508784
10.138984 4.999991 -0.989043
14.037148 6.916271 -0.820105
4.797380 2.353328 -1.431787
5.433354 2.662952 -1.396946
6.220064 3.047178 -1.346348
48.402557 23.701696 4.715126
7.277956 3.562289 -1.283388
8.693475 4.251367 -1.188226
48.140514 23.531757 8.486883
10.158162 4.965452 -0.989218
14.046848 6.860214 -0.819267
4.800354 2.334032 -1.430234
5.439111 2.642265 -1.396046
6.227131 3.023731 -1.345585
48.305748 23.445608 4.697694
7.297457 3.540309 -1.284640
8.690398 4.212338 -1.185789
48.144150 23.325661 8.473117
10.143160 4.914323 -0.986080
14.041945 6.797220 -0.817592
48.080616 23.263805 12.331367
27.807867 13.448832 -0.539175
4.808471 2.317265 -1.430234
5.448301 2.623264 -1.396046
6.251799 3.008791 -1.348638
48.290352 23.230194 4.688282
7.306210 3.513101 -1.284014
8.715786 4.187133 -1.187251
48.107754 23.101017 8.452468
10.149478 4.873710 -0.985034
14.069189 6.749887 -0.817802
47.985825 23.011557 12.286377
27.829397 13.339587 -0.538686
4.806071 2.295469 -1.427128
5.439837 2.595836 -1.391547
6.251631 2.981876 -1.346348
48.288406 23.022057 4.680263
7.304162 3.480779 -1.281511
8.719594 4.151566 -1.185789
48.066380 22.885323 8.431819
10.162828 4.836541 -0.984686
14.042163 6.676717 -0.814871
47.939129 22.783697 12.253983
4.807070 2.275374 -1.425058
5.458984 2.582784 -1.394247
6.262002 2.960037 -1.346348
48.271194 22.807405 4.670850
7.294231 3.446413 -1.277757
8.733312 4.122629 -1.185789
48.067371 22.680298 8.418053
10.174245 4.798485 -0.984163
14.056994 6.626718 -0.814452
47.891026 22.566439 12.222490
4.825083 2.264344 -1.428164
5.460909 2.560402 -1.392447
6.261117 2.934255 -1.344059
48.209446 22.582960 4.657603
7.334842 3.434331 -1.282763
8.704496 4.071929 -1.179939
48.028141 22.457161 8.397404
10.209953 4.774004 -0.986080
14.043853 6.560699 -0.812359
47.849430 22.343075 12.191897
4.829453 2.245859 -1.427128
5.469813 2.541326 -1.392447
6.278445 2.915688 -1.345585
48.161484 22.355808 4.645401
7.336033 3.403720 -1.280886
8.751077 4.056545 -1.184326
48.013039 22.246201 8.381134
10.242825 4.745876 -0.987649
14.034046 6.496531 -0.810475
47.810398 22.121914 12.162204
4.833754 2.227371 -1.426093
5.489273 2.527105 -1.395146
6.274314 2.887193 -1.342532
48.163200 22.152599 4.638080
7.340691 3.374789 -1.279634
8.768789 4.027632 -1.184814
48.025772 22.048784 8.369870
10.250276 4.705935 -0.986777
14.042111 6.440845 -0.809637
47.844818 21.935385 12.151406
4.848529 2.213693 -1.428164
5.483876 2.501460 -1.391547
6.284355 2.865273 -1.342532
48.171341 21.952934 4.631456
7.345235 3.345870 -1.278383
8.761116 3.987130 -1.181889
10.263013 4.668478 -0.986429
14.046328 6.383523 -0.808591
47.814648 21.719872 12.124412
4.845667 2.191976 -1.425058
5.485472 2.479091 -1.389748
6.297898 2.844933 -1.343295
48.066078 21.702694 4.614025
7.346068 3.315334 -1.276505
8.774978 3.956530 -1.181889
10.297411 4.640808 -0.988172
14.028456 6.316422 -0.806288
47.762218 21.495262 12.092019
4.849763 2.173469 -1.424022
5.494092 2.459926 -1.389748
6.289870 2.814914 -1.339479
48.050613 21.494089 4.605309
7.343170 3.283218 -1.274002
8.788735 3.925873 -1.181889
10.309911 4.603208 -0.987823
14.054069 6.269039 -0.806497
47.715939 21.274437 12.061426
4.860852 2.158093 -1.425058
5.516895 2.447058 -1.393347
6.303247 2.794531 -1.340242
48.063419 21.298773 4.599383
7.354583 3.257571 -1.274002
8.824170 3.904807 -1.184814
10.344133 4.575258 -0.989566
14.053945 6.210252 -0.805241
47.675808 21.057388 12.032632
4.861280 2.138005 -1.422987
5.521835 2.426216 -1.392447
6.316557 2.774094 -1.341006
48.108276 21.118067 4.596594
7.365911 3.231877 -1.274002
8.801384 3.858044 -1.179939
10.429390 4.569503 -0.996190
14.057240 6.153151 -0.804194
47.684753 20.862709 12.016436
4.868714 2.121022 -1.422987
5.512402 2.399151 -1.387948
6.322602 2.750460 -1.340242
47.998993 20.870550 4.579163
7.369900 3.202997 -1.272751
8.836650 3.836783 -1.182864
10.511073 4.561627 -1.002465
14.045650 6.089740 -0.802310
47.621399 20.637228 11.982243
4.879637 2.105544 -1.424022
5.524323 2.381436 -1.388848
6.335771 2.729926 -1.341006
48.071548 20.702885 4.579163
7.373778 3.174126 -1.271500
8.817163 3.791800 -1.178477
10.589169 4.551657 -1.008392
14.030116 6.024916 -0.800217
47.650162 20.452435 11.971445
4.894062 2.091535 -1.426093
5.514680 2.354485 -1.384349
6.319982 2.697007 -1.335663
7.402986 3.156112 -1.274628
8.837648 3.764112 -1.179452
10.678321 4.545880 -1.015364
14.047383 5.974344 -0.800007
47.584972 20.228029 11.937252
4.879984 2.065402 -1.419881
5.543994 2.345297 -1.389748
6.347442 2.682570 -1.339479
7.413410 3.131547 -1.274628
8.839110 3.730152 -1.177989
10.734512 4.525608 -1.019199
14.063439 5.926174 -0.799798
47.594315 20.045923 11.922855
4.901059 2.055186 -1.424022
5.541362 2.321413 -1.387048
6.338193 2.653925 -1.335663
7.427940 3.107177 -1.275254
8.866731 3.705396 -1.179939
10.830352 4.523777 -1.026869
14.061922 5.867813 -0.798542
47.559673 19.836166 11.896761
4.890361 2.030658 -1.418846
37.694260 15.644311 0.712372
5.545832 2.300561 -1.386148
6.354672 2.634794 -1.337190
7.380342 3.057037 -1.265242
19.307766 7.993601 2.565837
8.875942 3.672906 -1.179452
10.890265 4.504217 -1.031052
14.012175 5.789713 -0.794565
47.524162 19.626875 11.870667
4.900993 2.015043 -1.419881
5.546618 2.278228 -1.384349
6.352934 2.608120 -1.334900
7.427519 3.046249 -1.271500
8.866665 3.632871 -1.176527
10.968609 4.491849 -1.036979
14.017511 5.734712 -0.793727
47.505802 19.425472 11.849072
4.900841 1.995008 -1.417811
5.565369 2.263256 -1.387048
6.362000 2.585927 -1.334900
7.427127 3.015843 -1.269622
8.864575 3.595931 -1.174577
10.976837 4.450537 -1.036282
14.022631 5.679758 -0.792890
47.522747 19.239040 11.836474
4.907774 1.977890 -1.417811
5.562388 2.239450 -1.384349
6.367344 2.562239 -1.334136
7.444942 2.992845 -1.270874
8.917601 3.581239 -1.179939
19.780357 7.939618 3.375856
10.970119 4.403285 -1.034190
18.924219 7.592149 3.963485
14.038666 5.629285 -0.792681
47.444912 19.015028 11.800483
4.918238 1.962177 -1.418846
5.573792 2.221464 -1.385249
6.383546 2.542902 -1.335663
7.466353 2.971226 -1.272751
8.874708 3.528086 -1.172627
19.756542 7.850112 3.367096
10.985418 4.364973 -1.034190
14.047093 5.575821 -0.792052
19.673519 7.805199 4.886386
4.928649 1.946420 -1.419881
5.570636 2.197702 -1.382549
6.377770 2.514847 -1.332610
7.458301 2.937903 -1.269622
8.890663 3.498542 -1.173114
18.735994 7.368977 3.188761
11.004298 4.328055 -1.034539
18.794043 7.388031 3.925323
14.029292 5.512149 -0.789959
4.928217 1.926389 -1.417811
5.581903 2.179662 -1.383449
6.397484 2.496850 -1.334900
7.468510 2.911853 -1.269622
8.910221 3.470366 -1.174089
18.864687 7.343665 3.206281
11.011911 4.286728 -1.033841
14.022388 5.453006 -0.788494
19.320665 7.509521 4.785609
4.942118 1.911961 -1.419881
37.192352 14.381194 0.696037
5.578572 2.155948 -1.380750
6.395173 2.470257 -1.332610
7.497059 2.892874 -1.272751
8.914271 3.437944 -1.173114
11.008218 4.241098 -1.032098
14.011509 5.392557 -0.786819
4.937608 1.891417 -1.416776
5.607531 2.145796 -1.386148
6.388661 2.443424 -1.329557
7.517682 2.872229 -1.274628
19.707584 7.525589 2.590211
8.936750 3.412611 -1.174577
11.014774 4.201731 -1.031401
19.602909 7.473860 4.077970
14.021852 5.343215 -0.786400
4.940239 1.873664 -1.415740
37.279430 14.131371 0.695897
5.596393 2.120283 -1.381649
6.404070 2.425010 -1.331084
7.504995 2.838895 -1.270874
19.684149 7.441956 2.583874
8.915180 3.368771 -1.170189
11.018190 4.159032 -1.030355
14.020806 5.289634 -0.785353
4.950692 1.856900 -1.416776
5.600110 2.099368 -1.380750
6.412916 2.401520 -1.331084
7.507948 2.808602 -1.269622
19.851311 7.426054 2.602398
8.952918 3.347361 -1.173602
11.036372 4.121943 -1.030704
19.584713 7.310742 4.063468
14.021387 5.231231 -0.784307
4.964387 1.842297 -1.418846
37.188362 13.793312 0.692337
5.596804 2.074763 -1.378050
19.819029 7.347012 1.107743
6.424942 2.380486 -1.331847
19.737762 7.309052 1.841426
7.539937 2.790603 -1.273377
19.606571 7.252700 2.566812
8.946508 3.307638 -1.171165
19.728655 7.293935 3.331429
11.046957 4.082010 -1.030355
13.998342 5.167036 -0.782004
19.425596 7.166480 4.780210
19.775940 7.295728 -0.367932
4.970788 1.824956 -1.418846
19.768600 7.257765 0.367583
5.599994 2.054850 -1.377150
19.773296 7.251657 1.103765
6.414780 2.351286 -1.328031
19.804316 7.255192 1.845261
7.545440 2.764227 -1.272751
19.761003 7.235414 2.583874
8.968612 3.282047 -1.172627
11.083593 4.051634 -1.032447
19.888479 7.270282 4.116132
14.000390 5.115107 -0.781167
19.816311 7.232141 -0.368211
4.973182 1.807141 -1.417811
37.131023 13.485250 0.689545
5.625450 2.041940 -1.381649
6.429924 2.332677 -1.329557
7.555043 2.737873 -1.272751
19.834669 7.183962 2.590211
8.987481 3.253421 -1.173602
11.030217 3.988527 -1.026172
19.311859 6.983170 3.991724
14.003136 5.060771 -0.780329
4.965227 1.783677 -1.413670
37.102596 13.328503 0.688148
5.632544 2.022290 -1.381649
6.442125 2.310421 -1.330320
7.553868 2.706168 -1.270874
8.972617 3.212663 -1.170189
19.487772 6.973798 3.278241
11.070337 3.959397 -1.028612
19.270769 6.888555 3.977986
14.002779 5.002697 -0.779282
4.975064 1.767626 -1.414705
37.139885 13.188420 0.687939
5.621553 1.995116 -1.377150
6.461254 2.291856 -1.332610
7.585613 2.687699 -1.274628
9.003045 3.186380 -1.172627
11.058476 3.909495 -1.026172
19.409460 6.861812 4.001647
14.008857 4.949798 -0.778654
4.981509 1.749381 -1.414705
27.936918 9.810745 0.516836
5.639516 1.979351 -1.379850
6.451083 2.261665 -1.328794
7.561854 2.648128 -1.268997
19.228056 6.733580 2.501490
8.980388 3.143128 -1.168240
19.913824 6.965920 3.341440
11.068292 3.869562 -1.025823
13.989195 4.885246 -0.776561
4.994279 1.736261 -1.416776
27.961739 9.715429 0.516696
5.646049 1.960638 -1.379850
6.447028 2.237527 -1.326504
7.592534 2.632117 -1.272751
19.614168 6.795853 2.548776
9.009520 3.119828 -1.170677
11.061569 3.828247 -1.024080
13.996922 4.838667 -0.776142
4.993001 1.716304 -1.414705
27.987915 9.615173 0.516556
5.638113 1.935858 -1.376251
6.451086 2.213732 -1.325741
7.594199 2.603041 -1.271500
19.757961 6.768514 2.564375
9.001575 3.081927 -1.168240
19.497265 6.671614 3.263849
11.071092 3.788329 -1.023731
13.998609 4.784607 -0.775305
4.995303 1.697625 -1.413670
5.648527 1.917417 -1.377150
6.458774 2.191202 -1.325741
7.565822 2.563835 -1.265242
19.416710 6.575974 2.517090
9.016037 3.051762 -1.168727
11.088024 3.750934 -1.024080
20.008101 6.764579 4.105446
14.007655 4.733160 -0.774886
5.004861 1.681407 -1.414705
5.651160 1.897433 -1.376251
6.466383 2.168645 -1.325741
7.570538 2.537474 -1.264616
19.344294 6.480027 2.504903
9.003518 3.014286 -1.165802
11.127502 3.721056 -1.026520
19.821884 6.628471 4.062706
13.989176 4.675290 -0.773002
5.006743 1.663581 -1.413670
5.639253 1.871558 -1.371752
6.488446 2.152132 -1.328794
7.575597 2.509791 -1.263991
9.040371 2.991569 -1.169215
11.113299 3.675374 -1.024080
13.994032 4.622667 -0.772374
5.005179 1.643682 -1.411599
5.656861 1.855508 -1.374451
6.477263 2.123353 -1.324978
20.115108 6.590184 1.851885
7.595576 2.487022 -1.265868
9.016795 2.948888 -1.164827
11.118484 3.634085 -1.023383
14.017676 4.576273 -0.772793
5.010886 1.626202 -1.411599
5.648473 1.830944 -1.370852
6.473430 2.097101 -1.322688
20.092499 6.505195 1.847702
7.570382 2.449545 -1.260236
9.042146 2.922277 -1.166777
11.104561 3.586676 -1.020942
14.041171 4.529764 -0.773212
5.023890 1.611061 -1.413670
5.673389 1.817159 -1.375351
6.480710 2.074493 -1.322688
7.578886 2.423106 -1.260236
9.037164 2.885867 -1.164827
11.124603 3.550317 -1.021640
14.034063 4.473441 -0.771955
5.029482 1.593516 -1.413670
5.657403 1.790287 -1.369952
6.487911 2.051860 -1.322688
7.572229 2.391874 -1.257733
9.054755 2.856691 -1.165802
11.125529 3.507866 -1.020594
14.041971 4.422029 -0.771537
5.035015 1.575949 -1.413670
5.671057 1.772856 -1.371752
6.502530 2.031540 -1.324215
7.565446 2.360722 -1.255230
9.049511 2.820338 -1.163852
11.152924 3.473752 -1.021988
14.030623 4.364677 -0.770071
5.029411 1.554939 -1.410564
5.669764 1.750748 -1.369952
6.505831 2.007671 -1.323451
7.592519 2.340115 -1.258359
9.059299 2.788739 -1.163852
11.138322 3.426594 -1.019548
14.103046 4.333282 -0.773212
5.034808 1.537374 -1.410564
5.690751 1.735497 -1.373551
6.494019 1.979226 -1.319635
7.600642 2.313596 -1.258359
9.042389 2.749013 -1.160440
11.157841 3.390007 -1.020245
14.087508 4.274744 -0.771537
5.040144 1.519789 -1.410564
5.681847 1.711125 -1.369952
6.504649 1.957676 -1.320398
7.597319 2.283645 -1.256482
9.067139 2.722001 -1.162390
11.139655 3.339936 -1.017456
14.106171 4.226686 -0.771746
5.045681 1.501307 -1.410564
5.669106 1.685726 -1.365453
6.515544 1.934941 -1.321162
7.598062 2.253538 -1.255230
9.080393 2.691460 -1.162877
11.158884 3.303301 -1.018153
47.012329 13.907844 9.529765
14.148382 4.182887 -0.773212
5.043476 1.481505 -1.408493
5.686466 1.668229 -1.368152
6.522259 1.912184 -1.321162
7.605883 2.227000 -1.255230
9.071143 2.652591 -1.160440
11.155049 3.259855 -1.016759
14.281766 4.168170 -0.779701
5.048616 1.463895 -1.408493
5.691967 1.649361 -1.368152
6.525121 1.888319 -1.320398
7.605637 2.199569 -1.253979
9.068445 2.619192 -1.158978
11.158704 3.218685 -1.016062
14.372275 4.142911 -0.783888
5.034872 1.441825 -1.403317
5.690196 1.627340 -1.366353
6.535123 1.867748 -1.321162
7.636062 2.179511 -1.257733
9.088988 2.590784 -1.160440
11.150155 3.176203 -1.014318
14.451963 4.111301 -0.787447
46.692886 13.274381 11.207062
5.047310 1.426342 -1.405388
5.710563 1.612700 -1.369952
6.518929 1.838528 -1.316582
7.620431 2.147752 -1.253979
9.086065 2.557400 -1.158978
11.153501 3.135108 -1.013621
14.511667 4.076313 -0.789959
5.048290 1.408559 -1.404352
5.712404 1.591709 -1.369052
6.543902 1.822168 -1.320398
7.620269 2.119019 -1.252727
9.071983 2.519296 -1.156053
11.179194 3.102369 -1.015016
14.475765 4.011767 -0.787238
27.079746 7.494617 -0.490448
5.068077 1.395031 -1.408493
5.706651 1.568659 -1.366353
6.550223 1.799315 -1.320398
7.654290 2.099721 -1.257107
9.096040 2.491807 -1.158003
11.182270 3.061219 -1.014318
14.466562 3.954889 -0.785981
46.639111 12.741517 11.162071
5.069187 1.376318 -1.407458
27.364365 7.424479 0.494915
5.704569 1.546691 -1.364553
6.541305 1.772331 -1.317345
7.642505 2.067832 -1.253979
9.077852 2.452794 -1.154590
11.189039 3.021131 -1.013970
14.511133 3.912690 -0.787656
5.055299 1.353619 -1.402282
27.459656 7.347528 0.496172
5.724994 1.530794 -1.368152
6.543657 1.748474 -1.316582
7.642042 2.039103 -1.252727
9.063340 2.414960 -1.151665
11.191817 2.980002 -1.013273
14.513120 3.858936 -0.787028
46.538586 12.365561 11.117081
5.078672 1.340895 -1.407458
5.718995 1.507824 -1.365453
6.545925 1.724620 -1.315819
7.641470 2.010409 -1.251476
9.113955 2.394403 -1.157028
11.163606 2.930806 -1.009786
14.511045 3.804196 -0.786191
5.079583 1.322184 -1.406423
5.720452 1.486870 -1.364553
6.559506 1.703732 -1.317345
7.656090 1.985705 -1.252727
9.118414 2.361581 -1.156540
11.177627 2.892816 -1.010135
14.504900 3.748526 -0.785144
5.069196 1.300608 -1.402282
5.729383 1.467858 -1.365453
6.573019 1.682777 -1.318872
7.655320 1.957009 -1.251476
9.095827 2.321879 -1.152640
11.187657 2.853778 -1.010135
14.498542 3.692938 -0.784097
5.081197 1.284798 -1.404352
27.753447 7.012385 0.499662
5.734472 1.447851 -1.365453
6.544589 1.651176 -1.312003
7.658273 1.929312 -1.250850
9.119278 2.293986 -1.154590
11.166635 2.806939 -1.007346
14.519094 3.644247 -0.784516
5.074403 1.264252 -1.401246
5.728144 1.425001 -1.362753
6.557933 1.630217 -1.313529
7.657293 1.900662 -1.249599
9.111814 2.258326 -1.152640
11.160894 2.764109 -1.005952
14.512335 3.588759 -0.783469
46.558121 11.504725 11.072091
5.063777 1.242846 -1.397105
5.740409 1.407856 -1.364553
6.567399 1.608248 -1.314292
7.636691 1.868688 -1.245219
9.111540 2.226210 -1.151665
11.189830 2.729858 -1.007695
14.508635 3.536827 -0.782632
5.075381 1.227865 -1.399176
5.737710 1.385980 -1.362753
6.561244 1.583698 -1.312003
7.647007 1.842946 -1.245844
9.138556 2.199033 -1.154103
11.168294 2.683336 -1.004906
46.715324 11.223999 9.338956
14.524776 3.487089 -0.782841
46.540600 11.164840 11.049596
5.087364 1.211043 -1.401246
5.746306 1.366844 -1.363653
6.574646 1.561452 -1.313529
7.661400 1.816727 -1.247096
9.115271 2.159800 -1.150203
11.181471 2.645250 -1.005254
46.687363 11.036431 9.325217
14.525798 3.431078 -0.782213
46.486382 10.971789 11.027101
5.076514 1.189752 -1.397105
5.755072 1.346663 -1.364553
6.564763 1.534919 -1.310476
7.690778 1.795363 -1.250850
9.134725 2.129077 -1.151665
11.190636 2.606205 -1.005254
14.572702 3.388491 -0.784097
5.088165 1.173763 -1.399176
5.744314 1.324068 -1.360954
6.573906 1.512876 -1.311239
7.673589 1.764536 -1.247096
9.130127 2.096110 -1.150203
11.188014 2.564453 -1.004208
14.564390 3.335692 -0.783051
27.289389 6.240083 -0.488632
5.073192 1.152602 -1.393999
5.752702 1.304872 -1.361854
6.578888 1.491066 -1.311239
7.675848 1.736869 -1.246470
9.141259 2.065104 -1.150690
11.196457 2.527335 -1.004208
14.564254 3.282201 -0.782423
27.314907 6.145657 -0.488702
5.069643 1.133199 -1.391929
5.742006 1.281389 -1.358254
6.587885 1.468945 -1.312003
7.693432 1.712642 -1.248347
9.160040 2.035764 -1.152153
11.201320 2.487381 -1.003860
14.544425 3.224422 -0.780748
27.410383 6.066700 -0.490029
5.073567 1.115497 -1.391929
5.754058 1.263007 -1.360054
6.592973 1.445938 -1.312003
46.779099 10.250829 4.189751
7.699364 1.685774 -1.248347
9.139939 1.997845 -1.148741
11.213827 2.449113 -1.004208
14.567299 3.176188 -0.781376
27.517370 5.989689 -0.491565
5.081207 1.098598 -1.392964
5.743193 1.239623 -1.356455
6.586464 1.420437 -1.309713
7.693615 1.656391 -1.246470
9.162384 1.969263 -1.150690
11.214517 2.408278 -1.003511
14.578298 3.125316 -0.781376
5.069893 1.077639 -1.388823
37.063606 7.871373 0.661376
5.743672 1.218760 -1.355555
6.583700 1.395807 -1.308187
46.724773 9.897597 4.178595
7.687754 1.627073 -1.244593
9.142013 1.931521 -1.147278
11.218955 2.368297 -1.003163
14.557851 3.067816 -0.779701
5.069842 1.059147 -1.387788
5.755523 1.200294 -1.357355
6.600065 1.375221 -1.310476
7.693388 1.600226 -1.244593
9.125373 1.894761 -1.144353
11.199841 2.323452 -1.000722
14.564556 3.016180 -0.779492
5.084863 1.043773 -1.390894
5.744404 1.177070 -1.353755
6.600978 1.351385 -1.309713
7.683442 1.570202 -1.242090
9.166944 1.870036 -1.148741
11.192265 2.281168 -0.999328
14.535853 2.957355 -0.777398
5.084688 1.025252 -1.389858
5.756120 1.158548 -1.355555
6.613354 1.329881 -1.311239
46.728188 9.388124 4.169879
7.696624 1.544926 -1.243341
9.150058 1.833348 -1.145816
11.215788 2.245211 -1.000722
14.506917 2.898773 -0.775305
5.076865 1.005249 -1.386752
5.748659 1.136180 -1.352856
6.579434 1.299187 -1.303607
7.709723 1.519576 -1.244593
9.167774 1.805293 -1.147278
11.219648 2.205276 -1.000374
14.516948 2.848113 -0.775305
5.076378 0.987668 -1.385717
5.752395 1.117111 -1.352856
6.599125 1.280351 -1.306660
7.718598 1.494754 -1.245219
9.165913 1.773376 -1.146303
46.516418 8.991345 7.503850
11.207337 2.164277 -0.998630
14.502778 2.795424 -0.774049
5.087215 0.972281 -1.387788
5.756067 1.098031 -1.352856
6.599477 1.257723 -1.305897
46.527248 8.858713 4.143733
7.688581 1.462507 -1.239587
9.156446 1.738405 -1.144353
11.210909 2.124403 -0.998282
14.539443 2.752513 -0.775514
5.090745 0.953627 -1.387788
5.744541 1.075062 -1.349256
46.664265 8.724556 2.487947
6.600183 1.232807 -1.305134
46.559402 8.688132 4.143733
7.717194 1.438659 -1.243341
9.174168 1.708615 -1.145816
11.226091 2.086716 -0.998979
14.521940 2.694107 -0.774049
5.094043 0.935850 -1.387788
5.752276 1.054704 -1.350156
46.695934 8.553453 2.487947
6.596722 1.208344 -1.303607
46.589447 8.525544 4.143733
7.718281 1.411003 -1.242715
9.133500 1.666425 -1.139966
11.190185 2.039659 -0.995144
14.523396 2.641966 -0.773630
5.093476 0.917381 -1.386752
5.748251 1.033238 -1.348357
46.599689 8.367820 2.481248
6.597035 1.184617 -1.302844
46.520870 8.345285 4.135017
7.719272 1.383354 -1.242090
9.162710 1.638729 -1.142891
11.201159 2.001283 -0.995493
14.548259 2.594062 -0.774468
5.077623 0.896237 -1.381576
5.763338 1.015196 -1.351056
6.589528 1.159542 -1.300554
7.731835 1.357769 -1.243341
9.168375 1.606733 -1.142891
11.219852 1.964230 -0.996539
14.557226 2.543259 -0.774468
5.084528 0.879164 -1.382612
5.763006 0.994408 -1.350156
46.586117 8.030074 2.477480
6.578058 1.133863 -1.297501
7.717061 1.327421 -1.240213
9.181753 1.576069 -1.143866
11.207003 1.921689 -0.994796
14.534515 2.487050 -0.772793
5.098994 0.863347 -1.385717
5.754913 0.972336 -1.347457
46.515392 7.850800 2.472246
6.597463 1.113510 -1.300554
7.729439 1.301785 -1.241464
9.159792 1.539401 -1.140453
11.197925 1.879915 -0.993401
46.221355 7.751403 9.109985
14.523410 2.432996 -0.771746
5.113411 0.847436 -1.388823
5.762117 0.952882 -1.348357
46.443985 7.672095 2.467012
6.628428 1.094952 -1.305897
7.722240 1.272874 -1.239587
9.145522 1.504194 -1.138016
46.360825 7.616827 7.441275
11.220144 1.843408 -0.994796
14.519990 2.380342 -0.771118
46.174232 7.561346 10.802149
5.112525 0.828967 -1.387788
5.765408 0.932761 -1.348357
6.589571 1.064915 -1.297501
7.746139 1.249053 -1.242715
9.142878 1.471001 -1.137041
46.387131 7.454939 7.441275
11.222577 1.803596 -0.994447
46.274345 7.428506 9.109985
14.504546 2.325852 -0.769862
46.200348 7.400110 10.802149
5.092491 0.807484 -1.381576
5.753230 0.910195 -1.344757
46.567436 7.358913 2.470781
6.581612 1.040073 -1.295211
7.742646 1.220778 -1.241464
9.144034 1.438458 -1.136554
11.181567 1.756985 -0.990264
46.299992 7.266965 9.109985
14.492846 2.272110 -0.768815
5.099097 0.790294 -1.382612
5.764076 0.891297 -1.346557
6.581323 1.016491 -1.294448
7.742956 1.193139 -1.240838
9.160771 1.408342 -1.138016
11.187632 1.717946 -0.990264
46.228046 7.090409 9.090904
14.512532 2.223325 -0.769443
5.101824 0.772491 -1.382612
5.759293 0.871013 -1.344757
46.545353 7.031005 2.467012
6.596478 0.995271 -1.296738
7.742963 1.166869 -1.240213
9.173244 1.379139 -1.138991
46.266094 6.947556 7.409989
11.229028 1.684200 -0.993401
46.154228 6.922499 9.071823
14.468469 2.167496 -0.766722
5.104358 0.755567 -1.382612
5.773865 0.852610 -1.347457
46.470818 6.853928 2.461779
6.607512 0.974534 -1.298265
7.731355 1.137532 -1.237710
46.375904 6.815123 5.755402
9.158362 1.344225 -1.136554
46.192337 6.771676 7.394345
11.179354 1.638864 -0.988520
46.061558 6.744293 9.048926
14.471995 2.116397 -0.766513
46.105167 6.734241 10.757159
5.110788 0.738298 -1.383647
5.776806 0.832452 -1.347457
46.395615 6.677457 2.456545
6.579782 0.946991 -1.292159
7.727458 1.109416 -1.236458
46.257931 6.632922 5.737853
9.141384 1.309150 -1.133873
46.098370 6.593622 7.375573
11.192895 1.600962 -0.989218
46.007084 6.572350 9.033662
14.467432 2.064171 -0.765884
5.105682 0.719377 -1.381576
5.775817 0.811738 -1.346557
46.418640 6.515475 2.456545
6.575270 0.922927 -1.290632
7.746934 1.084625 -1.238961
9.145897 1.277234 -1.133873
46.042843 6.421741 7.363058
11.178682 1.559126 -0.987475
14.474548 2.013661 -0.765884
5.096679 0.699972 -1.378470
5.778615 0.791573 -1.346557
6.605683 0.903693 -1.295975
7.723270 1.053839 -1.234581
9.173903 1.248511 -1.136797
11.174185 1.518757 -0.986603
14.457741 1.959899 -0.764628
5.110580 0.683712 -1.381576
5.769753 0.769849 -1.343858
46.461914 6.199340 2.456545
6.608798 0.880628 -1.295975
7.711237 1.024789 -1.232078
9.178205 1.216487 -1.136797
11.187320 1.480785 -0.987300
14.488253 1.912567 -0.765884
5.120599 0.666868 -1.383647
5.764545 0.749708 -1.342058
46.356514 6.020644 2.449846
6.611832 0.857555 -1.295975
7.710674 0.998706 -1.231452
9.142814 1.180956 -1.131922
11.188469 1.441213 -0.986952
14.450935 1.858902 -0.763582
5.118948 0.649398 -1.382612
5.767127 0.729582 -1.342058
46.305912 5.849813 2.446078
6.587370 0.832181 -1.290632
7.706275 0.970795 -1.230201
45.400539 5.711290 5.618421
9.119306 1.145568 -1.128510
45.248917 5.676152 7.222893
11.181324 1.402617 -0.985906
45.283905 5.672535 8.871092
14.461301 1.808939 -0.763791
5.105845 0.629633 -1.378470
5.773507 0.709921 -1.342958
46.326050 5.688128 2.446078
6.598030 0.810137 -1.292159
7.705695 0.943411 -1.229575
45.294098 5.537350 5.602822
9.142953 1.116140 -1.130948
45.248848 5.515789 7.219764
11.174286 1.362134 -0.984860
45.221581 5.504455 8.855064
14.459596 1.757481 -0.763372
45.098095 5.473451 10.488117
5.108012 0.611808 -1.378470
5.783689 0.690686 -1.344757
6.585221 0.785242 -1.289106
7.712864 0.916972 -1.230201
45.297379 5.377347 5.600872
9.154679 1.085151 -1.131922
11.182930 1.323586 -0.985209
14.437873 1.703730 -0.761907
45.190468 5.324648 10.505214
5.121631 0.595311 -1.381576
5.770579 0.668702 -1.341158
6.584022 0.761797 -1.288342
7.712093 0.889596 -1.229575
45.288261 5.216004 5.597459
9.138691 1.050918 -1.129485
11.171646 1.282726 -0.983814
14.447701 1.653773 -0.762116
45.135208 5.158473 10.488117
5.115999 0.576562 -1.379506
36.585518 4.116663 0.642633
5.761259 0.647248 -1.338459
6.602249 0.740559 -1.291395
7.711225 0.862229 -1.228949
45.247013 5.051268 5.590147
9.130466 1.017694 -1.128023
11.176055 1.243724 -0.983814
14.441476 1.602013 -0.761488
45.098705 4.994893 10.475520
5.117980 0.558704 -1.379506
36.598965 3.995326 0.642633
5.763373 0.628138 -1.338459
6.593084 0.716238 -1.289106
7.690475 0.834095 -1.225195
45.224041 4.896931 5.585272
9.110107 0.984848 -1.125098
11.172405 1.203848 -0.983117
14.446710 1.554110 -0.761488
45.072399 4.840723 10.465623
5.104435 0.540102 -1.375364
36.612690 3.867538 0.642633
5.765531 0.608018 -1.338459
6.583707 0.693138 -1.286816
7.712986 0.809308 -1.228324
45.268494 4.741944 5.588685
9.105592 0.952218 -1.124123
11.184262 1.167622 -0.983814
14.436153 1.502022 -0.760651
45.089020 4.683349 10.465623
5.121665 0.523852 -1.379506
5.779251 0.589072 -1.341158
46.239464 4.704983 2.435820
6.601712 0.671741 -1.289869
7.696111 0.780385 -1.225195
45.257126 4.581089 5.585272
9.085160 0.918035 -1.121198
45.176758 4.557024 7.191607
11.152589 1.124972 -0.980676
45.072208 4.538531 8.805454
14.397588 1.447229 -0.758348
5.115772 0.505212 -1.377435
5.757998 0.566607 -1.335759
6.604017 0.648694 -1.289869
7.683061 0.751978 -1.222692
45.114784 4.407651 5.565773
9.108067 0.888241 -1.123635
45.153069 4.395481 7.185349
11.164379 1.086810 -0.981374
45.064323 4.378903 8.800875
14.394600 1.396188 -0.757929
45.023632 4.359086 10.443128
5.113657 0.486984 -1.376400
5.775462 0.547978 -1.339359
6.610150 0.626006 -1.290632
7.701372 0.726641 -1.225195
45.236618 4.260183 5.578936
9.099254 0.855325 -1.122173
45.168137 4.237850 7.185349
11.176040 1.048579 -0.982071
45.102795 4.223757 8.805454
14.399386 1.345930 -0.757929
45.038570 4.201907 10.443128
5.130716 0.470546 -1.380541
5.769577 0.527104 -1.337559
6.600564 0.601864 -1.288342
7.703861 0.699751 -1.225195
45.302616 4.106921 5.585272
9.070552 0.820697 -1.118273
11.179632 1.009559 -0.982071
14.400019 1.295303 -0.757720
5.109235 0.450596 -1.374329
5.794677 0.509008 -1.342958
6.590890 0.577789 -1.286053
7.690514 0.671483 -1.222692
45.387867 3.954973 5.594047
9.075338 0.789200 -1.118517
11.143390 0.967085 -0.978585
14.408432 1.245370 -0.757929
45.260963 3.904123 10.488117
5.103002 0.432996 -1.372259
5.788565 0.489134 -1.341158
6.592770 0.555928 -1.286053
7.680887 0.644986 -1.220815
45.456127 3.809069 5.600872
9.073950 0.758772 -1.118029
11.146535 0.930129 -0.978585
14.364714 1.193617 -0.755417
5.127588 0.417058 -1.378470
46.254841 3.754088 0.810036
5.782468 0.468295 -1.339359
46.128124 3.727575 2.425353
6.602498 0.533542 -1.287579
7.683092 0.618169 -1.220815
45.540375 3.656081 5.609646
9.084457 0.727729 -1.119004
11.151699 0.891371 -0.978759
14.360828 1.142836 -0.754999
45.476868 3.611068 10.532208
5.129013 0.399161 -1.378470
5.764638 0.446603 -1.334860
6.600405 0.510194 -1.286816
46.034939 3.550275 4.039495
7.689142 0.591647 -1.221440
45.552860 3.497125 5.609646
9.071108 0.694799 -1.117054
11.126931 0.850310 -0.976319
14.360747 1.092394 -0.754789
45.489197 3.452290 10.532208
5.126522 0.380967 -1.377435
5.781710 0.427627 -1.338459
6.594314 0.486571 -1.285290
7.687221 0.564516 -1.220815
9.065558 0.662553 -1.116079
45.656193 3.328757 7.250426
11.113935 0.810308 -0.974924
45.572399 3.314652 8.881777
14.352522 1.041388 -0.754161
45.598152 3.300526 10.554704
5.123966 0.362798 -1.376400
36.126488 2.551568 0.632161
5.783167 0.407441 -1.338459
6.599889 0.463827 -1.286053
7.677321 0.536850 -1.218938
45.825680 3.196425 5.640357
9.087620 0.632284 -1.118517
45.750301 3.175099 7.263566
11.096819 0.770126 -0.973181
45.697289 3.163428 8.903912
14.336143 0.989916 -0.753114
5.113636 0.344130 -1.373294
36.035416 2.418742 0.630416
5.768999 0.386211 -1.334860
6.601469 0.440784 -1.286053
7.659438 0.508740 -1.215809
45.903904 3.040893 5.648644
9.069963 0.599248 -1.116079
45.768993 3.015910 7.264817
11.083535 0.730340 -0.971786
45.653202 3.000278 8.893226
14.355456 0.940909 -0.753952
45.717308 2.988466 10.577198
5.122518 0.326769 -1.375364
5.770312 0.366072 -1.334860
6.599048 0.417488 -1.285290
7.684824 0.483491 -1.219563
45.846882 2.876401 5.640357
9.067939 0.568916 -1.115592
45.810284 2.866101 7.269824
11.086017 0.691650 -0.971786
45.675152 2.841620 8.895516
14.326757 0.888817 -0.752277
5.131287 0.310250 -1.377435
36.350456 2.191451 0.635652
5.759823 0.346232 -1.332160
45.995739 2.764877 2.414886
6.600396 0.395607 -1.285290
7.670610 0.457062 -1.217060
45.804642 2.721300 5.634020
9.061849 0.538374 -1.114617
45.764324 2.710890 7.261063
11.076316 0.654175 -0.970741
45.688244 2.690380 8.896278
14.329626 0.841299 -0.752277
5.124572 0.292790 -1.375364
5.764831 0.327352 -1.333060
45.857548 2.595962 2.407140
6.601672 0.373716 -1.285290
7.679973 0.432068 -1.218312
45.813416 2.569401 5.634020
9.059709 0.506519 -1.114130
45.745895 2.549575 7.256682
11.074447 0.617217 -0.970392
45.622425 2.534728 8.881777
14.348290 0.794662 -0.753114
5.129422 0.275106 -1.376400
5.781506 0.308058 -1.336659
45.890263 2.437132 2.408396
6.579410 0.349418 -1.280710
7.681435 0.405259 -1.218312
45.822105 2.409454 5.634020
9.061421 0.474889 -1.114130
45.715061 2.387847 7.250426
11.048678 0.577109 -0.967952
45.705498 2.379327 8.896278
14.299117 0.741878 -0.750393
5.114915 0.256426 -1.372259
5.774761 0.287486 -1.334860
45.872559 2.275653 2.407035
6.615884 0.328202 -1.287579
7.686748 0.378636 -1.218938
45.703342 2.243250 5.618421
9.070955 0.443646 -1.115105
45.687607 2.226514 7.244794
11.050719 0.536601 -0.967952
45.639011 2.216140 8.881777
14.349499 0.694280 -0.752905
5.127399 0.238214 -1.375364
36.001678 1.672603 0.629089
5.767942 0.266964 -1.333060
45.904163 2.116628 2.408292
6.609199 0.303589 -1.286053
7.692031 0.350642 -1.219563
45.766418 2.086264 5.625246
9.072449 0.411977 -1.115105
45.695103 2.067009 7.244794
11.092332 0.499825 -0.971438
45.646824 2.048860 8.881777
14.316031 0.640072 -0.751021
5.120479 0.219986 -1.373294
35.939640 1.537741 0.627903
5.749412 0.244993 -1.328561
45.835445 1.953136 2.404314
6.598449 0.280022 -1.283763
7.657683 0.322292 -1.213932
45.773762 1.918474 5.625246
9.054063 0.377896 -1.112667
45.662563 1.905853 7.238536
11.082066 0.460603 -0.970392
45.614468 1.887874 8.874146
14.286250 0.588783 -0.749346
45.581642 1.870601 10.532208
5.125077 0.202262 -1.374329
35.932552 1.418086 0.627693
5.769665 0.226690 -1.333060
45.841984 1.793138 2.404314
6.587615 0.256527 -1.281473
7.662657 0.297047 -1.214557
45.724327 1.764560 5.618421
9.063202 0.348176 -1.113642
45.668938 1.746437 7.238536
11.063695 0.421161 -0.968649
14.272158 0.540803 -0.748509
5.102552 0.184427 -1.368118
35.933285 1.292496 0.627623
5.766527 0.206413 -1.332160
45.792076 1.631106 2.401383
6.584506 0.234539 -1.280710
7.675493 0.270721 -1.216435
45.658791 1.602423 5.609646
9.068330 0.316674 -1.114130
11.061116 0.382398 -0.968300
14.230044 0.489466 -0.746206
5.114779 0.166101 -1.371223
35.909595 1.166157 0.627135
5.763317 0.186156 -1.331260
45.781525 1.470727 2.400546
6.601019 0.210907 -1.283763
7.648791 0.241708 -1.212054
45.664104 1.443022 5.609646
9.069380 0.285020 -1.114130
11.046453 0.343287 -0.966906
14.239728 0.437556 -0.746625
5.130775 0.148693 -1.375364
35.897644 1.034064 0.626856
5.767856 0.165144 -1.332160
45.758656 1.302134 2.399081
6.601715 0.187862 -1.283763
7.633792 0.214568 -1.209551
45.613529 1.274104 5.602822
9.074332 0.251885 -1.114617
11.043599 0.304619 -0.966557
14.201239 0.386756 -0.744531
5.115814 0.130389 -1.371223
35.885040 0.908354 0.626576
5.748916 0.144518 -1.327661
45.790874 1.143106 2.400546
6.602331 0.164818 -1.283763
7.650292 0.188307 -1.212054
45.673264 1.116221 5.609646
9.043405 0.219439 -1.110717
11.076465 0.266837 -0.969346
14.186528 0.336806 -0.743694
5.135551 0.112957 -1.376400
35.891991 0.783164 0.626646
5.772765 0.124957 -1.333060
45.742668 0.982132 2.397824
6.595015 0.141600 -1.282236
45.691071 0.973046 3.998357
7.643003 0.161436 -1.210803
45.613373 0.955464 5.601847
9.048084 0.187950 -1.111205
11.053425 0.227682 -0.967254
14.183624 0.287199 -0.743485
5.108873 0.094528 -1.369153
35.870514 0.657440 0.626227
5.769269 0.104733 -1.332160
45.729847 0.822177 2.396987
6.571914 0.118156 -1.277657
45.638412 0.812566 3.993476
7.647470 0.134824 -1.211429
45.580700 0.795623 5.597459
9.044716 0.156299 -1.110717
11.050169 0.189025 -0.966906
14.004812 0.234678 -0.734064
5.120762 0.076869 -1.372259
35.836597 0.531681 0.625599
5.761806 0.084478 -1.330361
45.672405 0.669636 2.393847
6.584064 0.095387 -1.279947
45.569252 0.652214 3.987201
7.632093 0.107903 -1.208926
45.599083 0.636744 5.599410
9.069003 0.126639 -1.113642
11.018885 0.150015 -0.964117
14.045487 0.186317 -0.736158
5.101671 0.059661 -1.367082
35.818169 0.412617 0.625250
5.758157 0.065328 -1.329461
6.596123 0.073683 -1.282236
7.648211 0.082766 -1.211429
45.561241 0.485093 5.594534
9.053493 0.096393 -1.111692
45.502285 0.476523 7.207250
11.015337 0.113436 -0.963768
45.415600 0.459761 8.828351
13.998096 0.139265 -0.733645
45.426785 0.451946 10.488117
5.128886 0.042970 -1.374329
35.811340 0.293762 0.625110
5.742752 0.046108 -1.325861
6.584552 0.051718 -1.279947
7.644493 0.057375 -1.210803
45.562599 0.334013 5.594534
9.037883 0.066255 -1.109742
45.503613 0.325617 7.207250
11.027607 0.076987 -0.964814
45.373684 0.308870 8.819956
13.978510 0.092709 -0.732599
5.117410 0.025902 -1.371223
35.792122 0.174915 0.624761
5.754566 0.027121 -1.328561
6.568982 0.029809 -1.276894
7.640691 0.032009 -1.210177
45.563457 0.182907 5.594534
9.042024 0.036298 -1.110230
45.504444 0.174729 7.207250
11.027802 0.040425 -0.964814
45.327343 0.158227 8.810797
13.974746 0.046344 -0.732389
45.233910 0.150006 10.443128
5.125199 0.006263 -1.373294
35.776535 0.037457 0.624482
5.758525 0.005027 -1.329461
6.576901 0.004593 -1.278420
7.628905 0.002665 -1.208300
45.540005 0.007962 5.591610
9.046066 -0.000000 -1.110717
45.406013 -0.007925 7.191607
11.007951 -0.003843 -0.963071
45.425777 -0.015857 8.829877
14.002782 -0.007332 -0.733855
45.331585 -0.031647 10.465623
5.098142 -0.012457 -1.366047
35.768448 -0.087399 0.624342
5.758508 -0.015076 -1.329461
6.584726 -0.019537 -1.279947
7.628863 -0.025298 -1.208300
45.539757 -0.151016 5.591610
9.049980 -0.031591 -1.111205
45.421509 -0.166479 7.194109
11.015841 -0.042298 -0.963768
45.299767 -0.181846 8.805454
14.014644 -0.058705 -0.734483
5.113521 -0.030345 -1.370188
35.743889 -0.218350 0.623923
5.746721 -0.036108 -1.326761
6.584618 -0.042522 -1.279947
7.616877 -0.051847 -1.206423
45.487282 -0.317566 5.585272
9.045835 -0.064732 -1.110717
45.385036 -0.332696 7.188478
11.023595 -0.080809 -0.964465
45.298859 -0.339970 8.805454
13.978405 -0.107349 -0.732599
45.330200 -0.356030 10.465623
5.113384 -0.048194 -1.370188
5.734869 -0.056053 -1.324062
6.580503 -0.065467 -1.279184
7.600847 -0.078272 -1.203920
45.434288 -0.475804 5.578936
9.017763 -0.096011 -1.107305
45.403355 -0.491331 7.191607
10.975431 -0.118770 -0.960282
45.297394 -0.498091 8.805454
13.985933 -0.156231 -0.733017
5.105458 -0.065943 -1.368118
5.734638 -0.076072 -1.324062
45.873005 -0.608518 2.404314
6.540973 -0.087910 -1.271551
7.612378 -0.104967 -1.205797
45.460144 -0.634785 5.582348
9.025313 -0.127601 -1.108280
45.361969 -0.641332 7.185349
11.006824 -0.157537 -0.963071
