# This PCD file was generated using the MATLAB® pcwrite function
# from Computer Vision Toolbox®.
# .PCD v.7 - Point Cloud Data file format
VERSION .7
FIELDS x y z
SIZE 4 4 4
TYPE F F F
COUNT 1 1 1
WIDTH 1612
HEIGHT 1
VIEWPOINT 0 0 0 1 0 0 0
POINTS 1612
DATA ascii
-3.037492 -7.384135 -1.264616
-3.568975 -8.671872 1.151422
-0.484480 -1.176602 -0.156237
-3.568065 -8.661065 1.483625
-3.568431 -8.657663 -0.819264
-3.556657 -8.624825 1.813449
-3.576372 -8.668342 -0.491435
-3.549695 -8.603681 2.148732
-3.573858 -8.657958 -0.163494
-3.549931 -8.595741 2.491910
-3.592027 -8.659097 0.163634
-3.595265 -8.658360 0.491330
-0.482050 -1.160335 -0.244236
-3.598708 -8.662383 0.820658
-3.044823 -7.325527 -1.256482
-3.597687 -8.651402 1.150447
-0.478114 -1.149160 -0.152824
-3.602822 -8.655223 1.484876
-3.617756 -8.686828 -0.823273
-3.595796 -8.629853 1.817265
-3.602740 -8.642271 -0.490702
-3.586454 -8.603204 2.151882
-3.607875 -8.650339 -0.163599
-3.584388 -8.589804 2.493980
-3.626832 -8.653250 0.163773
-3.626239 -8.647600 0.491435
-0.504326 -1.202094 -0.253394
-3.633518 -8.656485 0.821356
-3.067063 -7.303390 -1.254605
-3.633986 -8.649137 1.151909
-0.473091 -1.125440 -0.149899
-3.637604 -8.653522 1.486753
-3.638016 -8.650271 -0.821007
-3.631990 -8.631727 1.820318
-3.637534 -8.640688 -0.491330
-3.618719 -8.591798 2.152332
-3.646587 -8.657965 -0.163983
-3.619601 -8.589702 2.497604
-3.660962 -8.654067 0.164018
-3.662633 -8.649603 0.492272
-3.667601 -8.652919 0.822227
-3.090495 -7.291360 -1.254292
-3.669622 -8.653486 1.154103
-0.467517 -1.101936 -0.146974
-3.669333 -8.644407 1.487379
-3.686101 -8.679699 -0.825016
-3.659825 -8.617827 1.819936
-3.672416 -8.643283 -0.492167
-3.651765 -8.590510 2.155031
-3.676787 -8.645184 -0.163983
-3.654101 -8.587681 2.500710
-3.698217 -8.657785 0.164332
-0.438812 -1.026793 -0.257794
-3.697514 -8.647784 0.492900
-3.695491 -8.638878 0.822053
-3.117481 -7.284160 -1.254917
-3.702932 -8.647923 1.155078
-0.486994 -1.136791 -0.151849
-3.705710 -8.646070 1.489882
-3.700736 -8.634464 -0.821879
-3.695301 -8.617631 1.822608
-3.708865 -8.645095 -0.493005
-3.687877 -8.592037 2.158630
-3.706153 -8.630457 -0.163948
-3.684818 -8.576647 2.501227
-0.332668 -0.771705 -0.225173
-3.723664 -8.633806 0.164122
-0.436217 -1.010940 -0.254195
-3.730846 -8.642159 0.493319
-2.673654 -6.193272 -1.311239
-3.730364 -8.636899 0.823099
-3.135836 -7.256914 -1.252102
-3.733884 -8.636767 1.155321
-3.744060 -8.656157 -1.158003
-3.739006 -8.640336 1.491134
-3.736391 -8.634295 -0.823099
-3.729260 -8.613688 1.824516
-3.748545 -8.654088 -0.494261
-3.718623 -8.580898 2.159080
-3.744210 -8.635816 -0.164297
-3.715502 -8.565505 2.501745
-0.363114 -0.834308 -0.243808
-3.761763 -8.639091 0.164471
-0.430403 -0.987973 -0.248796
-3.764979 -8.638239 0.493842
-2.690549 -6.173103 -1.308950
-3.765267 -8.634784 0.824145
-3.175367 -7.278513 -1.257733
-3.767185 -8.630959 1.156296
-0.502863 -1.151556 -0.154287
-3.770726 -8.630851 1.491759
-3.815165 -8.732569 -0.833732
-3.763236 -8.609612 1.826424
-3.772328 -8.626312 -0.493423
-3.753239 -8.578579 2.161780
-3.781549 -8.639179 -0.164611
-3.755453 -8.575488 2.508474
-0.358253 -0.815349 -0.238631
-3.795115 -8.633228 0.164611
-0.441695 -1.004303 -0.253295
-3.794305 -8.623215 0.493737
-2.729476 -6.203207 -1.317345
-3.805821 -8.645294 0.826411
-3.224641 -7.321620 -1.267119
-3.802893 -8.630472 1.158003
-0.487662 -1.106199 -0.148437
-3.805612 -8.628481 1.493636
-3.881001 -8.799409 -0.841402
-3.804363 -8.621570 1.831766
-3.811291 -8.633190 -0.494575
-3.783160 -8.565426 2.161780
-3.816532 -8.636901 -0.164821
-3.782240 -8.555259 2.506404
-0.367363 -0.828221 -0.242772
-3.830094 -8.630896 0.164821
-0.435708 -0.981382 -0.247896
-3.827742 -8.621538 0.494365
-2.754301 -6.200819 -1.318872
-3.840831 -8.642880 0.827457
-3.151469 -7.088302 -1.228637
-3.837030 -8.626213 1.159221
-3.861941 -8.678139 -1.166290
-3.835008 -8.617618 1.493949
-3.921419 -8.807650 -0.843493
-3.831239 -8.601064 1.830240
-3.847093 -8.632604 -0.495308
-3.817005 -8.561067 2.164029
-3.846781 -8.627851 -0.164890
-3.815312 -8.553255 2.509510
-0.367094 -0.819881 -0.240702
-3.863597 -8.629098 0.165030
-0.442147 -0.987045 -0.249696
-3.862715 -8.619059 0.494994
-0.485145 -1.082021 -0.230497
-3.869345 -8.625787 0.827108
-3.145042 -7.011126 -1.217060
-3.869678 -8.622498 1.160440
-3.874436 -8.629066 -1.161415
-3.871540 -8.618594 1.496452
-3.874550 -8.621265 -0.826934
-3.869397 -8.609800 1.834819
-3.878975 -8.627085 -0.495726
-3.849371 -8.557247 2.166279
-3.880977 -8.623488 -0.165065
-3.841972 -8.532840 2.507439
-0.365039 -0.808096 -0.237596
-3.896165 -8.621026 0.165135
-0.447195 -0.989047 -0.250595
-3.902655 -8.627360 0.496250
-0.517860 -1.144801 -0.244236
-3.904500 -8.627428 0.828502
-3.273789 -7.230442 -1.257107
-3.907943 -8.627020 1.162877
-3.986474 -8.796297 -1.185789
-3.908128 -8.619420 1.498955
-3.908054 -8.619256 -0.827980
-3.897805 -8.592666 1.834056
-3.915669 -8.628042 -0.496564
-3.883245 -8.552631 2.168528
-3.920979 -8.631737 -0.165484
-3.878128 -8.533446 2.511580
-0.372666 -0.817363 -0.240702
-3.932044 -8.620109 0.165379
-0.453881 -0.994572 -0.252395
-3.935236 -8.619136 0.496564
-2.832683 -6.204275 -1.325741
-3.940386 -8.626432 0.829723
-3.335135 -7.298024 -1.270874
-3.934733 -8.606104 1.161902
-4.017981 -8.784132 -1.186033
-3.943123 -8.616504 1.500832
-4.021853 -8.788544 -0.845585
-3.929411 -8.582577 1.834819
-3.945763 -8.614321 -0.496564
-3.922006 -8.558511 2.173477
-3.954420 -8.625269 -0.165623
-3.918363 -8.542685 2.518309
-0.377132 -0.819567 -0.241737
-3.967129 -8.617229 0.165588
-0.454089 -0.985901 -0.250595
-3.971148 -8.618045 0.497296
-2.880614 -6.251407 -1.337953
-3.972978 -8.618052 0.830246
-3.956261 -8.577859 -1.496139
-3.973066 -8.610343 1.164340
-4.052780 -8.779065 -1.187251
-3.978976 -8.615240 1.503023
-4.075063 -8.823288 -0.850291
-3.965932 -8.583067 1.837872
-3.979161 -8.607747 -0.496982
-3.955130 -8.551843 2.175277
-3.986183 -8.615042 -0.165693
-3.960331 -8.555251 2.526074
-0.393010 -0.846280 -0.250019
-3.998867 -8.606956 0.165658
-0.454242 -0.977241 -0.248796
-4.002049 -8.605941 0.497401
-2.900763 -6.237753 -1.337190
-4.013120 -8.625810 0.832337
-3.529378 -7.582594 -1.324687
-4.013993 -8.619814 1.167508
-4.075015 -8.746871 -1.184814
-4.013195 -8.610251 1.504587
-4.123512 -8.846934 -0.853952
-4.005826 -8.590522 1.842452
-4.014248 -8.604665 -0.497610
-3.986606 -8.541517 2.176177
-4.016232 -8.601074 -0.165693
-3.992624 -8.546627 2.527627
-0.384484 -0.820413 -0.242772
-4.038226 -8.612862 0.166042
-0.467582 -0.996821 -0.254195
-4.039701 -8.608191 0.498343
-2.944204 -6.273799 -1.347112
-4.038971 -8.602732 0.831466
-3.223253 -6.862195 -1.200791
-4.048276 -8.614734 1.168727
-4.124949 -8.773912 -1.190420
-4.044067 -8.597978 1.504900
-4.039131 -8.583593 1.843978
-4.046814 -8.596021 -0.497924
-4.026362 -8.548705 2.181576
-4.051342 -8.597857 -0.165903
-4.022433 -8.532638 2.527627
-0.384042 -0.812080 -0.240702
-4.068265 -8.598713 0.166042
-0.474393 -1.002228 -0.255994
-4.076563 -8.608478 0.499180
-2.966086 -6.263484 -1.347112
-4.075800 -8.602984 0.832860
-3.253110 -6.863397 -1.202981
-4.083426 -8.611312 1.170189
-4.164059 -8.777395 -1.192857
-4.080831 -8.598085 1.507403
-4.028839 -8.488541 -0.822053
-4.069911 -8.571215 1.844360
-4.085363 -8.599883 -0.498971
-4.057849 -8.538118 2.182475
-4.083050 -8.587274 -0.165972
-4.057171 -8.529013 2.530733
-0.388538 -0.814222 -0.241737
-4.099117 -8.586264 0.166077
-0.472850 -0.990016 -0.253295
-4.108311 -8.597800 0.499390
-3.009940 -6.299149 -1.357034
-4.113540 -8.604883 0.834429
-3.335004 -6.973180 -1.224256
-4.111748 -8.593425 1.169702
-4.183530 -8.739529 -1.189689
-4.113379 -8.589132 1.508341
-4.015417 -8.384579 -0.813337
-4.104047 -8.565809 1.846268
-4.113631 -8.581968 -0.498762
-4.086785 -8.522145 2.182025
-4.119053 -8.585589 -0.166217
-4.092770 -8.526990 2.534356
-0.396407 -0.823304 -0.244843
-4.137742 -8.589918 0.166426
-0.472919 -0.981337 -0.251495
-4.144369 -8.596001 0.500122
-0.578075 -1.199008 -0.258737
-4.147014 -8.597651 0.835126
-3.464062 -7.178543 -1.262426
-4.144309 -8.584382 1.170433
-4.233868 -8.765985 -1.195295
-4.152790 -8.594287 1.511783
-4.029057 -8.338220 -0.810200
-4.145885 -8.576176 1.851611
-4.146172 -8.572950 -0.499076
-4.117357 -8.509582 2.182475
-4.162067 -8.598159 -0.166740
-4.126719 -8.521344 2.536944
-0.400966 -0.825391 -0.245878
-4.172946 -8.586213 0.166636
-0.478046 -0.983185 -0.252395
-4.175222 -8.583279 0.500227
-0.573669 -1.179329 -0.254921
-4.180488 -8.590287 0.835824
-4.160113 -8.544630 -1.505213
-4.181203 -8.584142 1.172383
-4.266181 -8.754722 -1.195782
-4.181033 -8.576186 1.511157
-4.200453 -8.616021 -0.838613
-4.174075 -8.558123 1.850847
-4.187458 -8.581760 -0.500436
-4.153875 -8.509167 2.186074
-4.193810 -8.587172 -0.166810
-4.161528 -8.517302 2.540050
-0.408946 -0.834394 -0.248984
-4.210814 -8.587754 0.166950
-0.488340 -0.995507 -0.255994
-4.210439 -8.579409 0.500855
-0.572592 -1.166744 -0.252631
-4.212203 -8.579221 0.836172
-3.659534 -7.450280 -1.314675
-4.219896 -8.587309 1.174821
-4.215303 -8.570402 1.512721
-4.216434 -8.572701 -0.835824
-4.216925 -8.569922 1.856572
-4.222682 -8.577842 -0.501064
-4.186136 -8.499861 2.187424
-4.227294 -8.579654 -0.166950
-4.192088 -8.504457 2.540568
-0.411856 -0.832962 -0.248984
-4.238992 -8.569420 0.166880
-0.486626 -0.983317 -0.253295
-4.245952 -8.579720 0.501693
-0.590599 -1.192889 -0.258737
-4.247432 -8.575176 0.837218
-3.676748 -7.419760 -1.311547
-4.255135 -8.583199 1.176283
-3.571304 -7.200655 -0.986898
-4.254233 -8.577613 1.516476
-4.251177 -8.563945 1.858480
-4.230521 -8.514865 2.195072
-4.261062 -8.576334 -0.167159
-4.225427 -8.500888 2.543674
-0.413037 -0.828062 -0.247949
-4.277205 -8.575000 0.167264
-0.493365 -0.988673 -0.255094
-4.281228 -8.575568 0.502321
-0.600023 -1.201358 -0.261027
-4.282681 -8.570992 0.838264
-3.691618 -7.388090 -1.308105
-4.285349 -8.572592 1.176770
-3.686618 -7.371643 -1.012003
-4.287683 -8.569778 1.517727
-3.707209 -7.406358 -0.724613
-4.283947 -8.558578 1.860388
-3.713991 -7.416667 -0.434703
-4.262226 -8.507758 2.196872
-4.296347 -8.572135 -0.167369
-4.257672 -8.491266 2.545227
-0.414044 -0.823236 -0.246913
-4.316099 -8.577879 0.167613
-0.488051 -0.969538 -0.250595
-4.312932 -8.564138 0.502530
-0.604003 -1.199362 -0.261027
-4.316458 -8.567418 0.839310
-3.722720 -7.385742 -1.309982
-4.319717 -8.566442 1.177989
-3.752561 -7.438485 -1.022971
-4.327361 -8.574158 1.521169
-3.730852 -7.392245 -0.724438
-4.317338 -8.550581 1.861914
-3.724547 -7.373352 -0.432923
-4.305959 -8.520658 2.204070
-4.334365 -8.573147 -0.167683
-4.300364 -8.502212 2.552991
-0.415167 -0.818340 -0.245878
-4.346921 -8.564545 0.167648
-0.500255 -0.985204 -0.255094
-4.348228 -8.559716 0.503158
-0.592181 -1.165740 -0.254158
-4.354462 -8.568284 0.840879
-3.756536 -7.388550 -1.312798
-4.354093 -8.560159 1.179208
-3.755095 -7.379341 -1.016634
-4.356368 -8.557239 1.520856
-3.759345 -7.384503 -0.724961
-4.367650 -8.575697 1.870692
-3.758424 -7.376321 -0.433865
-4.335675 -8.505574 2.204070
-4.365171 -8.559746 -0.167718
-4.333530 -8.494032 2.555062
-0.412741 -0.806567 -0.242772
-4.387725 -8.570678 0.168067
-0.500138 -0.976514 -0.253295
-4.383546 -8.555151 0.503786
-0.617733 -1.205600 -0.263316
-4.384345 -8.553032 0.840879
-3.796727 -7.403517 -1.317804
-4.393009 -8.562571 1.181645
-3.795335 -7.394445 -1.020534
-4.392529 -8.554281 1.523046
-3.784189 -7.369563 -0.724787
-4.424470 -8.612787 1.882140
-3.788713 -7.372039 -0.434388
-4.373359 -8.505987 2.208120
-4.400512 -8.555126 -0.167927
-4.365803 -8.484007 2.556615
-0.433275 -0.839455 -0.253125
-4.412111 -8.544649 0.167857
-0.514276 -0.995539 -0.258694
-4.417050 -8.546894 0.504205
-0.621938 -1.203436 -0.263316
-4.424239 -8.557143 0.842796
-4.406093 -8.518401 -1.518979
-4.427433 -8.555999 1.182864
-4.454479 -8.604586 -1.189689
-4.425996 -8.545913 1.524298
-3.820886 -7.377539 -0.726879
-4.443670 -8.576372 1.877560
-3.828210 -7.385366 -0.435959
-4.411995 -8.507968 2.212619
-4.435874 -8.550364 -0.168136
-4.404291 -8.485863 2.561791
-0.421930 -0.810520 -0.244843
-4.450222 -8.545159 0.168171
-0.508744 -0.976455 -0.254195
-4.456089 -8.549135 0.505251
-0.638839 -1.225631 -0.268659
-4.460531 -8.554014 0.844016
-4.435801 -8.502969 -1.518979
-4.456354 -8.538733 1.182620
-4.550639 -8.715681 -1.207238
-4.464946 -8.547920 1.527426
-4.461890 -8.542069 -0.843145
-4.484491 -8.581689 1.882140
-4.466530 -8.543685 -0.505251
-4.442570 -8.494242 2.213068
-4.476818 -8.556088 -0.168555
-4.441949 -8.485841 2.566450
-0.444513 -0.846672 -0.256231
-4.491184 -8.550817 0.168590
-0.512149 -0.974674 -0.254195
-4.485902 -8.533529 0.505251
-0.637632 -1.212967 -0.266369
-4.501492 -8.559553 0.846108
-4.481091 -8.517152 -1.524298
-4.492603 -8.535422 1.184326
-4.580110 -8.697988 -1.206994
-4.503043 -8.548011 1.530242
-4.502823 -8.547595 -0.845236
-4.501605 -8.541667 1.876797
-4.502846 -8.540408 -0.505984
-4.469466 -8.473513 2.211719
-4.514124 -8.554559 -0.168835
-4.476954 -8.480534 2.569556
-0.425770 -0.804140 -0.243808
-4.528491 -8.549225 0.168869
-0.521023 -0.983211 -0.256894
-4.525956 -8.537229 0.506403
-0.643702 -1.214203 -0.267133
-4.535075 -8.550830 0.846805
-4.533540 -8.540727 1.187251
-4.621614 -8.702986 -1.209919
-4.533781 -8.533986 1.530555
-4.627043 -8.709535 -0.862842
-4.535079 -8.532837 1.878324
-4.542945 -8.544037 -0.507135
-4.508169 -8.475063 2.216218
-4.543957 -8.538749 -0.168835
-4.514700 -8.480202 2.574214
-0.434034 -0.812874 -0.246913
-4.563959 -8.543948 0.169079
-0.519859 -0.972793 -0.254645
-4.565143 -8.538991 0.507449
-0.629423 -1.177321 -0.259500
-4.563956 -8.533191 0.846631
-4.573629 -8.544103 1.189932
-4.659464 -8.700799 -1.211869
-4.568207 -8.526814 1.532119
-4.577441 -8.544050 -0.848025
-4.577820 -8.541181 1.883667
-4.578405 -8.538689 -0.507764
-4.541410 -8.466145 2.218017
-4.577516 -8.529884 -0.168974
-4.544274 -8.464391 2.574214
-0.436869 -0.811354 -0.246913
-4.592807 -8.526204 0.169044
-0.524176 -0.972688 -0.255094
-4.600609 -8.533552 0.508078
-0.639119 -1.185486 -0.261790
-4.605064 -8.538250 0.848723
-0.647234 -1.199535 -0.215880
-4.613800 -8.547298 1.192613
-4.703011 -8.708935 -1.215281
-4.610147 -8.533410 1.536187
-4.610076 -8.533279 -0.848548
-4.607608 -8.525147 1.883667
-4.613880 -8.533196 -0.508392
-4.576496 -8.460526 2.220717
-4.612976 -8.524405 -0.169184
-4.580231 -8.460368 2.577838
-0.439699 -0.809824 -0.246913
-4.630177 -8.524178 0.169323
-0.533151 -0.981126 -0.257794
-4.639908 -8.534988 0.509124
-0.620749 -1.141851 -0.252631
-4.642456 -8.536125 0.850117
-0.627815 -1.153889 -0.208058
-4.638860 -8.522425 1.191395
-4.740977 -8.706413 -1.217231
-4.646521 -8.529408 1.538377
-4.644601 -8.525883 -0.849420
-4.633579 -8.502117 1.882140
-4.644595 -8.518792 -0.508496
-4.617201 -8.465028 2.226116
-4.647491 -8.517029 -0.169358
-4.618067 -8.459590 2.582497
-0.446234 -0.815062 -0.248984
-4.669510 -8.525502 0.169672
-0.529082 -0.965587 -0.254195
-4.671065 -8.524810 0.509438
-0.623787 -1.137956 -0.252250
-4.680847 -8.535590 0.851686
-0.632789 -1.153423 -0.208371
-4.678133 -8.523582 1.193832
-4.775554 -8.701085 -1.218693
-4.682387 -8.527805 1.540880
-4.684886 -8.528828 -0.851337
-4.657556 -8.475568 1.879850
-4.678152 -8.509529 -0.508915
-4.657450 -8.471871 2.231964
-4.682454 -8.513835 -0.169602
-4.642369 -8.437458 2.580426
-0.443334 -0.803429 -0.245878
-4.704519 -8.522225 0.169917
-0.539817 -0.977474 -0.257794
-4.705102 -8.519763 0.510066
-0.615215 -1.113541 -0.247288
-4.710091 -8.521765 0.851860
-0.608890 -1.101185 -0.199298
-4.712138 -8.518444 1.195295
-4.813030 -8.700834 -1.220887
-4.713510 -8.517416 1.541818
-4.724723 -8.534163 -0.853429
-4.687539 -8.463511 1.880614
-4.715057 -8.509692 -0.509857
-4.688351 -8.461493 2.233314
-4.712601 -8.501759 -0.169672
-4.689060 -8.455809 2.590779
-0.442240 -0.795202 -0.243808
-4.740532 -8.520558 0.170196
-0.546847 -0.982490 -0.259594
-4.738700 -8.510267 0.510485
-0.617949 -1.109780 -0.246907
-4.741233 -8.511321 0.852383
-0.626001 -1.123317 -0.203678
-4.750026 -8.520109 1.197732
-4.844339 -8.685714 -1.221131
-4.745138 -8.504360 1.542444
-4.784063 -8.574123 -0.859007
-4.719407 -8.454777 1.882140
-4.754936 -8.514935 -0.511113
-4.730214 -8.467193 2.239163
-4.749078 -8.497476 -0.169917
-4.727033 -8.454565 2.595438
-0.454461 -0.810504 -0.248984
-4.774160 -8.510933 0.170335
-0.544551 -0.970378 -0.256894
-4.779132 -8.512831 0.511636
-0.621819 -1.107616 -0.246907
-4.781646 -8.513826 0.854301
-0.629918 -1.121126 -0.203678
-4.793356 -8.527704 1.201144
-4.888250 -8.692975 -1.224543
-4.788354 -8.511847 1.546824
-4.803218 -8.538270 -0.857090
-4.760446 -8.458783 1.886719
-4.792469 -8.512208 -0.511950
-4.766436 -8.462515 2.242312
-4.791472 -8.503494 -0.170370
-4.764105 -8.451475 2.599579
-0.453485 -0.802185 -0.246913
-4.809745 -8.504662 0.170545
-0.546016 -0.965079 -0.255994
-4.816688 -8.510004 0.512474
-0.624715 -1.103730 -0.246525
-4.815261 -8.504020 0.854998
-0.640643 -1.130951 -0.205868
-4.822115 -8.509192 1.200901
-4.920521 -8.679313 -1.225031
-4.824859 -8.507110 1.549014
-4.823164 -8.504122 -0.855346
-4.786068 -8.435284 1.885193
-4.824122 -8.498902 -0.512160
-4.795947 -8.445826 2.242312
-4.833967 -8.509320 -0.170824
-4.799304 -8.444872 2.602684
-0.460109 -0.807311 -0.248984
-4.853269 -8.512140 0.171034
-0.553243 -0.969938 -0.257794
-4.848344 -8.496608 0.512683
-0.636348 -1.115184 -0.249578
-4.856770 -8.507923 0.857090
-0.632832 -1.108124 -0.202113
-4.856711 -8.500928 1.202119
-4.960640 -8.679318 -1.227468
-4.860406 -8.500505 1.550892
-4.860730 -8.501072 -0.856741
-4.829129 -8.442385 1.890536
-4.863682 -8.499345 -0.513206
-4.837018 -8.449327 2.247711
-4.869604 -8.502807 -0.171034
-4.833555 -8.436449 2.605273
-0.464849 -0.809050 -0.250019
-4.890925 -8.509018 0.171313
-0.560511 -0.974759 -0.259594
-4.882953 -8.488288 0.513206
-0.628489 -1.092535 -0.244999
-4.892401 -8.501280 0.858135
-0.635710 -1.104196 -0.201800
-4.893290 -8.495964 1.203825
-4.990904 -8.661950 -1.227468
-4.896956 -8.495467 1.553082
-4.898336 -8.497861 -0.858135
-4.864453 -8.435680 1.892825
-4.901303 -8.496157 -0.514044
-4.867456 -8.434079 2.248161
-4.900254 -8.487489 -0.171068
-4.872635 -8.436255 2.610449
-0.467670 -0.807423 -0.250019
-4.927616 -8.504004 0.171557
-0.563910 -0.972796 -0.259594
-4.924576 -8.491925 0.514463
-0.636239 -1.097128 -0.246525
-4.926045 -8.491042 0.858833
-0.641544 -1.105387 -0.202426
-4.928897 -8.489131 1.205288
-5.029087 -8.658208 -1.229418
-4.929557 -8.483446 1.554020
-4.932973 -8.489325 -0.859007
-4.901763 -8.432228 1.895878
-4.940973 -8.496260 -0.515091
-4.903725 -8.428829 2.251310
-4.935885 -8.480702 -0.171278
-4.898167 -8.412515 2.608378
-0.468537 -0.802449 -0.248984
-4.955253 -8.483298 0.171487
-0.575168 -0.984282 -0.263193
-4.959229 -8.483303 0.514986
-0.644028 -1.101680 -0.248052
-4.963701 -8.487555 0.860227
-0.642406 -1.098026 -0.201488
-4.966522 -8.485579 1.207238
-5.071315 -8.661157 -1.232343
-4.970122 -8.484936 1.557462
-4.989766 -8.518472 -0.863713
-4.943078 -8.435391 1.900458
-4.977670 -8.491024 -0.515823
-4.937061 -8.418386 2.253110
-4.982661 -8.492742 -0.171871
-4.934346 -8.407029 2.612002
-0.479175 -0.814127 -0.253125
-5.000055 -8.491796 0.172011
-0.570688 -0.968836 -0.259594
-5.003006 -8.490030 0.516451
-0.651856 -1.106191 -0.249578
-5.007464 -8.494205 0.862668
-0.648242 -1.099180 -0.202113
-5.001156 -8.476741 1.208457
-5.004653 -8.479287 -1.208944
-5.008749 -8.482845 1.560278
-5.007315 -8.480414 -0.861622
-4.980482 -8.431609 1.903511
-5.013374 -8.483912 -0.516451
-4.979309 -8.422908 2.258959
-5.018383 -8.485624 -0.172081
-4.973499 -8.406381 2.617178
-0.472157 -0.795835 -0.247949
-5.037829 -8.488050 0.172290
-0.574066 -0.966838 -0.259594
-5.029552 -8.467364 0.516137
-0.657719 -1.107285 -0.250341
-5.043189 -8.486953 0.863713
-0.654094 -1.100306 -0.202739
-5.036803 -8.469468 1.209919
-4.799765 -8.067679 -1.152640
-5.050454 -8.485679 1.564032
-5.015910 -8.424294 1.905800
-4.974479 -8.351395 -0.509438
-5.017658 -8.420541 2.263008
-5.060261 -8.488667 -0.172500
-5.008750 -8.398924 2.620284
-0.490796 -0.820710 -0.256231
-5.075643 -8.484139 0.172569
-0.588446 -0.983222 -0.264542
-5.074466 -8.475461 0.517707
-0.655529 -1.094876 -0.248052
-5.084047 -8.488097 0.865631
-0.666053 -1.111572 -0.205242
-5.082666 -8.479077 1.213819
-4.817688 -8.033852 -1.150203
-5.076994 -8.462915 1.563093
-4.827580 -8.047162 -0.821007
-5.053368 -8.420200 1.908853
-4.828829 -8.042880 -0.491644
-5.049027 -8.406316 2.263907
-5.088831 -8.469238 -0.172465
-5.055952 -8.411193 2.629602
-0.477701 -0.792520 -0.247949
-5.112454 -8.478359 0.172814
-0.582815 -0.966144 -0.260493
-5.107702 -8.467137 0.518231
-0.661376 -1.095942 -0.248815
-5.112613 -8.468594 0.865457
-0.667887 -1.105859 -0.204616
-5.117366 -8.469779 1.215037
-4.849808 -8.023782 -1.151178
-5.116270 -8.464631 1.566535
-4.843270 -8.009804 -0.818915
-5.096955 -8.426026 1.914196
-4.856875 -8.025975 -0.491644
-5.092469 -8.411979 2.270206
-5.123102 -8.462580 -0.172674
-5.094825 -8.412556 2.635296
-0.474446 -0.780941 -0.244843
-5.141579 -8.463067 0.172849
-0.593101 -0.975863 -0.263643
-5.152792 -8.474854 0.519801
-0.671318 -1.103691 -0.251105
-5.150430 -8.464311 0.866851
-0.667443 -1.096888 -0.203365
-5.160906 -8.478198 1.218693
-4.882584 -8.017828 -1.152640
-5.159148 -8.468650 1.570602
-4.873273 -7.996251 -0.819264
-5.126912 -8.412431 1.914959
-4.884502 -8.011532 -0.491749
-5.130484 -8.411683 2.274705
-5.164068 -8.463423 -0.173058
-5.130197 -8.404615 2.638402
-0.483084 -0.789250 -0.247949
-5.180488 -8.460418 0.173163
-0.590396 -0.963816 -0.260943
-5.187561 -8.465332 0.520324
-0.673949 -1.099785 -0.250723
-5.193048 -8.470966 0.869291
-0.675398 -1.101287 -0.204616
-5.195659 -8.468591 1.219912
-5.170141 -8.423696 -1.213575
-5.194877 -8.460690 1.572479
-4.916441 -8.007213 -0.822053
-5.156244 -8.394485 1.914959
-4.919760 -8.006344 -0.492481
-5.171039 -8.411985 2.279654
-5.197770 -8.452158 -0.173198
-5.168616 -8.401464 2.643060
-0.489894 -0.794135 -0.250019
-5.217340 -8.454194 0.173407
-0.597852 -0.968382 -0.262743
-5.221277 -8.453969 0.520743
-0.680879 -1.102437 -0.251868
-5.222586 -8.452788 0.869291
-0.683393 -1.105644 -0.205868
-5.234585 -8.465600 1.222106
-5.336314 -8.626754 -1.245505
-5.236853 -8.462662 1.576234
-5.272519 -8.520298 -0.876612
-5.202050 -8.403144 1.921065
-5.238962 -8.459471 -0.521476
-5.200373 -8.393883 2.279654
-5.243044 -8.459458 -0.173721
-5.207071 -8.398149 2.647719
-0.498783 -0.802264 -0.253125
-5.258437 -8.454609 0.173791
-0.599169 -0.962980 -0.261843
-5.260254 -8.450953 0.521685
-0.688873 -1.106720 -0.253394
-5.267857 -8.459876 0.871906
-0.689337 -1.106605 -0.206494
-5.270403 -8.457384 1.223568
-5.378997 -8.628288 -1.248430
-5.269498 -8.449359 1.577173
-5.271653 -8.452815 -0.871557
-5.243821 -8.404921 1.925644
-5.280092 -8.459768 -0.522627
-5.232736 -8.380639 2.281004
-5.273598 -8.442802 -0.173756
-5.240451 -8.386474 2.649790
-0.499529 -0.797244 -0.252090
-5.304910 -8.463312 0.174350
-0.608739 -0.970789 -0.264542
-5.302458 -8.452843 0.522941
-0.690645 -1.100983 -0.252631
-5.298415 -8.443123 0.872080
-0.694246 -1.105865 -0.206806
-5.309395 -8.454064 1.225762
-5.411194 -8.612821 -1.248917
-5.307369 -8.444293 1.579675
-5.307488 -8.444483 -0.872603
-5.281488 -8.399861 1.928697
-5.314907 -8.449739 -0.523150
-5.281678 -8.393660 2.289552
-5.311560 -8.437881 -0.174035
-5.270721 -8.369766 2.650307
-0.491994 -0.779161 -0.246913
-5.331216 -8.439671 0.174245
-0.612124 -0.968658 -0.264542
-5.339403 -8.446099 0.523674
-0.693435 -1.096906 -0.252250
-5.340634 -8.444783 0.874172
-0.695990 -1.100096 -0.206181
-5.347366 -8.448898 1.227712
-5.388131 -8.510021 -1.236730
-5.346325 -8.440734 1.582491
-5.346528 -8.441053 -0.874172
-5.306574 -8.374741 1.927171
-5.355063 -8.448004 -0.524197
-5.311989 -8.376818 2.290002
-5.346337 -8.427732 -0.174210
-5.305081 -8.359472 2.652895
-0.498859 -0.783958 -0.248984
-5.375675 -8.444627 0.174733
-0.617595 -0.969803 -0.265442
-5.377438 -8.440886 0.524511
-0.700424 -1.099446 -0.253394
-5.380785 -8.442892 0.875915
-0.706197 -1.107654 -0.208058
-5.384297 -8.441896 1.229418
-4.677847 -7.331450 -1.067819
-5.385323 -8.437007 1.585307
-5.337888 -8.359475 1.927934
-5.392046 -8.441042 -0.524930
-5.349592 -8.371361 2.293601
-5.387571 -8.427551 -0.174594
-5.344637 -8.357177 2.658072
-0.512021 -0.798474 -0.254160
-5.413761 -8.439276 0.175013
-0.618871 -0.964361 -0.264542
-5.412262 -8.430468 0.525034
-0.710621 -1.106907 -0.255684
-5.420992 -8.440821 0.877658
-0.716466 -1.115154 -0.209935
-5.424464 -8.439751 1.231856
-4.692675 -7.298379 -1.065382
-5.425426 -8.434770 1.588436
-4.693958 -7.297575 -0.759126
-5.384034 -8.367208 1.934040
-5.427964 -8.432245 -0.525558
-5.393552 -8.375575 2.299900
-5.425620 -8.422143 -0.174873
-5.392614 -8.367700 2.667389
-0.516902 -0.799927 -0.255196
-5.449698 -8.430404 0.175222
-0.630699 -0.975286 -0.268142
-5.454676 -8.431647 0.526290
-0.709149 -1.096178 -0.253776
-5.462329 -8.440248 0.879576
-0.725722 -1.120937 -0.211499
-5.454973 -8.422430 1.232099
-4.769933 -7.361922 -1.077081
-5.458060 -8.420753 1.589374
-4.705315 -7.259410 -0.756860
-5.432435 -8.378015 1.940909
-5.474754 -8.440058 -0.527232
-5.434424 -8.374678 2.304848
-5.457163 -8.406507 -0.174943
-5.431260 -8.363406 2.672048
-0.509150 -0.781929 -0.250019
-5.494373 -8.434787 0.175711
-0.627716 -0.963282 -0.265442
-5.492800 -8.425941 0.527128
-0.708682 -1.087117 -0.252250
-5.487407 -8.414453 0.878878
-0.738265 -1.131633 -0.214002
-5.499526 -8.426611 1.235512
-4.737002 -7.255467 -1.063919
-5.500381 -8.421497 1.593129
-4.736073 -7.251283 -0.757732
-5.470235 -8.372149 1.943962
-5.514019 -8.435940 -0.528175
-5.475356 -8.373598 2.309798
-5.495230 -8.400796 -0.175222
-5.464652 -8.350863 2.674119
-0.524594 -0.799529 -0.256231
-5.523782 -8.415557 0.175711
-0.637493 -0.970859 -0.268142
-5.527662 -8.415063 0.527651
-0.723252 -1.101046 -0.256066
-5.528780 -8.413564 0.880796
-0.735700 -1.119145 -0.212125
-5.537633 -8.420631 1.237461
-4.795028 -7.288640 -1.071232
-5.541690 -8.420397 1.596570
-4.759165 -7.231378 -0.757383
-5.505906 -8.362842 1.946252
-5.553318 -8.431654 -0.529117
-5.506694 -8.357690 2.310697
-5.535528 -8.398257 -0.175571
-5.503338 -8.346253 2.678777
-0.529512 -0.800916 -0.257266
-5.563053 -8.411234 0.176025
-0.638727 -0.965378 -0.267242
-5.564719 -8.407373 0.528384
-0.726007 -1.096877 -0.255684
-5.575714 -8.420793 0.883585
-0.741784 -1.119864 -0.212751
-5.570283 -8.406215 1.238193
-5.688011 -8.580626 -1.264029
-5.578691 -8.412525 1.598760
-4.798693 -7.236307 -0.759649
-5.537233 -8.346845 1.947015
-5.586030 -8.417211 -0.529431
-5.558470 -8.372511 2.320145
-5.575871 -8.395542 -0.175920
-5.543131 -8.343081 2.683954
-0.530163 -0.795848 -0.256231
-5.602360 -8.406741 0.176339
-0.635607 -0.953413 -0.264542
-5.608439 -8.409499 0.529745
-0.737457 -1.105770 -0.258355
-5.615026 -8.416194 0.885154
-0.745688 -1.117267 -0.212751
-5.615024 -8.409832 1.241605
-5.725646 -8.572275 -1.265735
-5.621192 -8.412710 1.602515
-5.618686 -8.408959 -0.884805
-5.583791 -8.353579 1.953121
-5.616487 -8.399321 -0.529535
-5.584411 -8.348198 2.318795
-5.622939 -8.402617 -0.176479
-5.577591 -8.331709 2.686542
-0.548010 -0.816449 -0.263478
-5.645049 -8.407056 0.176758
-0.648711 -0.965748 -0.268592
-5.650012 -8.408105 0.530896
-0.733647 -1.091782 -0.255684
-5.655485 -8.413078 0.886897
-0.749584 -1.114658 -0.212751
-5.660967 -8.414886 1.245261
-5.765509 -8.567059 -1.267929
-5.661556 -8.409424 1.605644
-5.665808 -8.415739 -0.887594
-5.626078 -8.353578 1.957700
-5.656932 -8.396228 -0.530582
-5.616785 -8.333502 2.320145
-5.653352 -8.384597 -0.176514
-5.618524 -8.329805 2.692236
-0.531377 -0.785726 -0.254160
-5.691166 -8.412145 0.177282
-0.654263 -0.966705 -0.269491
-5.692765 -8.408178 0.532152
-0.739655 -1.092466 -0.256447
-5.689288 -8.399884 0.887594
-0.756794 -1.116940 -0.213690
-5.698102 -8.406576 1.246967
-5.797607 -8.550167 -1.268416
-5.697529 -8.399418 1.607521
-5.701861 -8.405804 -0.888640
-5.659613 -8.340386 1.959227
-5.704154 -8.402870 -0.532257
-5.660073 -8.334803 2.325994
-5.693822 -8.381353 -0.176863
-5.651910 -8.316534 2.694306
-0.536292 -0.787059 -0.255196
-5.722750 -8.395531 0.177351
-0.659829 -0.967636 -0.270391
-5.731083 -8.401456 0.532989
-0.746783 -1.094743 -0.257592
-5.725313 -8.389848 0.888640
-0.754006 -1.104503 -0.211812
-5.736366 -8.399751 1.248917
-5.845335 -8.556103 -1.272316
-5.736846 -8.394157 1.610337
-5.742411 -8.402299 -0.890383
-5.697556 -8.333546 1.962280
-5.753747 -8.412581 -0.534141
-5.693534 -8.321427 2.327794
-5.738857 -8.384529 -0.177351
-5.697277 -8.320664 2.702071
-0.541223 -0.788368 -0.256231
-5.762208 -8.390340 0.177666
-0.666513 -0.970145 -0.271741
-5.772820 -8.399504 0.534141
-0.757272 -1.101837 -0.259882
-5.765850 -8.386230 0.890383
-0.763454 -1.110002 -0.213377
-5.772405 -8.389486 1.250380
-5.881919 -8.545457 -1.273779
-5.782917 -8.398484 1.615030
-5.780745 -8.395330 -0.891778
-5.737748 -8.329774 1.966096
-5.780811 -8.389156 -0.533931
-5.756834 -8.351241 2.341741
-5.783983 -8.387492 -0.177840
-5.741645 -8.322989 2.709318
-0.548367 -0.792829 -0.258301
-5.807390 -8.393197 0.178154
-0.665459 -0.961403 -0.269941
-5.805515 -8.384230 0.534455
-0.763348 -1.102415 -0.260645
-5.809837 -8.387344 0.892649
-0.778575 -1.123567 -0.216505
-5.816355 -8.390496 1.253548
-5.916237 -8.531397 -1.274753
-5.823458 -8.394478 1.618158
-5.827049 -8.399655 -0.894392
-5.775743 -8.322599 1.969149
-5.827145 -8.393537 -0.535502
-5.792620 -8.340698 2.344440
-5.834905 -8.398454 -0.178503
-5.786098 -8.325104 2.716565
-0.557758 -0.800420 -0.261407
-5.848089 -8.389279 0.178503
-0.673270 -0.965468 -0.271741
-5.842745 -8.375381 0.535188
-0.760452 -1.090083 -0.258355
-5.859603 -8.396423 0.895787
-0.781361 -1.119223 -0.216192
-5.849020 -8.375023 1.254279
-5.961896 -8.533478 -1.278166
-5.852722 -8.374101 1.618158
-5.870029 -8.398863 -0.896484
-5.818260 -8.321694 1.973728
-5.863275 -8.382966 -0.536130
-5.828401 -8.330009 2.347139
-5.866478 -8.381311 -0.178573
-5.818448 -8.309604 2.718118
-0.529469 -0.754197 -0.246913
-5.888830 -8.385179 0.178852
-0.676636 -0.963112 -0.271741
-5.889171 -8.379444 0.536758
-0.766511 -1.090634 -0.259119
-5.893461 -8.382437 0.896484
-0.784127 -1.114873 -0.215880
-5.896494 -8.380532 1.258179
-6.007643 -8.535341 -1.281578
-5.893290 -8.369771 1.621287
-5.902752 -8.383208 -0.897007
-5.874404 -8.339856 1.982887
-5.910908 -8.388571 -0.537804
-5.860813 -8.314391 2.348489
-5.910678 -8.382030 -0.179027
-5.852984 -8.297137 2.720706
-0.558870 -0.790198 -0.259337
-5.924994 -8.374366 0.179062
-0.682245 -0.963926 -0.272641
-5.931081 -8.376767 0.537909
-0.779389 -1.100770 -0.262172
-5.929595 -8.371570 0.897530
-0.784588 -1.107293 -0.214941
-5.933747 -8.371235 1.259885
-6.031660 -8.506222 -1.280359
-5.943043 -8.378150 1.626919
-5.948117 -8.385303 -0.899447
-5.901208 -8.316098 1.982124
-5.948247 -8.379287 -0.538537
-5.903338 -8.312949 2.353888
-5.950326 -8.376016 -0.179341
-5.889745 -8.287679 2.724329
-0.552657 -0.775656 -0.255196
-5.961154 -8.363403 0.179271
-0.681080 -0.955192 -0.270841
-5.975364 -8.377151 0.539270
-0.780946 -1.094846 -0.261408
-5.970354 -8.367038 0.899273
-0.791891 -1.109371 -0.215880
-5.976776 -8.369857 1.262810
-6.041699 -8.457655 -1.276216
-5.979143 -8.366996 1.628796
-5.992411 -8.385562 -0.901713
-5.939335 -8.308225 1.985177
-5.991402 -8.377967 -0.539793
-5.936855 -8.298632 2.355687
-5.994655 -8.376335 -0.179795
-5.923137 -8.273352 2.726400
-0.568879 -0.792554 -0.261407
-6.011305 -8.371781 0.179899
-0.691231 -0.962305 -0.273540
-6.011561 -8.365973 0.539898
-0.796220 -1.108057 -0.265225
-6.020456 -8.375266 0.902411
-0.779613 -1.084148 -0.211499
-6.019866 -8.368281 1.265735
-6.058431 -8.418791 -1.273535
-6.018700 -8.360502 1.631612
-6.033286 -8.380763 -0.903456
-5.984362 -8.309745 1.990520
-6.036954 -8.379689 -0.541259
-5.974902 -8.290505 2.359287
-6.034383 -8.369958 -0.180109
-5.976841 -8.287097 2.737788
-0.571642 -0.790564 -0.261407
-6.051040 -8.365329 0.180214
-0.699156 -0.966201 -0.275340
-6.047467 -8.357318 0.540631
-0.805838 -1.113223 -0.267133
-6.062509 -8.371950 0.904328
-5.914846 -8.165037 -1.596883
-6.066513 -8.371327 1.269391
-6.122735 -8.445807 -1.280847
-6.056827 -8.354893 1.634428
-6.120988 -8.440296 -0.912172
-6.034084 -8.317410 1.997389
-6.127170 -8.442619 -0.546701
-6.014109 -8.283791 2.363336
-6.102050 -8.404920 -0.181296
-6.029265 -8.301620 2.749176
-0.578948 -0.794810 -0.263478
-6.114069 -8.393707 0.181261
-0.702356 -0.963878 -0.275340
-6.090719 -8.355526 0.541887
-0.806249 -1.105644 -0.265988
-6.099916 -8.362005 0.905548
-5.958188 -8.167720 -1.601263
-6.104771 -8.365598 1.271585
-6.185823 -8.473557 -1.288159
-6.094109 -8.344866 1.636618
-6.169217 -8.444621 -0.914961
-6.068580 -8.306867 1.999678
-6.173989 -8.448055 -0.548376
-6.057648 -8.285825 2.369634
-6.166766 -8.431992 -0.182343
-6.059348 -8.282082 2.749694
-0.567869 -0.774193 -0.257266
-6.188283 -8.433580 0.182587
-0.710329 -0.967704 -0.277140
-6.184867 -8.422755 0.547643
-0.814560 -1.109294 -0.267514
-6.178329 -8.410778 0.913044
-5.991340 -8.153241 -1.602515
-6.164506 -8.385819 1.277922
-6.227121 -8.467905 -1.290596
-6.144269 -8.352184 1.642249
-6.227883 -8.465844 -0.919493
-6.099868 -8.288794 2.000442
-6.225939 -8.457012 -0.550365
-6.113112 -8.300720 2.379982
-6.229373 -8.455492 -0.183320
-6.099682 -8.276431 2.754870
-0.568272 -0.769098 -0.256231
-6.239079 -8.440873 0.183215
-0.704434 -0.952683 -0.273540
-6.247485 -8.446076 0.550574
-0.818426 -1.106444 -0.267514
-6.252685 -8.450021 0.919667
-6.024465 -8.138628 -1.603766
-6.274070 -8.472733 1.294496
-6.273185 -8.468448 -1.294009
-6.267478 -8.457653 1.667279
-6.268074 -8.458459 -0.921062
-6.140455 -8.283223 2.004258
-6.267318 -8.451270 -0.551412
-6.161788 -8.305936 2.387630
-6.273149 -8.452968 -0.183739
-6.143506 -8.275253 2.761599
-0.591715 -0.795005 -0.265548
-6.286420 -8.443103 0.183739
-0.721724 -0.968973 -0.278939
-6.296022 -8.449841 0.552249
-0.835187 -1.120898 -0.271712
-6.336915 -8.501626 0.927686
-6.068189 -8.138136 -1.607834
-18.445559 -24.728600 3.787943
-6.312205 -8.459228 -1.295959
-16.766291 -22.460968 4.439298
-6.185778 -8.283760 2.009600
-6.321880 -8.462945 -0.553610
-6.193076 -8.287500 2.388530
-6.314591 -8.447033 -0.184088
-6.181610 -8.266135 2.765740
-0.589852 -0.786752 -0.263478
-6.333850 -8.445103 0.184263
-0.721593 -0.961771 -0.277590
-6.331475 -8.435800 0.552772
-0.810810 -1.080291 -0.262553
-6.104863 -8.127961 -1.610024
-18.422060 -24.518055 3.765519
-6.348852 -8.446664 -1.297421
-16.832724 -22.386518 4.436169
-7.271707 -9.670937 -1.058594
-6.228817 -8.280946 2.014180
-7.230417 -9.609040 -0.630230
-6.226655 -8.272060 2.390330
-7.296725 -9.690120 -0.211733
-6.215074 -8.250680 2.767811
-0.592594 -0.784688 -0.263478
-6.459723 -8.550586 0.187055
-0.736696 -0.974793 -0.282089
-6.380155 -8.439138 0.554447
-0.835888 -1.105643 -0.269422
-6.143925 -8.120779 -1.612839
-18.397318 -24.307978 3.743095
-6.399866 -8.452937 -1.301808
-16.922689 -22.343370 4.439298
-7.301811 -9.640729 -1.058071
-6.276654 -8.284190 2.020286
-7.268741 -9.590109 -0.630648
-6.266088 -8.264250 2.394379
-7.325672 -9.658217 -0.211593
-6.259017 -8.248941 2.774540
-0.583634 -0.767239 -0.258301
-0.729470 -0.958260 -0.278040
-7.851940 -10.310877 0.679216
-5.200218 -6.828733 -1.668434
-6.165050 -8.089856 -1.610962
-6.436555 -8.440017 -1.303271
-17.034128 -22.328138 4.448058
-7.359588 -9.646863 -1.061557
-6.317445 -8.277838 2.024102
-7.299749 -9.561502 -0.630439
-6.306726 -8.257814 2.398878
-7.345986 -9.615108 -0.211209
-6.303023 -8.246997 2.781270
-0.593358 -0.774398 -0.261407
-0.735182 -0.958801 -0.278939
-5.216854 -6.801193 -1.666144
-17.201204 -22.417046 2.472085
-6.207685 -8.087090 -1.614717
-18.283669 -23.810526 3.686061
-6.482908 -8.439537 -1.306683
-17.155296 -22.324928 4.459321
-6.353480 -8.265073 2.026392
-7.320905 -9.520131 -0.629392
-6.343830 -8.246561 2.402027
-7.386823 -9.598915 -0.211418
-6.347092 -8.244845 2.787999
-0.600779 -0.778440 -0.263478
-10.009721 -12.965095 0.285905
-0.739716 -0.957771 -0.279389
-5.247763 -6.792264 -1.668434
-17.279352 -22.356867 2.472085
-6.237085 -8.066935 -1.615030
-6.517187 -8.423136 -1.307658
-17.247627 -22.283653 4.463076
-7.343831 -9.488110 -1.049704
-6.389504 -8.252159 2.028682
-7.350424 -9.489781 -0.629078
-6.389288 -8.245933 2.408326
-7.422735 -9.576233 -0.211488
-6.394775 -8.247066 2.796281
-0.598750 -0.770237 -0.261407
-0.750234 -0.964412 -0.282089
-5.266619 -6.767705 -1.666907
-6.276129 -8.059142 -1.617846
-6.561193 -8.419124 -1.310583
-7.353630 -9.432564 -1.046392
-6.442418 -8.260768 2.036314
-7.409304 -9.497134 -0.631276
-6.438414 -8.249697 2.415974
-7.451194 -9.543959 -0.211349
-6.438982 -8.244487 2.803010
-0.601435 -0.768142 -0.261407
-0.763211 -0.974059 -0.285688
-5.291421 -6.750828 -1.667289
-5.759264 -7.342421 -1.477993
-10.206508 -13.007493 2.030100
-6.607699 -8.418033 -1.313995
-7.374208 -9.391166 -1.044649
-6.480914 -8.250581 2.039367
-7.470792 -9.507333 -0.633684
-6.487647 -8.253216 2.423623
-7.486934 -9.521037 -0.211418
-6.465333 -8.218923 2.801975
-0.611290 -0.775140 -0.264513
-19.671854 -24.935711 0.554393
-0.764192 -0.968330 -0.284788
-17.703661 -22.424774 1.497332
-5.329551 -6.750805 -1.671868
-5.738323 -7.263372 -1.466104
-5.765402 -7.292410 -1.141428
-6.657483 -8.417749 1.699817
-6.509675 -8.227908 2.039367
-6.535769 -8.254967 2.430821
-7.532539 -9.510520 -0.211768
-6.505980 -8.211447 2.807152
-0.611589 -0.769976 -0.263478
-0.757867 -0.953452 -0.281189
-17.779346 -22.359713 1.497123
-5.362859 -6.744455 -1.674922
-5.756263 -7.234023 -1.464227
-20.202240 -25.379499 3.982934
-5.766090 -7.241184 -1.136554
-6.696673 -8.406820 1.702320
-5.761244 -7.232508 -0.808980
-6.548146 -8.217417 2.042420
-5.782835 -7.254416 -0.486201
-6.569404 -8.238196 2.432621
-7.589386 -9.513868 -0.212431
-6.562316 -8.223417 2.819057
-0.609446 -0.761802 -0.261407
-0.768498 -0.959929 -0.283888
-17.857288 -22.297514 1.497123
-5.391278 -6.731823 -1.676448
-5.785185 -7.218510 -1.465165
-20.141697 -25.122974 3.953686
-5.776427 -7.202429 -1.133629
-6.730922 -8.389555 1.703572
-5.787702 -7.213907 -0.809154
-6.613654 -8.240443 2.053868
-5.893149 -7.340088 -0.493319
-6.601785 -8.219771 2.433970
-6.604295 -8.217024 2.824751
-0.612101 -0.759670 -0.261407
-17.964178 -22.287119 0.499662
-0.771844 -0.957240 -0.283888
-17.952568 -22.256809 1.498588
-5.399953 -6.694625 -1.671868
-5.833921 -7.227477 -1.471110
-20.166916 -24.975290 3.941499
-5.821491 -7.206930 -1.137529
-6.762650 -8.369082 1.704197
-5.822865 -7.206058 -0.810548
-6.649784 -8.226468 2.056158
-5.928782 -7.331897 -0.494156
-6.647593 -8.217890 2.440269
-5.749890 -7.105594 -0.159550
-6.653601 -8.219447 2.833551
-0.607445 -0.748528 -0.258301
-18.067068 -22.255331 0.500360
-0.785009 -0.966642 -0.287487
-18.074121 -22.256067 1.502565
-5.440619 -6.697068 -1.677211
-6.484653 -7.976518 -1.628170
-6.823761 -8.387663 -1.327645
-6.809063 -8.369597 1.708890
-5.860560 -7.201140 -0.812292
-6.695813 -8.224522 2.061501
-6.007311 -7.376200 -0.498552
-6.689778 -8.211254 2.445218
-5.743109 -7.049281 -0.158712
-6.679600 -8.195839 2.833033
-0.617390 -0.755378 -0.261407
-18.138239 -22.192198 0.500291
-0.793144 -0.970068 -0.289287
-18.199749 -22.251589 1.506543
-5.457747 -6.670441 -1.675303
-6.514822 -7.959556 -1.629109
-6.879211 -8.398774 -1.333007
-6.858270 -8.370223 1.713896
-6.725538 -8.205308 2.062264
-18.176260 -22.167566 -1.502356
-6.741688 -8.219159 2.454216
-5.732164 -6.985905 -0.157735
-6.717972 -8.184422 2.837175
-0.627256 -0.762277 -0.264513
-18.243555 -22.162714 0.501059
-0.796525 -0.967294 -0.289287
-18.279846 -22.191011 1.506752
-5.502305 -6.679580 -1.682172
-6.553874 -7.950484 -1.631925
-6.921121 -8.390021 -1.335444
-6.874874 -8.330997 1.710768
-6.774134 -8.206007 2.068370
-18.253534 -22.103977 -1.502356
-6.792678 -8.222618 2.462314
-5.761608 -6.972020 -0.157874
-6.762505 -8.180276 2.843904
-0.637444 -0.768896 -0.267619
-18.333574 -22.114286 0.501408
-0.799897 -0.964507 -0.289287
-18.392904 -22.170107 1.509683
-5.526751 -6.659368 -1.682172
-6.591803 -7.937047 -1.634115
-19.847305 -23.897713 3.814267
-6.960514 -8.378026 -1.337394
-6.906436 -8.309988 1.711393
-6.829275 -8.211309 2.076002
-5.938600 -7.137859 -0.486620
-6.827757 -8.203658 2.464114
-5.778236 -6.942643 -0.157665
-6.813266 -8.183343 2.853221
-0.642600 -0.769632 -0.268654
-18.458084 -22.099129 0.502594
-0.808424 -0.967551 -0.291087
-18.532959 -22.173038 1.514498
-5.554998 -6.646062 -1.683699
-6.637214 -7.935202 -1.638495
-19.822660 -23.690834 3.792818
-7.003913 -8.367682 -1.339832
-6.903877 -8.245238 1.703259
-6.865458 -8.196453 2.078292
-5.950653 -7.101778 -0.485573
-6.870122 -8.196203 2.469063
-5.803643 -6.921418 -0.157665
-6.870526 -8.190880 2.864609
-0.637823 -0.758513 -0.265548
-8.615564 -10.242192 0.233618
-0.819325 -0.973670 -0.293786
-18.638542 -22.141827 1.516801
-5.571842 -6.619121 -1.681790
-6.668688 -7.916518 -1.639433
-19.820812 -23.521307 3.776731
-6.114442 -7.253423 -1.164827
-6.960629 -8.254313 1.710142
-6.027730 -7.148027 -0.818044
-6.916815 -8.199450 2.085161
-5.936765 -7.035169 -0.482433
-6.910004 -8.185574 2.473112
-5.838089 -6.913341 -0.157944
-6.909051 -8.178652 2.868750
-0.622988 -0.735643 -0.258301
-18.715322 -22.091791 0.505387
-0.820199 -0.967830 -0.292886
-18.751883 -22.119286 1.519732
-5.605070 -6.611611 -1.684844
-6.065210 -7.144265 -1.150690
-7.002188 -8.245023 1.713270
-6.019112 -7.087458 -0.813512
-6.958105 -8.190218 2.088977
-5.943179 -6.993095 -0.480967
-6.952418 -8.177737 2.478061
-5.901051 -6.938619 -0.158991
-6.946321 -8.164784 2.872374
-0.638088 -0.748162 -0.263478
-18.839046 -22.081091 0.506643
-0.828633 -0.970890 -0.294686
-18.873066 -22.105343 1.523291
-5.638311 -6.603951 -1.687896
-6.300349 -7.374155 -1.536187
-19.760130 -23.119783 3.734321
-6.051411 -7.077785 -1.143378
-7.048902 -8.241547 1.717651
-6.003670 -7.019466 -0.808108
-7.012181 -8.195713 2.096609
-5.915604 -6.911614 -0.476781
-7.001200 -8.177103 2.485259
-5.925237 -6.917977 -0.158991
-6.989861 -8.158093 2.878586
-0.658184 -0.766562 -0.270725
-0.831848 -0.968137 -0.294686
-19.026983 -22.136543 1.529780
-5.667858 -6.594151 -1.690186
-6.324768 -7.353221 -1.536187
-19.645056 -22.831436 3.698247
-6.096864 -7.083255 -1.147522
-7.101971 -8.248064 1.723908
-5.997014 -6.964793 -0.804099
-7.039317 -8.172418 2.096609
-5.907202 -6.855646 -0.474268
-7.044818 -8.173029 2.491108
-5.940310 -6.889203 -0.158782
-7.030756 -8.150960 2.884279
-0.663383 -0.767183 -0.271760
-7.214871 -8.340834 0.192500
-0.845423 -0.977017 -0.298285
-7.258658 -8.385541 0.581243
-5.689556 -6.572841 -1.689804
-6.792724 -7.841739 -1.643188
-6.095547 -7.031931 -1.142647
-7.135894 -8.229195 1.725160
-6.016066 -6.937797 -0.803402
-7.080667 -8.162623 2.100425
-5.921934 -6.824424 -0.473536
-7.096298 -8.174877 2.499206
-5.935476 -6.835210 -0.158014
-7.087037 -8.158455 2.895668
-0.650833 -0.747380 -0.265548
-7.263643 -8.338217 0.193024
-0.856510 -0.982875 -0.300985
-7.268200 -8.337566 0.579673
-5.715048 -6.555899 -1.690568
-6.853818 -7.856682 -1.651322
-6.112222 -7.001639 -1.141185
-7.182766 -8.225066 1.729540
-6.097911 -6.982786 -0.811071
-7.132367 -8.164472 2.107295
-5.944405 -6.802207 -0.473431
-7.137617 -8.164728 2.503705
-5.967197 -6.823480 -0.158224
-7.132008 -8.152568 2.902397
-0.655986 -0.748008 -0.266584
-7.299298 -8.320326 0.193198
-0.858651 -0.978414 -0.300535
-7.322294 -8.340664 0.581662
-5.736601 -6.534437 -1.690186
-6.025943 -6.859185 -1.446080
-6.141868 -6.986224 -1.142160
-7.221872 -8.211808 1.732043
-6.097251 -6.933030 -0.807759
-7.171197 -8.151318 2.110348
-5.983946 -6.799409 -0.474687
-7.175088 -8.150002 2.506855
-6.014769 -6.829622 -0.158852
-7.177022 -8.146468 2.909126
-0.650920 -0.737026 -0.263478
-7.336242 -8.303788 0.193408
-0.859480 -0.972491 -0.299635
-7.365916 -8.331513 0.582813
-5.773679 -6.530550 -1.694384
-25.443098 -28.768312 3.360028
-6.060320 -6.849944 -1.448583
-19.369892 -21.885988 3.588565
-6.182009 -6.982576 -1.145085
-7.287164 -8.227954 1.740803
-6.101600 -6.889331 -0.805145
-7.220436 -8.149750 2.116454
-6.061960 -6.839761 -0.478979
-7.233228 -8.158444 2.517202
-7.224649 -8.143041 2.916891
-0.668895 -0.752071 -0.269689
-7.378475 -8.293068 0.193757
-0.868051 -0.975307 -0.301434
-7.392298 -8.302768 0.582604
-5.793829 -6.507424 -1.693621
-7.441978 -8.355626 0.978933
-6.938345 -7.787429 -1.651948
-6.216914 -6.972807 -1.147034
-7.352655 -8.243747 1.749563
-6.116326 -6.857583 -0.803925
-7.274981 -8.153794 2.124086
-6.105747 -6.840910 -0.480549
-7.270745 -8.143324 2.520352
-6.230144 -6.975383 -0.163250
-7.262039 -8.127856 2.920514
-0.679249 -0.758366 -0.272795
-7.452748 -8.317899 0.194943
-0.877954 -0.979527 -0.303684
-7.433233 -8.290298 0.583546
-5.821751 -6.493009 -1.695147
-7.452474 -8.308835 0.976493
-6.972083 -7.770514 -1.653512
-7.455914 -8.306832 1.370543
-6.231931 -6.940726 -1.145328
-7.394587 -8.232727 1.752692
-6.156203 -6.853978 -0.806016
-7.327019 -8.154634 2.130955
-6.146945 -6.838868 -0.481910
-7.323883 -8.145427 2.528900
-6.214337 -6.908991 -0.162203
-7.311039 -8.125437 2.928797
-0.661190 -0.733038 -0.264513
-0.891813 -0.988029 -0.307283
-19.647816 -21.759935 1.536479
-5.852276 -6.481390 -1.697437
-7.008435 -7.756389 -1.655703
-7.508824 -8.307266 1.374930
-6.233487 -6.893899 -1.141185
-7.433880 -8.218584 1.755195
-6.201475 -6.856090 -0.808805
-7.373879 -8.149390 2.136297
-6.209648 -6.860311 -0.484945
-7.370585 -8.140034 2.535198
-6.215592 -6.862062 -0.161609
-7.354924 -8.117045 2.935008
-0.666342 -0.733586 -0.265548
-0.892636 -0.982026 -0.306383
-19.769337 -21.741459 1.540038
-5.877506 -6.463826 -1.698200
-26.426811 -29.052872 3.436028
-7.040785 -7.737722 -1.656954
-19.796518 -21.748463 3.610989
-6.312310 -6.932276 -1.151178
-7.467844 -8.198426 1.756446
-6.262937 -6.875642 -0.813686
-7.410214 -8.132307 2.138587
-6.225484 -6.829736 -0.484317
-7.418648 -8.135858 2.541947
-7.400141 -8.109874 2.941737
-0.679330 -0.742659 -0.269689
-0.890795 -0.973154 -0.304584
-19.880178 -21.710615 1.542759
-5.915944 -6.460645 -1.702780
-7.073090 -7.718923 -1.658206
-19.891092 -21.699713 3.614401
-10.068857 -10.980532 -1.829259
-7.496417 -8.172309 1.756446
-17.961029 -19.580431 -2.324618
-7.457139 -8.126642 2.143930
-6.241183 -6.799136 -0.483689
-7.453592 -8.117088 2.544196
-7.451934 -8.109598 2.951055
-0.687154 -0.745967 -0.271760
-19.988882 -21.692106 0.514881
-0.899470 -0.975770 -0.306383
-19.982916 -21.670460 1.544853
-5.945112 -6.447173 -1.704688
-7.105350 -7.699993 -1.659457
-19.999029 -21.665159 3.620251
-10.187928 -11.032822 -1.843883
-7.527579 -8.148993 1.757072
-18.094162 -19.587866 -2.332985
-7.506778 -8.123635 2.150036
-6.279793 -6.793441 -0.484840
-7.496436 -8.106760 2.549145
-7.499877 -8.104804 2.958819
-0.697636 -0.752061 -0.274866
-20.102568 -21.663242 0.515858
-0.910825 -0.981194 -0.309083
-20.085621 -21.629845 1.546946
-5.960902 -6.419188 -1.702780
-7.148319 -7.692510 -1.663211
-20.169146 -21.696987 3.637313
-9.380149 -10.087179 -1.691303
-7.545213 -8.111098 1.754569
-18.211275 -19.577106 -2.339260
-7.564516 -8.129000 2.158432
-6.332046 -6.802179 -0.487038
-7.551247 -8.109067 2.558143
-7.547879 -8.099775 2.966584
-0.687070 -0.735504 -0.269689
-20.246326 -21.665997 0.517603
-0.919567 -0.983703 -0.310882
-20.244530 -21.656498 1.553645
-5.988637 -6.404076 -1.704306
-7.188624 -7.681934 -1.666340
-20.223055 -21.603264 3.633413
-9.923636 -10.600918 -1.782949
-7.590972 -8.106219 1.758949
-18.309465 -19.545406 -2.343095
-7.611639 -8.122601 2.163774
-6.385800 -6.812092 -0.489341
-7.604751 -8.112416 2.567142
-7.587914 -8.088791 2.971760
-0.686858 -0.730407 -0.268654
-20.298880 -21.578348 0.517115
-0.918818 -0.976391 -0.309533
-20.365509 -21.641605 1.557414
-6.023299 -6.398477 -1.708122
-7.211351 -7.655178 -1.665714
-20.357208 -21.602539 3.644625
-9.836208 -10.437928 -1.761012
-7.647622 -8.112624 1.765832
-18.374180 -19.484581 -2.343095
-7.654699 -8.114451 2.168354
-7.650336 -8.106996 2.573440
-7.642550 -8.093079 2.982631
-0.694589 -0.733737 -0.270725
-20.392326 -21.534145 0.517673
-0.922051 -0.973339 -0.309533
-20.490385 -21.622576 1.561182
-6.060688 -6.395570 -1.712702
-7.242133 -7.636954 -1.666966
-20.456051 -21.563721 3.649500
-9.850718 -10.380492 -1.757112
-7.708534 -8.120263 1.773341
-18.523741 -19.513132 -2.353902
-7.686974 -8.094717 2.169880
-20.464514 -21.542501 -1.557204
