# This PCD file was generated using the MATLAB® pcwrite function
# from Computer Vision Toolbox®.
# .PCD v.7 - Point Cloud Data file format
VERSION .7
FIELDS x y z
SIZE 4 4 4
TYPE F F F
COUNT 1 1 1
WIDTH 1672
HEIGHT 1
VIEWPOINT 0 0 0 1 0 0 0
POINTS 1672
DATA ascii
3.752197 -7.089657 0.701778
2.967016 -5.608449 -1.004935
6.208088 -11.739897 1.630612
3.275563 -6.196921 -0.860641
5.584871 -10.570278 1.893483
3.693263 -6.990101 -0.691668
6.498617 -12.304894 2.704908
5.118985 -9.696710 -0.574649
5.084836 -9.636094 2.515403
5.193677 -9.846519 -0.194315
5.080682 -9.636371 2.918961
2.293097 -4.362156 -1.320495
6.171615 -11.745231 0.231593
2.583455 -4.918671 -1.282671
6.456163 -12.297178 0.727889
2.940408 -5.600651 -1.229573
4.147757 -7.903663 0.780915
2.941914 -5.608276 -1.003058
4.771413 -9.099775 1.261592
3.235482 -6.173152 -0.855767
5.547939 -10.589709 1.893483
3.549566 -6.775284 -0.669182
6.455626 -12.327503 2.704908
5.074917 -9.695054 -0.573497
5.029487 -9.612345 2.504605
5.142592 -9.832693 -0.193687
5.032693 -9.626654 2.910679
2.282322 -4.378699 -1.323083
6.562999 -12.596667 0.247929
2.567171 -4.929387 -1.283121
6.252730 -12.011383 0.709676
2.912681 -5.595208 -1.226139
4.648036 -8.932600 0.880970
2.920497 -5.615006 -1.002432
4.773500 -9.181542 1.270610
3.200183 -6.157987 -0.852111
5.501834 -10.591480 1.890354
3.678354 -7.081133 -0.698117
5.034605 -9.700300 -0.572765
4.983339 -9.605626 2.498307
5.086144 -9.807979 -0.192849
4.986614 -9.620151 2.903432
2.262588 -4.378058 -1.320495
6.511647 -12.605287 0.247650
2.549948 -4.938318 -1.283121
5.913968 -11.458101 0.675762
2.887730 -5.594874 -1.223849
4.023052 -7.797860 0.767668
2.884582 -5.593565 -0.996801
4.756883 -9.228145 1.274753
3.180486 -6.172649 -0.852598
5.560703 -10.796772 1.923518
3.699227 -7.182494 -0.706833
4.986092 -9.689402 -0.571090
4.946213 -9.616031 2.496507
5.044563 -9.811446 -0.192570
4.938874 -9.610007 2.895150
2.249054 -4.389369 -1.321530
2.545127 -4.971474 -1.289419
6.017691 -11.759597 0.692300
2.860133 -5.589190 -1.220414
3.995809 -7.811855 0.767668
2.859644 -5.593047 -0.994923
5.562973 -10.885054 1.500943
3.058680 -5.987490 -0.825543
3.673228 -7.193588 -0.706659
6.270844 -12.286015 2.681248
4.944977 -9.692515 -0.570253
4.903763 -9.615876 2.492008
5.001203 -9.811179 -0.192221
4.881618 -9.580715 2.881174
2.235468 -4.400637 -1.322565
2.519820 -4.964688 -1.285370
5.562742 -10.964764 0.644360
2.835276 -5.588634 -1.218125
3.952296 -7.793770 0.764530
2.838317 -5.599471 -0.994298
4.731821 -9.339043 1.285478
3.029690 -5.982192 -0.823349
5.354934 -10.578017 1.877840
3.638196 -7.186813 -0.704741
6.206646 -12.265787 2.672089
4.892184 -9.672289 -0.568054
4.861375 -9.615545 2.487509
4.966925 -9.828577 -0.192221
4.846403 -9.594247 2.880138
2.222700 -4.413589 -1.324118
2.501599 -4.971713 -1.284920
5.603406 -11.141133 0.653571
2.808694 -5.584467 -1.215072
3.930435 -7.818200 0.765576
2.804562 -5.581103 -0.989292
4.676026 -9.309382 1.279141
3.005227 -5.985634 -0.822374
5.342785 -10.646079 1.886600
3.613087 -7.199469 -0.704741
4.849439 -9.671453 -0.567008
4.806825 -9.590643 2.476711
4.918255 -9.817248 -0.191662
4.805964 -9.597286 2.875997
2.214184 -4.435149 -1.328259
2.488578 -4.989134 -1.287170
5.550223 -11.132026 0.651897
2.776919 -5.569639 -1.209729
4.462994 -8.955296 0.875392
2.781540 -5.583787 -0.988040
5.492922 -11.031559 1.513130
2.975469 -5.978317 -0.819937
3.583497 -7.203117 -0.703870
5.979251 -12.024037 2.610267
4.803204 -9.663282 -0.565542
4.768983 -9.598639 2.474462
4.871505 -9.809282 -0.191174
4.760408 -9.589779 2.868750
2.190977 -4.427268 -1.323601
5.771096 -11.666670 0.227195
2.474602 -5.004778 -1.288970
5.520181 -11.169236 0.652943
2.757461 -5.579298 -1.209729
2.756785 -5.582835 -0.986163
3.893979 -7.889265 1.080250
2.990594 -6.061656 -0.829930
8.289540 -16.809526 2.968501
3.550401 -7.199501 -0.702301
5.912938 -11.995529 2.599582
4.764146 -9.669241 -0.564914
4.722533 -9.589004 2.467713
4.826636 -9.804699 -0.190755
4.711552 -9.575136 2.859433
2.178062 -4.440092 -1.325154
2.461406 -5.022135 -1.291219
5.465343 -11.156153 0.651059
2.731059 -5.574785 -1.206676
5.569242 -11.373260 1.107924
2.723385 -5.564036 -0.981157
5.605956 -11.458360 1.566265
2.979881 -6.093457 -0.832855
8.338385 -17.058420 3.007297
4.258472 -8.711856 -0.848374
5.421135 -11.095309 2.400377
4.722478 -9.669660 -0.563972
4.676209 -9.579162 2.460964
4.785366 -9.807110 -0.190476
4.664549 -9.563744 2.851151
2.166774 -4.456355 -1.327742
2.437048 -5.016674 -1.287620
5.436836 -11.196722 0.652315
2.708153 -5.577220 -1.205150
2.691876 -5.548626 -0.976777
5.586711 -11.520725 1.572115
2.968983 -6.125257 -0.835780
4.342659 -8.963254 1.577485
4.155931 -8.577847 -0.833906
5.406333 -11.163639 2.411063
4.673902 -9.655524 -0.562193
4.634255 -9.577884 2.456465
4.742398 -9.805751 -0.190127
4.628615 -9.574749 2.849598
2.153721 -4.469111 -1.329295
2.418676 -5.023394 -1.287170
2.681006 -5.570717 -1.201715
2.676770 -5.566891 -0.978341
5.596338 -11.643929 1.586251
2.969074 -6.180317 -0.841874
4.070768 -8.477355 -0.822750
5.382623 -11.214302 2.417932
4.628074 -9.646570 -0.560727
4.588997 -9.569402 2.450167
4.697768 -9.800607 -0.189708
4.581808 -9.562973 2.841316
2.136443 -4.473116 -1.328259
5.376753 -11.262478 0.217841
2.407001 -5.044117 -1.290319
2.647176 -5.549918 -1.195228
2.650524 -5.561934 -0.975838
5.047727 -10.597056 1.441227
2.891161 -6.072351 -0.825787
4.013755 -8.433943 -0.817172
5.726324 -12.037914 2.591186
4.584082 -9.641022 -0.559471
4.544692 -9.562481 2.444318
4.649791 -9.783622 -0.189079
4.546756 -9.571134 2.839245
2.122468 -4.484038 -1.329295
8.070234 -17.049603 0.329257
2.391095 -5.053833 -1.290769
5.051435 -10.681563 0.619239
2.621074 -5.544925 -1.192175
8.067191 -17.073984 1.652124
2.620251 -5.545689 -0.971458
5.036294 -10.663998 1.448052
2.822706 -5.979582 -0.811894
8.028217 -17.014555 2.979764
3.884852 -8.237065 -0.796778
5.711497 -12.110107 2.602635
4.543569 -9.638103 -0.558425
4.507973 -9.566921 2.441619
4.596866 -9.759994 -0.188311
4.496039 -9.550241 2.828375
2.108407 -4.492801 -1.329812
2.379230 -5.074500 -1.293918
5.037848 -10.749769 0.622170
2.602672 -5.553586 -1.192175
4.959461 -10.587315 1.022860
2.595851 -5.544067 -0.969581
3.696479 -7.898313 1.070744
2.808546 -6.003783 -0.813844
3.828823 -8.188539 -0.790851
5.677504 -12.147757 2.606451
4.506517 -9.646667 -0.558006
4.463006 -9.557880 2.435320
4.557696 -9.765108 -0.188102
4.449607 -9.537868 2.820092
2.094342 -4.503637 -1.330848
5.398730 -11.614638 0.223565
2.359859 -5.079239 -1.293019
2.576656 -5.548393 -1.189122
4.925829 -10.611791 1.023557
2.574820 -5.549511 -0.968955
4.911614 -10.590843 1.433427
2.825139 -6.094595 -0.824812
5.191994 -11.205671 1.956057
3.248234 -7.010533 -0.675980
5.418903 -11.700753 2.506467
4.452680 -9.618839 -0.555494
4.421433 -9.555715 2.430821
4.510149 -9.751918 -0.187544
4.409802 -9.539311 2.815951
2.084267 -4.523202 -1.334471
5.338078 -11.589823 0.222728
2.342116 -5.087446 -1.293019
5.062866 -11.002403 0.634731
2.549065 -5.539519 -1.185306
4.986999 -10.842511 1.044126
2.548832 -5.544106 -0.966452
5.361993 -11.668536 1.576746
2.701107 -5.880736 -0.794588
5.146255 -11.209365 1.953554
3.230394 -7.036314 -0.677374
5.389490 -11.744577 2.511810
4.412415 -9.619801 -0.554657
4.376682 -9.546290 2.424523
4.472750 -9.760330 -0.187404
4.364409 -9.528301 2.808187
2.068466 -4.530450 -1.334471
5.319174 -11.655685 0.223635
2.328387 -5.104455 -1.295268
4.999574 -10.965491 0.631590
2.526456 -5.541237 -1.183779
4.883022 -10.714814 1.030181
2.521275 -5.534993 -0.963324
5.316295 -11.676342 1.575283
2.669051 -5.864833 -0.791176
5.290308 -11.630033 2.023637
3.243760 -7.130972 -0.685393
5.337086 -11.738298 2.506467
4.372199 -9.620597 -0.553819
4.335271 -9.543767 2.420023
4.422119 -9.739468 -0.186706
4.326332 -9.532923 2.805081
2.051047 -4.534122 -1.333436
5.197718 -11.495616 0.220214
2.311357 -5.114328 -1.295718
4.933312 -10.920990 0.628032
2.495783 -5.524974 -1.178436
4.829193 -10.695477 1.026695
2.505189 -5.550962 -0.964575
5.265709 -11.673115 1.572358
2.659986 -5.899450 -0.794588
5.239941 -11.626816 2.019882
3.831184 -8.500949 -0.815778
5.434769 -12.064741 2.572105
4.328749 -9.613946 -0.552563
4.291534 -9.535739 2.414175
4.374968 -9.725666 -0.186147
4.284315 -9.528586 2.799387
2.037577 -4.546543 -1.334989
5.270374 -11.765534 0.225031
2.296676 -5.129478 -1.297518
4.891896 -10.930852 0.627613
2.473273 -5.526484 -1.176910
4.791829 -10.712268 1.026695
2.543851 -5.689513 -0.987102
5.190912 -11.615307 1.562121
2.662046 -5.959448 -0.801413
5.115569 -11.457445 1.987344
3.798238 -8.506993 -0.815080
5.232605 -11.725073 2.495782
4.285400 -9.607110 -0.551307
4.252666 -9.538203 2.411025
4.331226 -9.718959 -0.185729
4.241596 -9.522306 2.793175
2.023262 -4.557158 -1.336024
2.276386 -5.132121 -1.296168
4.895805 -11.042806 0.633056
2.457151 -5.542263 -1.178436
5.216126 -11.770857 1.126401
2.563174 -5.786859 -1.002432
5.140694 -11.611573 1.559196
2.774575 -6.270044 -0.841874
5.184213 -11.720925 2.029894
3.865231 -8.738854 -0.835998
4.240538 -9.596435 -0.549842
4.215410 -9.544076 2.408776
4.285967 -9.708407 -0.185240
4.206771 -9.533518 2.792140
2.012787 -4.576572 -1.339647
2.261594 -5.147172 -1.297968
5.183292 -11.802271 0.675553
2.428316 -5.529236 -1.173857
5.197430 -11.840074 1.131281
2.546928 -5.804815 -1.003996
4.518123 -10.302341 1.381267
2.727168 -6.221512 -0.834074
5.596713 -12.773888 2.208855
3.803521 -8.681122 -0.829200
5.271904 -12.038266 2.554551
4.199005 -9.592882 -0.548795
4.165667 -9.521240 2.399328
4.250450 -9.719646 -0.185170
4.161861 -9.521593 2.784375
1.995256 -4.580028 -1.338612
2.245169 -5.158608 -1.298867
5.118161 -11.765347 0.672412
2.396470 -5.508874 -1.167751
4.957452 -11.401359 1.087704
2.514838 -5.786496 -0.999304
4.480552 -10.314407 1.380780
2.712550 -6.247381 -0.836268
5.541078 -12.767978 2.204475
3.704186 -8.535336 -0.814035
5.204851 -11.998960 2.542339
4.159139 -9.592821 -0.547957
4.121556 -9.510691 2.393029
4.210137 -9.719744 -0.184891
4.125530 -9.528972 2.782305
1.976961 -4.581644 -1.337059
2.229462 -5.171783 -1.300217
5.056513 -11.735451 0.669691
2.371011 -5.502781 -1.164698
7.396928 -17.175470 1.636088
2.504779 -5.818826 -1.003371
2.708764 -6.298755 -0.841874
3.749117 -8.722107 -0.830594
5.117986 -11.912433 2.520205
4.119322 -9.592600 -0.547120
4.082185 -9.510693 2.389430
4.168300 -9.716002 -0.184542
4.077014 -9.507804 2.771952
1.961715 -4.590293 -1.337577
2.213691 -5.184910 -1.301567
5.006111 -11.730986 0.668435
2.354871 -5.518247 -1.166225
4.799566 -11.252426 1.070273
2.489100 -5.838436 -1.005248
2.675870 -6.282603 -0.838461
3.768595 -8.852464 -0.841750
4.076433 -9.584864 -0.545864
4.042862 -9.510537 2.385831
4.139051 -9.741537 -0.184751
4.039271 -9.511309 2.768846
1.950197 -4.607787 -1.340683
2.194820 -5.190811 -1.301117
5.218597 -12.348136 0.702558
2.329480 -5.511966 -1.163172
4.992846 -11.819719 1.122566
2.916652 -6.908046 -1.187651
3.674201 -8.715022 -0.827457
4.996578 -11.857413 2.501124
4.032099 -9.573266 -0.544399
4.006615 -9.517407 2.384031
4.092613 -9.726436 -0.184193
3.998557 -9.507543 2.763670
1.937088 -4.621693 -1.342753
5.030793 -12.008829 0.227265
2.175935 -5.196643 -1.300667
2.307951 -5.514631 -1.162027
4.970009 -11.881189 1.126749
2.895569 -6.925475 -1.188902
4.389683 -10.504172 1.397841
2.992306 -7.163873 -0.953262
3.613055 -8.654250 -0.820484
3.989429 -9.565163 -0.543143
3.961372 -9.502556 2.376833
4.055559 -9.733278 -0.184053
3.962373 -9.514309 2.761599
1.919463 -4.624858 -1.341718
7.224665 -17.416088 0.329118
2.161514 -5.213208 -1.302917
4.676538 -11.284592 0.640173
2.279668 -5.500890 -1.157447
2.432359 -5.875133 -1.007125
4.966280 -12.001507 1.594782
3.481682 -8.417987 -1.118517
3.586630 -8.676016 -0.821356
3.951443 -9.567953 -0.542515
3.919997 -9.496511 2.371884
4.009356 -9.717798 -0.183495
3.911463 -9.485220 2.749176
1.901839 -4.627957 -1.340683
5.202114 -12.665170 0.238993
2.149223 -5.235143 -1.306516
5.161791 -12.579490 0.712606
2.255236 -5.496099 -1.154776
2.428319 -5.923798 -1.014008
4.812216 -11.745073 1.558465
3.453782 -8.433763 -1.119004
3.586512 -8.762239 -0.828328
3.911972 -9.566899 -0.541677
3.880928 -9.495706 2.368285
3.975411 -9.731734 -0.183495
3.866644 -9.470200 2.740894
1.887129 -4.638145 -1.341718
7.066745 -17.377186 0.327442
2.133872 -5.249835 -1.308315
5.468160 -13.459712 0.761384
2.235298 -5.502120 -1.154395
2.371969 -5.844380 -0.998991
4.742835 -11.691897 1.549203
3.436254 -8.475203 -1.122904
3.564136 -8.795015 -0.830246
4.857069 -11.991528 2.514863
3.872558 -9.565685 -0.540840
3.841910 -9.494743 2.364685
3.941417 -9.745552 -0.183495
3.825601 -9.463937 2.735200
1.873182 -4.647962 -1.342753
6.947814 -17.248426 0.324580
2.112084 -5.246036 -1.305616
5.228148 -12.992320 0.733960
2.215574 -5.505859 -1.153631
4.237720 -10.536345 0.993575
2.356259 -5.861378 -1.000555
4.706996 -11.714928 1.550178
2.455305 -6.113927 -0.808969
4.921243 -12.260520 2.092468
3.556474 -8.860409 -0.835301
7.099452 -17.696133 3.706274
3.828922 -9.548814 -0.539165
3.803879 -9.491151 2.360636
3.849589 -9.610065 -0.180702
3.795632 -9.480157 2.736235
1.856946 -4.654472 -1.342753
4.415181 -11.072353 0.208068
2.094481 -5.255186 -1.306066
4.878243 -12.246040 0.690835
2.190529 -5.498969 -1.150578
5.126590 -12.876011 1.212511
2.345280 -5.893427 -1.004622
2.487481 -6.257121 -0.826762
3.523315 -8.867214 -0.834778
3.788937 -9.545414 -0.538223
3.761382 -9.480824 2.354788
3.786537 -9.549088 -0.179306
3.751841 -9.466411 2.728471
1.844945 -4.671706 -1.345859
3.761254 -9.528983 0.178817
2.080415 -5.273342 -1.308765
3.764338 -9.546555 0.537804
2.165560 -5.491970 -1.147525
3.757882 -9.535056 0.896658
2.337725 -5.934660 -1.010254
3.759709 -9.549464 1.260129
3.377878 -8.584025 -1.132654
3.685592 -9.370806 -0.880970
3.751211 -9.547428 -0.537595
3.721143 -9.475758 2.350289
3.747336 -9.547356 -0.179027
3.715245 -9.470457 2.725882
1.826517 -4.672720 -1.344306
3.726513 -9.538329 0.178748
2.066248 -5.291463 -1.311465
3.723004 -9.539169 0.536653
2.142093 -5.488522 -1.145236
3.720231 -9.536978 0.895612
2.330629 -5.977753 -1.016198
3.714819 -9.532936 1.256229
2.468233 -6.337225 -0.835049
3.714825 -9.542792 1.621913
2.767471 -7.109191 -0.667439
3.710305 -9.536106 1.988993
3.707727 -9.534405 -0.536130
3.681689 -9.472340 2.346240
3.708918 -9.547330 -0.178782
3.673774 -9.461758 2.719671
1.810892 -4.680869 -1.344824
3.686704 -9.534493 0.178433
2.047765 -5.298644 -1.311465
3.683926 -9.537203 0.535816
2.120092 -5.488641 -1.143709
3.681177 -9.535036 0.894218
2.309036 -5.984009 -1.015886
3.680807 -9.543994 1.255986
2.452523 -6.362473 -0.837242
3.677230 -9.544643 1.620036
3.669504 -9.524590 -0.892998
3.665708 -9.519685 1.982887
3.668685 -9.532377 -0.535292
3.645103 -9.476040 2.343990
3.664087 -9.530354 -0.178224
3.635181 -9.460096 2.715529
1.797305 -4.694379 -1.346894
3.645540 -9.526760 0.178049
2.031345 -5.311220 -1.312814
3.647760 -9.542542 0.535397
2.099518 -5.492341 -1.142946
3.641472 -9.531077 0.892649
2.280383 -5.971733 -1.012444
3.634021 -9.521545 1.251355
2.380773 -6.241164 -0.820181
3.638966 -9.544501 1.617846
3.628429 -9.516863 -0.891080
3.628961 -9.523251 1.980979
3.624013 -9.515262 -0.533617
3.606458 -9.474136 2.340391
3.625821 -9.530005 -0.177980
3.593210 -9.449254 2.708800
1.783645 -4.707850 -1.348965
3.608721 -9.530077 0.177875
2.012103 -5.316455 -1.312364
3.604534 -9.529064 0.533931
2.080333 -5.499636 -1.142946
3.597610 -9.515777 0.890034
2.251844 -5.959331 -1.009002
3.595151 -9.519317 1.249405
2.354766 -6.238294 -0.818718
3.590984 -9.518332 1.611275
3.591670 -9.520149 -0.890209
3.588076 -9.515653 1.976781
3.586551 -9.516640 -0.532989
3.564435 -9.462960 2.334542
3.584078 -9.520144 -0.177561
3.558844 -9.458123 2.707765
1.767201 -4.714047 -1.348965
3.567014 -9.520144 0.177456
2.000366 -5.341697 -1.316863
3.564950 -9.524753 0.532989
2.050113 -5.477445 -1.136840
3.561580 -9.520812 0.889337
2.215808 -5.926448 -1.002119
3.559816 -9.526230 1.248673
2.346173 -6.281808 -0.823349
3.550828 -9.512302 1.608147
3.553539 -9.519564 -0.888989
3.552093 -9.520761 1.975255
3.546333 -9.510387 -0.531943
3.523895 -9.455258 2.329593
3.539656 -9.502614 -0.177002
3.521762 -9.459626 2.704659
1.752078 -4.723810 -1.350000
3.527506 -9.515662 0.177142
1.983740 -5.354128 -1.318213
3.527519 -9.525901 0.532361
2.025526 -5.469839 -1.133787
3.520026 -9.510764 0.887245
2.185513 -5.908209 -0.997739
3.518970 -9.518117 1.245992
3.222135 -8.719916 -1.141428
3.510760 -9.506108 1.605018
3.511315 -9.507611 -0.886723
3.514080 -9.520210 1.972583
3.506199 -9.503970 -0.530896
3.484127 -9.449218 2.325094
3.500932 -9.499902 -0.176723
3.478038 -9.442856 2.696377
1.733582 -4.724456 -1.348447
3.486005 -9.505389 0.176723
1.968392 -5.370169 -1.320463
3.489436 -9.525029 0.531629
2.013173 -5.495311 -1.137603
3.479955 -9.504284 0.885502
2.117356 -5.785948 -0.975838
3.479587 -9.513563 1.243799
3.203946 -8.764671 -1.145816
3.473488 -9.507174 1.603141
3.471952 -9.502968 -0.885154
3.466685 -9.493691 1.964570
3.468896 -9.504894 -0.530268
3.443775 -9.441183 2.320145
3.463640 -9.500793 -0.176514
3.439765 -9.440418 2.692236
1.722353 -4.745006 -1.352588
3.445985 -9.498702 0.176374
1.946313 -5.367847 -1.318213
3.450042 -9.520251 0.530687
1.987290 -5.483847 -1.133787
3.444045 -9.508880 0.884805
2.100508 -5.802591 -0.977403
3.437578 -9.501384 1.240630
3.170632 -8.768333 -1.144841
3.434238 -9.502521 1.600325
3.448917 -9.543138 -0.887768
3.426188 -9.485423 1.960372
3.428235 -9.496281 -0.529117
3.405509 -9.438481 2.316546
3.425029 -9.497775 -0.176234
3.403514 -9.443280 2.689647
1.707085 -4.754625 -1.353624
3.406727 -9.493733 0.176060
1.926249 -5.370940 -1.317313
3.408029 -9.507794 0.529326
1.968798 -5.492598 -1.134169
3.406798 -9.509590 0.883759
2.068255 -5.776412 -0.971771
3.400378 -9.502111 1.239168
2.178683 -6.091525 -0.794344
3.393733 -9.493989 1.596883
3.398818 -9.508214 -0.883411
3.389093 -9.486232 1.958082
3.389022 -9.491261 -0.528175
3.361406 -9.419111 2.308898
3.387824 -9.498372 -0.176025
3.365990 -9.442367 2.686024
1.691771 -4.764197 -1.354659
3.371562 -9.499913 0.175955
1.912049 -5.390487 -1.320463
3.366811 -9.497043 0.528070
1.935182 -5.458727 -1.125773
3.367595 -9.504522 0.882190
2.086324 -5.891596 -0.989917
3.359240 -9.491467 1.236243
2.182562 -6.170208 -0.803607
3.352012 -9.481565 1.592816
3.358966 -9.501235 -0.881667
3.351381 -9.485047 1.955411
3.353211 -9.495501 -0.527756
3.329155 -9.432625 2.309348
3.347995 -9.491282 -0.175676
3.322090 -9.423085 2.677224
1.675130 -4.770073 -1.354659
3.330434 -9.488982 0.175536
1.893221 -5.397129 -1.320463
3.331657 -9.503084 0.527756
1.916115 -5.465449 -1.125773
3.323857 -9.486135 0.879401
2.103613 -6.006976 -1.008064
3.322810 -9.493767 1.235024
2.219345 -6.344555 -0.825299
3.312377 -9.474562 1.589687
3.317233 -9.488452 -0.879401
3.315662 -9.489274 1.953884
3.313459 -9.488291 -0.526709
3.289787 -9.425789 2.304848
3.306941 -9.480253 -0.175257
3.275821 -9.396316 2.666354
1.668609 -4.805090 -1.362941
3.291389 -9.483548 0.175222
1.879479 -5.418433 -1.324062
3.293886 -9.501446 0.527023
1.897026 -5.472104 -1.125773
3.286809 -9.486384 0.878356
1.966284 -5.678289 -0.951747
3.285755 -9.494053 1.233562
2.188101 -6.325999 -0.821887
3.277347 -9.480465 1.588749
3.276280 -9.477378 -0.877310
3.275465 -9.480379 1.949686
3.276408 -9.488471 -0.526081
3.253687 -9.428003 2.302599
3.272523 -9.487958 -0.175187
3.236707 -9.389430 2.661178
0.384569 -1.120043 -0.317312
3.254372 -9.483630 0.175013
1.858025 -5.417587 -1.322262
3.252927 -9.490213 0.525767
1.877913 -5.478693 -1.125773
3.247865 -9.480834 0.876787
1.943891 -5.677642 -0.950496
3.242311 -9.475413 1.229662
2.108195 -6.164551 -0.799950
3.236568 -9.469418 1.584994
3.239956 -9.479330 -0.876438
3.235371 -9.471317 1.945489
3.234233 -9.473389 -0.524616
3.215093 -9.422705 2.298550
3.230349 -9.472827 -0.174699
3.202665 -9.397014 2.660142
0.388108 -1.143330 -0.323524
3.219320 -9.489251 0.174908
1.842857 -5.435113 -1.324962
3.210166 -9.473137 0.524197
1.854997 -5.474059 -1.123483
3.210276 -9.478905 0.875567
1.965861 -5.807885 -0.971145
3.206037 -9.477271 1.228443
2.136254 -6.318554 -0.818962
3.201596 -9.475042 1.584056
3.203020 -9.479257 -0.875392
3.200407 -9.476973 1.944344
3.195396 -9.467589 -0.523674
3.173462 -9.408019 2.292251
3.194709 -9.476465 -0.174559
3.167377 -9.400812 2.658072
0.385344 -1.148341 -0.324559
3.177911 -9.475783 0.174454
1.825112 -5.445208 -1.325861
3.174543 -9.476708 0.523778
1.829642 -5.461884 -1.119667
3.175905 -9.486275 0.875218
1.947456 -5.820332 -0.972084
3.166008 -9.467696 1.225762
2.083354 -6.233718 -0.807019
3.160994 -9.463676 1.580301
3.166756 -9.480930 -0.874521
3.156737 -9.456429 1.937856
3.157905 -9.465424 -0.522941
3.134439 -9.400552 2.287752
3.155287 -9.468588 -0.174210
3.130270 -9.398982 2.654448
0.378901 -1.142345 -0.322489
3.141669 -9.477327 0.174280
1.807319 -5.455246 -1.326761
3.137675 -9.476357 0.523150
1.805628 -5.453328 -1.116614
3.132758 -9.467038 0.872429
1.946976 -5.887110 -0.982096
3.127958 -9.463611 1.223812
2.057845 -6.229643 -0.805556
3.122986 -9.459647 1.577798
3.126147 -9.469223 -0.872429
3.120634 -9.458069 1.935948
3.123595 -9.472596 -0.522732
3.102215 -9.413288 2.288202
3.115336 -9.458651 -0.173826
3.088381 -9.382326 2.646684
0.370097 -1.128975 -0.318347
3.098605 -9.457831 0.173721
1.788266 -5.461521 -1.326761
3.102715 -9.481557 0.522836
1.789024 -5.467061 -1.118141
3.096595 -9.468448 0.871557
1.936846 -5.925790 -0.987414
3.094290 -9.472586 1.223568
2.068123 -6.334917 -0.818231
3.085657 -9.457346 1.575608
3.084422 -9.453561 -0.869989
3.083950 -9.457705 1.933658
3.084321 -9.464451 -0.521685
3.061493 -9.399971 2.282353
3.079823 -9.461863 -0.173686
3.049637 -9.374679 2.641507
0.369130 -1.139449 -0.320936
3.059414 -9.449566 0.173372
1.763792 -5.451043 -1.322712
3.065106 -9.472790 0.521790
1.767512 -5.465801 -1.116614
3.059237 -9.465928 0.870337
1.911901 -5.919356 -0.985224
3.050837 -9.451214 1.219425
2.015394 -6.243506 -0.805556
3.051247 -9.458125 1.574044
3.052628 -9.468061 -0.870337
3.039476 -9.432908 1.926408
3.046979 -9.461852 -0.520952
3.028512 -9.404507 2.281004
3.040466 -9.447277 -0.173233
3.018532 -9.384740 2.641507
0.363582 -1.135147 -0.319383
3.028061 -9.459660 0.173372
1.745112 -5.455006 -1.322262
3.028808 -9.467684 0.520952
1.748182 -5.467892 -1.115851
3.022978 -9.460837 0.868943
1.922907 -6.021634 -1.001181
3.014652 -9.446150 1.217475
2.010975 -6.301215 -0.812137
3.016264 -9.456900 1.572167
3.013952 -9.455353 -0.868246
3.008178 -9.442936 1.926408
3.007710 -9.447164 -0.519591
2.985486 -9.377359 2.272006
3.006695 -9.449685 -0.173093
2.985053 -9.387335 2.639437
0.356317 -1.125296 -0.316277
2.990643 -9.450583 0.173023
1.728188 -5.464479 -1.323162
2.990772 -9.456728 0.519801
1.722940 -5.451195 -1.111272
2.989187 -9.463211 0.868246
1.892819 -5.995954 -0.995862
2.979727 -9.444736 1.216012
1.988276 -6.302170 -0.811406
2.977758 -9.444242 1.568412
2.977190 -9.448193 -0.866677
2.972131 -9.437880 1.923355
2.976365 -9.457086 -0.519591
2.952618 -9.381632 2.270656
2.971142 -9.446251 -0.172849
2.951590 -9.389810 2.637366
0.344504 -1.100660 -0.309030
2.953316 -9.441363 0.172674
1.708895 -5.466460 -1.322262
2.955819 -9.455156 0.519173
1.703683 -5.453131 -1.110508
2.950071 -9.448348 0.865979
1.971779 -6.318995 -1.048424
2.943071 -9.437509 1.213819
1.927179 -6.179863 -0.794832
2.939959 -9.433320 1.564971
2.118733 -6.802465 -0.623338
2.938483 -9.440185 1.921828
2.118564 -6.810297 -0.373783
2.916860 -9.376485 2.267057
2.910118 -9.366338 2.628049
0.341608 -1.105607 -0.310065
1.688848 -5.472687 -1.322262
2.914783 -9.451168 0.518335
1.683685 -5.459339 -1.110508
2.911900 -9.447673 0.864934
1.950931 -6.333732 -1.049675
2.906710 -9.442541 1.213088
1.899934 -6.175833 -0.793369
2.901394 -9.436987 1.563719
2.086760 -6.787332 -0.621246
2.895790 -9.424618 1.916486
2.084794 -6.789377 -0.372213
2.875691 -9.370849 2.263008
2.087310 -6.806035 -0.124261
2.870170 -9.364514 2.624425
0.323087 -1.058752 -0.296607
2.071366 -6.792090 0.123947
1.661781 -5.452451 -1.315964
2.075786 -6.815106 0.373365
1.662330 -5.457670 -1.108982
2.075340 -6.817911 0.623512
2.034017 -6.686349 -1.106930
1.945306 -6.402754 -0.821643
2.869582 -9.450837 1.564345
2.059581 -6.783136 -0.620200
2.860595 -9.427154 1.914959
2.055866 -6.779411 -0.371271
2.842397 -9.378965 2.262558
2.054845 -6.784571 -0.123738
2.834666 -9.365230 2.621837
0.323848 -1.074671 -0.300748
2.041879 -6.780131 0.123598
1.642176 -5.456353 -1.315514
2.039903 -6.782146 0.371167
1.642881 -5.465606 -1.109364
2.044073 -6.800310 0.621246
2.021463 -6.729353 -1.112875
2.042783 -6.804633 0.872341
1.884154 -6.280212 -0.805069
2.038931 -6.800421 1.124451
2.076453 -6.929964 -0.632925
2.037011 -6.802652 1.380312
2.027569 -6.775419 -0.370643
2.038093 -6.810589 1.641243
2.027139 -6.778292 -0.123493
2.800298 -9.369516 2.620284
2.015876 -6.783736 0.123528
1.617728 -5.447391 -1.311915
2.012190 -6.780003 0.370643
1.617813 -5.454651 -1.105929
2.013469 -6.788654 0.619503
2.008574 -6.776490 -1.119445
2.008244 -6.779718 0.868197
2.116373 -7.149336 -0.915483
2.001103 -6.764281 1.117255
2.073634 -7.013954 -0.639897
2.003165 -6.779947 1.374206
2.002157 -6.780890 -0.370539
2.008151 -6.801192 1.637194
1.998321 -6.772251 -0.123249
2.006971 -6.805946 1.901285
1.989311 -6.785322 0.123423
1.599396 -5.458893 -1.313264
1.987389 -6.783152 0.370434
1.597659 -5.456497 -1.105166
1.982419 -6.774954 0.617586
1.986496 -6.793285 -1.121009
1.977256 -6.766073 0.865516
2.036279 -6.968045 -0.891352
1.971941 -6.752263 1.114126
2.054721 -7.040275 -0.641641
1.976188 -6.775591 1.371917
1.979592 -6.791673 -0.370748
1.973492 -6.770743 1.628196
1.971872 -6.769586 -0.123074
1.978343 -6.796216 1.896626
1.579117 -5.456679 -1.311465
1.960442 -6.774357 0.369597
1.575193 -5.446678 -1.102113
1.956623 -6.770007 0.616540
1.962862 -6.796041 -1.120384
1.958111 -6.784037 0.866979
2.001600 -6.934708 -0.886234
1.948992 -6.756867 1.113814
1.958518 -6.794344 -0.618631
1.947730 -6.761354 1.367719
1.957060 -6.798200 -0.370748
1.949412 -6.771632 1.626846
1.954389 -6.793382 -0.123389
1.944052 -6.761893 1.885238
1.942615 -6.792599 0.123319
1.551911 -5.430033 -1.303816
1.938977 -6.788841 0.370015
1.558200 -5.455647 -1.102876
1.937989 -6.789869 0.617760
1.976075 -6.927886 -1.141033
1.932883 -6.780947 0.865760
1.966505 -6.903470 -0.881359
1.927017 -6.769329 1.114752
1.940886 -6.818048 -0.620200
1.922075 -6.756446 1.365429
1.933413 -6.800810 -0.370539
1.925761 -6.778396 1.626846
1.931755 -6.804011 -0.123458
1.917800 -6.759346 1.882650
1.920523 -6.805112 0.123423
1.538236 -5.454173 -1.308315
1.915268 -6.795568 0.370015
1.537017 -5.453494 -1.101350
1.906715 -6.769743 0.615320
1.953486 -6.940447 -1.141972
1.898451 -6.749434 0.860885
1.930041 -6.866338 -0.875753
1.903376 -6.776014 1.114752
1.921924 -6.842044 -0.621769
1.896357 -6.755554 1.363903
1.915056 -6.826748 -0.371585
1.897355 -6.768188 1.622797
1.913928 -6.831893 -0.123842
1.893152 -6.762279 1.881615
1.896221 -6.809848 0.123389
1.518666 -5.457631 -1.307865
1.893676 -6.809909 0.370434
1.514290 -5.445586 -1.098678
1.888939 -6.797474 0.617237
1.932419 -6.958643 -1.143849
1.829229 -6.591518 0.839924
2.083245 -7.511940 -0.957162
1.880766 -6.786425 1.115378
1.904811 -6.877844 -0.624384
1.873288 -6.764024 1.364284
1.903468 -6.877664 -0.373993
1.872679 -6.771014 1.621897
1.893264 -6.850097 -0.124052
1.871079 -6.774432 1.883168
1.881972 -6.851135 0.124017
1.496510 -5.451624 -1.305166
1.878875 -6.849221 0.372213
1.494321 -5.451099 -1.098678
1.869804 -6.825490 0.619154
1.903772 -6.954248 -1.141972
1.863341 -6.806560 0.866491
2.132964 -7.796803 -0.992504
1.861755 -6.810097 1.118194
1.859343 -6.810618 1.372298
2.564256 -9.399118 -0.510590
1.848362 -6.779712 1.622347
2.558904 -9.385951 -0.169812
1.844881 -6.771602 1.880579
2.537292 -9.371100 0.169463
1.479573 -5.468359 -1.307865
1.860172 -6.875018 0.373260
1.473234 -5.448701 -1.097152
1.831415 -6.778119 0.614274
1.878456 -6.957037 -1.141346
1.837864 -6.811427 0.866247
2.072332 -7.685737 -0.977392
1.843114 -6.835627 1.121322
2.447154 -9.082158 -0.822924
1.830963 -6.800004 1.368864
2.529876 -9.402225 -0.510276
1.830252 -6.806823 1.627296
2.524050 -9.387102 -0.169672
1.827248 -6.800389 1.886791
2.512397 -9.402647 0.169882
1.461431 -5.473235 -1.307865
2.506059 -9.392066 0.509438
1.455216 -5.457604 -1.097915
2.509502 -9.418170 0.852732
1.882839 -7.066301 -1.158241
2.497653 -9.380275 1.191882
2.035604 -7.650363 -0.972030
1.830409 -6.884018 1.128206
2.276783 -8.568814 -0.775686
1.821007 -6.853475 1.378404
2.490482 -9.379679 -0.508601
2.488190 -9.384257 -0.169463
1.808942 -6.827267 1.892485
2.473957 -9.390089 0.169498
1.445294 -5.489610 -1.310565
2.470210 -9.389168 0.508810
1.438110 -5.466197 -1.098678
2.468125 -9.387900 0.849246
1.985152 -7.556199 -1.237397
2.463380 -9.383176 1.191151
2.046164 -7.799510 -0.990067
2.460588 -9.385878 1.536812
2.178631 -8.310355 -0.751631
2.457791 -9.381883 1.885193
2.454184 -9.374789 -0.507868
2.438343 -9.320915 2.224316
2.452890 -9.383213 -0.169288
1.796818 -6.878399 1.904908
2.437646 -9.385118 0.169253
1.453539 -5.600252 -1.335759
2.435415 -9.389999 0.508392
1.413106 -5.448379 -1.094099
1.679544 -6.480317 0.585687
1.965202 -7.587941 -1.241464
1.741268 -6.728137 0.853329
2.056202 -7.950745 -1.008347
2.421880 -9.371459 1.533058
2.137147 -8.269685 -0.747273
2.424537 -9.388503 1.884811
2.419948 -9.377497 -0.507554
1.507513 -5.845952 1.393797
2.415632 -9.374290 -0.168974
2.396166 -9.305474 2.574732
2.401894 -9.381948 0.169044
1.623514 -6.350770 0.343533
1.396024 -5.460887 -1.095625
2.397594 -9.385599 0.847502
1.943588 -7.613895 -1.244593
1.689314 -6.622611 0.839192
2.013237 -7.898244 -1.000791
2.386227 -9.368370 1.531181
2.104364 -8.267808 -0.746402
2.386906 -9.377885 1.880995
2.383754 -9.372336 -0.506821
2.367452 -9.315046 2.218917
2.380924 -9.374912 -0.168835
2.358918 -9.295056 2.569556
2.363750 -9.368946 0.168660
2.364921 -9.387405 0.507345
1.376000 -5.465967 -1.095625
1.599106 -6.356916 0.573485
1.917114 -7.626715 -1.245531
2.358696 -9.383430 1.187982
2.004999 -7.982234 -1.010541
2.352068 -9.370894 1.530242
2.080339 -8.294429 -0.748145
2.346315 -9.361813 1.876034
2.347446 -9.373261 -0.506403
1.564991 -6.253583 1.488276
2.345273 -9.371527 -0.168625
2.325988 -9.301361 2.569038
2.326985 -9.367843 0.168486
2.328576 -9.388257 0.506926
1.353130 -5.455493 -1.092572
2.323181 -9.373507 0.844888
1.884782 -7.610351 -1.241777
2.316658 -9.361180 1.184083
1.976682 -7.993383 -1.011028
1.526815 -6.178817 1.008064
2.037035 -8.243612 -0.742916
2.309857 -9.354698 1.872981
2.307057 -9.350373 -0.504728
2.298401 -9.322288 2.216668
2.310431 -9.378119 -0.168590
2.287264 -9.291064 2.563861
2.291419 -9.364254 0.168276
1.573349 -6.439483 0.347406
1.339670 -5.483069 -1.097152
2.287140 -9.368011 0.843668
1.860077 -7.624560 -1.243028
2.281147 -9.357638 1.182620
1.936553 -7.950088 -1.004691
2.276542 -9.352938 1.524610
2.040288 -8.382314 -0.754769
2.275332 -9.355073 1.871455
2.272990 -9.352547 -0.504414
2.261248 -9.311317 2.212169
2.272493 -9.364750 -0.168206
1.529161 -6.306343 1.738746
2.259186 -9.374140 0.168311
2.255734 -9.366996 0.504937
1.322360 -5.495347 -1.098678
2.253028 -9.370127 0.843145
1.836220 -7.642530 -1.244906
2.248932 -9.367475 1.182864
1.955593 -8.145630 -1.028577
2.241368 -9.343148 1.521795
2.004514 -8.362257 -0.752328
2.239462 -9.349594 1.868783
2.239399 -9.356540 -0.504205
2.227636 -9.307393 2.209469
2.235380 -9.346951 -0.167753
2.224418 -9.308297 2.564379
2.223928 -9.364070 0.167997
2.221431 -9.360822 0.504205
1.302771 -5.493971 -1.097533
1.622473 -6.847528 0.615668
1.806315 -7.629355 -1.241777
1.634259 -6.908010 0.871610
1.911205 -8.078663 -1.019315
1.640965 -6.941768 1.129770
1.959826 -8.297115 -0.745879
2.212954 -9.376076 1.872599
2.207901 -9.361971 -0.504100
2.192734 -9.297660 2.205420
2.202079 -9.344581 -0.167578
2.186010 -9.283655 2.555579
2.187396 -9.348028 0.167578
2.189198 -9.370463 0.504309
2.185398 -9.361580 0.841053
1.552154 -6.654199 -1.082214
2.180448 -9.355118 1.179452
1.887495 -8.104619 -1.021753
2.174585 -9.344720 1.519605
1.901594 -8.171611 -0.734026
2.170736 -9.335557 1.863059
2.172775 -9.351731 -0.503158
1.489094 -6.414211 1.520219
2.168994 -9.350263 -0.167543
2.149666 -9.274292 2.550921
2.152509 -9.345862 0.167403
1.549099 -6.736701 0.362270
2.147800 -9.347791 0.839135
1.532011 -6.673053 -1.084404
2.143783 -9.345260 1.177258
1.840123 -8.027956 -1.011272
2.143275 -9.358030 1.520543
2.137696 -9.341164 1.862677
2.135222 -9.337841 -0.502007
1.467563 -6.423169 1.521119
2.133672 -9.346079 -0.167334
2.116849 -9.279855 2.550403
1.607586 -7.092999 0.126949
1.541002 -6.810247 0.365933
1.706538 -7.547926 0.677026
1.500873 -6.643678 -1.078772
2.109838 -9.346876 1.176527
1.796365 -7.964619 -1.002497
2.104951 -9.340403 1.516476
2.135782 -9.477212 -0.849943
2.103783 -9.342823 1.861533
2.099982 -9.333548 -0.501379
2.085419 -9.276381 2.195072
2.100160 -9.349568 -0.167264
1.448576 -6.454096 1.772393
1.611974 -7.229336 0.129287
1.523731 -6.844829 0.367503
2.076432 -9.335330 0.836695
1.481530 -6.666231 -1.081588
2.073327 -9.336743 1.174333
1.770703 -7.980530 -1.003716
1.363029 -6.148226 0.997426
1.875428 -8.459509 -0.758081
2.068186 -9.336691 1.858861
2.067390 -9.340820 -0.501379
1.447512 -6.545521 1.547663
1.577382 -7.138692 -0.127612
2.048265 -9.277430 2.545744
2.046813 -9.332733 0.166775
2.044054 -9.335732 0.500855
2.042982 -9.338629 0.836347
1.469641 -6.723467 -1.090035
2.041145 -9.345862 1.174577
1.714479 -7.856719 -0.987386
2.039271 -9.352941 1.516163
1.878569 -8.615896 -0.771503
1.409988 -6.472216 1.287579
2.030099 -9.326513 -0.500227
2.019780 -9.286906 2.194173
1.517210 -6.981966 -0.124715
2.011769 -9.265644 2.540568
2.012536 -9.332001 0.166636
2.012716 -9.348667 0.501169
2.008694 -9.337913 0.835649
1.443673 -6.716968 -1.088158
2.005593 -9.339344 1.172871
1.712863 -7.982994 -1.002497
1.999985 -9.329099 1.511157
1.805883 -8.423693 -0.753723
1.995963 -9.318267 1.852374
1.996695 -9.329637 -0.500018
1.979608 -9.257692 2.185624
1.993364 -9.329981 -0.166531
1.976187 -9.257496 2.536427
1.977046 -9.325276 0.166391
1.975523 -9.334143 0.500018
1.974026 -9.335120 0.834778
1.405517 -6.652389 -1.076895
1.968059 -9.322981 1.169946
1.685806 -7.992808 -1.002985
1.964965 -9.324425 1.509280
1.860791 -8.837730 -0.790154
1.957760 -9.298283 1.847031
1.960827 -9.320912 -0.499180
1.947281 -9.264545 2.185624
1.958728 -9.327098 -0.166356
1.942670 -9.258665 2.534874
1.943668 -9.328204 0.166321
1.938860 -9.321427 0.498971
1.937773 -9.332539 0.833906
1.397175 -6.734864 -1.089410
1.937924 -9.341456 1.171408
1.665551 -8.035576 -1.007616
1.329530 -6.420054 1.038412
1.823472 -8.812955 -0.787365
1.922873 -9.301551 1.846268
1.924226 -9.316302 -0.498552
1.914099 -9.275438 2.186524
1.923330 -9.320168 -0.166112
1.910729 -9.267282 2.535392
1.407754 -6.882432 0.122621
1.905111 -9.322268 0.498657
1.399696 -6.867448 -1.110059
1.315459 -6.459916 0.809456
1.632130 -8.022174 -1.005178
1.287420 -6.327870 1.022769
1.767695 -8.696260 -0.776383
1.893128 -9.321673 1.848939
1.890107 -9.315132 -0.498134
1.876288 -9.255324 2.180226
1.885619 -9.301348 -0.165658
1.876069 -9.262535 2.532286
1.873766 -9.318022 0.165903
1.871378 -9.322987 0.498343
1.578222 -7.876760 0.702824
1.347420 -6.724849 -1.086281
1.270651 -6.347455 0.794832
1.586443 -7.932162 -0.993235
1.861796 -9.317372 1.504900
1.718604 -8.608594 -0.768016
1.292205 -6.472735 1.283000
1.856862 -9.309596 -0.497506
1.841779 -9.242385 2.175727
1.853921 -9.311796 -0.165728
1.839202 -9.246290 2.526074
1.837355 -9.304887 0.165554
1.836507 -9.317705 0.497715
1.261075 -6.404085 0.571044
1.322412 -6.721759 -1.085030
1.289452 -6.560268 0.820912
1.584755 -8.070107 -1.009809
1.827358 -9.314121 1.503335
1.837342 -9.365012 -0.834952
1.824725 -9.309298 1.843978
1.822818 -9.308182 -0.497087
1.806138 -9.231544 2.171677
1.820639 -9.314285 -0.165658
1.802842 -9.231798 2.520380
1.802961 -9.301429 0.165379
1.803972 -9.324059 0.497715
1.801352 -9.319245 0.830420
1.300064 -6.732152 -1.085968
1.797906 -9.318874 1.165315
1.563339 -8.110676 -1.014197
1.792967 -9.310744 1.501771
1.836288 -9.535708 -0.849594
1.789250 -9.300187 1.840925
1.787678 -9.300758 -0.496354
1.176722 -6.127908 1.440587
1.786983 -9.314692 -0.165554
1.771697 -9.243727 2.521933
1.770109 -9.305700 0.165344
1.767314 -9.308716 0.496564
1.768812 -9.325477 0.830420
1.276925 -6.738590 -1.086281
1.253591 -6.621773 0.827493
1.577072 -8.338442 -1.041983
1.757889 -9.303360 1.499581
1.785976 -9.452004 -0.841576
1.759689 -9.321810 1.843978
1.753720 -9.299090 -0.495936
1.738759 -9.228608 2.168078
1.752240 -9.309081 -0.165344
1.736207 -9.232768 2.517274
1.412614 -7.570156 0.134418
1.390335 -7.465213 0.397963
1.196496 -6.430651 0.572265
1.247618 -6.711933 -1.081275
1.106517 -5.958618 0.744134
1.562078 -8.420016 -1.051489
1.721803 -9.290015 1.496452
1.751518 -9.450345 -0.840879
1.190626 -6.430302 1.271170
1.719796 -9.297300 -0.495517
1.134621 -6.139806 1.441486
1.293522 -7.006512 -0.124366
1.703968 -9.238772 2.517274
1.704380 -9.313898 0.165274
1.699415 -9.305108 0.495726
1.696155 -9.296436 0.826759
1.220994 -6.698757 -1.078459
1.696310 -9.315709 1.162634
1.486136 -8.169569 -1.019559
1.684773 -9.270704 1.492385
1.695364 -9.328983 -0.829548
1.686152 -9.287507 1.834819
1.685193 -9.291455 -0.494889
1.173637 -6.477378 1.519769
1.683290 -9.299443 -0.164960
1.667926 -9.223752 2.511580
1.665855 -9.286330 0.164681
1.668331 -9.318848 0.496145
1.662290 -9.294456 0.826062
1.192046 -6.671865 -1.073453
1.659248 -9.296168 1.159465
1.455519 -8.162982 -1.018097
1.655172 -9.292087 1.494888
1.661391 -9.326999 -0.828851
1.652691 -9.287538 1.833675
1.653100 -9.299247 -0.494994
1.634187 -9.202179 2.157730
1.648025 -9.289511 -0.164681
1.634709 -9.223811 2.510027
1.633777 -9.294057 0.164716
1.148161 -6.544935 0.348243
1.628461 -9.292352 0.825365
1.173858 -6.705172 -1.078146
1.395953 -7.981999 0.994941
1.470745 -8.418313 -1.049295
1.624086 -9.305591 1.496139
1.458487 -8.365374 -0.742916
1.617226 -9.275843 1.830240
1.616517 -9.281350 -0.493737
1.117698 -6.423976 1.505373
1.614903 -9.291265 -0.164611
1.599526 -9.212332 2.505368
1.598609 -9.283938 0.164437
1.109748 -6.458356 0.343429
1.594392 -9.298258 0.825365
1.152609 -6.728899 -1.081275
1.014499 -5.922615 0.737797
1.432311 -8.370566 -1.042714
1.584938 -9.272261 1.489882
1.450740 -8.496107 -0.754071
1.581237 -9.270097 1.827950
1.580810 -9.277369 -0.493214
1.084008 -6.368475 1.491425
1.581454 -9.290933 -0.164506
1.565741 -9.208336 2.502780
1.563908 -9.285790 0.164367
1.073944 -6.383407 0.339242
1.294072 -7.708274 0.683824
0.088866 -0.529903 -0.085100
1.555921 -9.287854 1.156296
1.412595 -8.432292 -1.049783
1.547996 -9.250461 1.485502
1.395452 -8.347840 -0.740475
1.223251 -7.325562 1.443661
1.548745 -9.284800 -0.493319
1.533245 -9.191876 2.151432
1.071458 -6.430353 -0.113790
1.533271 -9.211840 2.502263
1.532779 -9.288953 0.164332
1.529942 -9.281843 0.493005
1.524597 -9.269575 0.821879
1.292526 -7.867151 -1.262739
1.523505 -9.283169 1.155078
1.393948 -8.493737 -1.056851
1.518591 -9.263340 1.486753
1.359069 -8.299334 -0.735769
1.520003 -9.292270 1.830240
1.151424 -7.046751 -0.374202
1.129109 -6.910184 1.616498
1.513345 -9.271879 -0.163983
1.498984 -9.193994 2.496051
1.498777 -9.274245 0.163983
1.497216 -9.285156 0.492900
1.114922 -6.922004 0.613402
1.270195 -7.894797 -1.266494
1.491138 -9.278370 1.153859
1.363032 -8.490711 -1.055876
1.485621 -9.264684 1.486127
1.323472 -8.262714 -0.732108
1.486695 -9.281751 1.827187
1.485555 -9.285007 -0.492795
1.472489 -9.213647 2.154131
1.482230 -9.285003 -0.164122
1.464449 -9.183908 2.491910
1.044706 -6.610944 0.116826
1.461995 -9.272571 0.491958
1.138774 -7.238985 0.641118
1.256582 -7.996971 -1.282137
1.316764 -8.389519 -1.042714
1.453579 -9.271765 1.486441
1.289074 -8.231853 -0.728971
1.449026 -9.263862 1.822608
1.446581 -9.258816 -0.491121
0.979272 -6.274992 1.466231
1.448269 -9.280241 -0.163948
0.937267 -6.012721 1.630560
1.026871 -6.656232 0.117559
1.428099 -9.267747 0.491435
1.424720 -9.267310 0.820310
1.234657 -8.040359 -1.288394
0.907370 -5.915872 0.734872
1.255209 -8.202820 -0.726007
1.238112 -8.100552 1.592874
1.412444 -9.251963 -0.490493
0.946786 -6.209019 1.450034
1.414058 -9.273379 -0.163738
1.397098 -9.172900 2.486216
1.023587 -6.784171 0.119758
1.394849 -9.266750 0.491121
0.928735 -6.184768 0.547164
1.389184 -9.262067 1.149959
1.189637 -7.941084 -0.985923
1.382675 -9.240660 1.479870
1.209781 -8.094834 -0.716072
1.050478 -7.028917 1.381457
1.386769 -9.290176 -0.492272
0.896880 -6.015525 1.404144
1.379912 -9.266393 -0.163529
1.367344 -9.193007 2.490357
1.065181 -7.230852 0.127577
0.938818 -6.388525 0.338404
1.362764 -9.284677 0.821007
0.077934 -0.531620 -0.085100
1.356557 -9.264894 1.149715
1.159612 -7.929475 -0.983973
1.350411 -9.245430 1.479870
1.157071 -7.931428 -0.701255
1.349022 -9.247209 1.816502
1.155631 -7.931251 -0.420048
0.876998 -6.026334 1.405944
1.343531 -9.243447 -0.163040
0.880635 -6.066177 1.642466
1.330148 -9.253464 0.163180
1.034727 -7.216188 0.382053
1.322800 -9.248191 0.817347
0.855949 -5.991717 0.743159
1.130805 -7.925614 -0.982998
1.035275 -7.265132 1.162308
1.125728 -7.909776 -0.698989
0.830791 -5.844756 1.147525
1.068724 -7.528083 -0.398486
0.871593 -6.147203 1.433388
0.999374 -7.048419 -0.124261
1.297715 -9.164074 2.480004
1.294560 -9.246395 0.162971
0.890317 -6.375299 0.337358
1.004006 -7.198558 0.635888
1.287215 -9.252736 1.147034
1.103935 -7.945436 -0.984948
1.287475 -9.278337 1.483625
1.002099 -7.231009 -0.638677
1.279582 -9.233289 1.811922
1.092824 -7.895793 -0.417746
0.931146 -6.744994 -0.118851
0.833246 -6.043618 1.634701
0.888649 -6.512650 0.114732
0.866442 -6.366495 0.336730
1.258733 -9.273214 0.818741
1.067447 -7.874302 0.975686
1.076192 -7.949241 -0.984948
0.795079 -5.880526 0.939858
0.958990 -7.102172 -0.626998
0.848242 -6.290267 1.233771
1.065742 -7.913601 -0.418478
0.840831 -6.251782 1.456333
0.908130 -6.752167 -0.118921
1.231076 -9.165467 2.477934
1.228922 -9.247278 0.162831
0.773857 -5.846480 0.515962
1.065414 -8.070847 0.999572
1.211373 -9.188892 -1.138016
0.927187 -7.042684 1.125077
1.045958 -7.944835 -0.701081
0.825843 -6.281366 1.231481
0.919373 -7.002211 -0.370120
1.209868 -9.239707 -0.162656
1.198575 -9.165877 2.476898
1.197150 -9.255477 0.162901
1.190930 -9.232733 0.487876
1.190493 -9.242045 0.815255
0.068551 -0.532912 -0.085100
0.924178 -7.194412 0.890621
1.186363 -9.248196 -1.144841
0.841856 -6.571711 1.049363
1.182268 -9.229040 -0.814035
0.878726 -6.878583 -0.363421
1.173588 -9.199499 2.141084
1.175840 -9.229987 -0.162412
0.880841 -6.923976 1.870227
1.160840 -9.227856 0.162342
0.977835 -7.784056 0.411151
0.742184 -5.924887 0.522412
1.154950 -9.246170 1.144109
1.160952 -9.307436 -1.151665
0.810278 -6.496059 1.036848
0.079296 -0.636630 -0.056128
0.992548 -7.980001 1.563107
1.146178 -9.228332 -0.487352
1.142668 -9.213210 2.143334
0.811232 -6.540882 -0.115046
0.861912 -6.959452 1.879026
0.777855 -6.371888 0.336416
1.124498 -9.238264 0.814209
1.122845 -9.238126 1.142647
0.089211 -0.735046 -0.090915
0.801858 -6.616509 1.055620
0.074680 -0.617123 -0.054385
0.687766 -5.683386 1.112798
1.113892 -9.218202 -0.486620
0.823344 -6.823714 1.586805
0.783372 -6.501981 -0.114313
1.100205 -9.145126 2.468098
1.099182 -9.245471 0.162517
0.749495 -6.322997 0.333694
0.725959 -6.133595 0.540366
1.087334 -9.214389 1.139235
0.080140 -0.680152 -0.084090
0.661043 -5.618727 0.896057
0.074850 -0.637168 -0.056128
0.758170 -6.453992 1.263156
1.080546 -9.212116 -0.486096
0.796799 -6.803320 1.581406
0.756258 -6.466939 -0.113650
1.068052 -9.146993 2.467581
0.888170 -7.699763 0.135291
1.059641 -9.214543 0.486096
0.916331 -7.992915 0.703870
0.061104 -0.533817 -0.085100
1.055388 -9.220100 1.139478
0.075962 -0.664649 -0.082140
0.734370 -6.435496 1.025897
0.071723 -0.629507 -0.055431
1.047842 -9.211078 1.802000
0.846390 -7.451794 -0.393043
0.782179 -6.897203 1.602551
0.726920 -6.409931 -0.112603
1.034377 -9.135309 2.463440
0.848628 -7.601613 0.133511
0.872376 -7.826725 0.412721
0.700091 -6.301010 0.554659
0.059240 -0.534027 -0.085100
0.871245 -7.866463 0.971786
0.073089 -0.660977 -0.081652
0.749462 -6.777690 1.080024
0.070400 -0.637675 -0.056128
1.016758 -9.224438 1.803908
0.819499 -7.446763 -0.392624
1.010727 -9.199208 2.136585
0.702138 -6.390564 -0.112219
1.001008 -9.125422 2.459816
0.785958 -7.258460 0.127437
0.052990 -0.490175 -0.113825
0.856671 -7.963459 0.700732
0.057469 -0.534220 -0.085100
0.701010 -6.527165 0.806044
0.068357 -0.637531 -0.078728
0.683747 -6.387434 1.017450
0.069867 -0.653766 -0.057523
0.862866 -8.074044 1.578372
0.983807 -9.220940 -0.485992
0.767413 -7.204660 1.672736
0.980304 -9.218612 -0.161819
0.967926 -9.117333 2.456711
0.780408 -7.450097 0.130753
0.833152 -7.994001 0.703173
0.055604 -0.534418 -0.085100
0.956319 -9.206953 1.136554
0.068588 -0.661459 -0.081652
0.953525 -9.211346 1.466730
0.068520 -0.661921 -0.058220
0.950718 -9.199899 1.797803
0.949563 -9.204452 -0.484945
0.947689 -9.201999 2.135685
0.793099 -7.714157 -0.135361
0.936685 -9.126421 2.458263
0.931416 -9.201571 0.161435
0.928478 -9.204595 0.484840
0.799852 -7.943336 0.698466
0.060455 -0.601435 -0.095738
0.659587 -6.573378 0.811162
0.067071 -0.669596 -0.082627
0.919400 -9.194963 1.463601
0.066209 -0.662156 -0.058220
0.918598 -9.203161 1.797803
0.917033 -9.203734 -0.484736
0.914019 -9.189737 2.132086
0.914539 -9.211303 -0.161574
0.904442 -9.125791 2.457228
0.899486 -9.206758 0.161470
0.723864 -7.422553 0.390845
0.659973 -6.791945 0.597017
0.051872 -0.534793 -0.085100
0.578291 -5.973006 0.736822
0.064733 -0.669826 -0.082627
0.778694 -8.057554 1.282137
0.062940 -0.652467 -0.057348
0.884519 -9.202904 -0.484526
0.881004 -9.183172 2.129837
0.690348 -7.195860 -0.126181
0.873438 -9.121047 2.455158
0.868575 -9.205707 0.161400
0.700006 -7.446908 0.391996
0.635888 -6.790240 0.596668
0.053045 -0.566430 -0.090106
0.063249 -0.677943 -0.083602
0.628582 -6.750290 1.073766
0.059372 -0.638796 -0.056128
0.855389 -9.203336 1.796658
0.682606 -7.358265 -0.387286
0.850187 -9.182163 2.128937
0.661913 -7.162384 -0.125553
0.839820 -9.104804 2.449981
0.695975 -7.707080 0.677026
0.049649 -0.550873 -0.087603
0.663179 -7.372643 0.908902
0.060172 -0.670251 -0.082627
0.573284 -6.398293 1.017450
0.056542 -0.631052 -0.055431
0.820460 -9.174978 1.790552
0.625313 -7.006498 -0.368654
0.818304 -9.187016 2.129387
0.659040 -7.413631 -0.129916
0.808715 -9.115377 2.452052
0.801851 -9.183657 0.160911
0.800440 -9.204583 0.484212
0.797747 -9.192204 0.807236
0.049430 -0.570723 -0.090732
0.795219 -9.200348 1.133873
0.058514 -0.678368 -0.083602
0.790842 -9.187083 1.460472
0.055535 -0.645141 -0.056651
0.787420 -9.166050 1.788262
0.597441 -6.968839 -0.366561
0.786229 -9.189816 2.129387
0.587739 -6.883903 -0.120596
0.776072 -9.108521 2.449464
0.570746 -6.811088 0.119305
0.630788 -7.559318 0.397544
0.052672 -0.633887 -0.100744
0.639908 -7.717361 0.950825
0.055491 -0.670654 -0.082627
0.757630 -9.176007 1.458282
0.053447 -0.647316 -0.056826
0.756064 -9.176569 1.789788
0.754275 -9.174413 -0.482433
0.640538 -7.807704 1.808606
0.567948 -6.937732 -0.121504
0.744114 -9.109249 2.448946
0.552568 -6.882803 0.120526
0.597714 -7.477856 0.393148
0.732922 -9.189606 0.806539
0.048265 -0.606499 -0.096364
0.615165 -7.747252 0.954237
0.053150 -0.670844 -0.082627
0.724817 -9.168750 1.456718
0.051030 -0.645513 -0.056651
0.721402 -9.145881 1.783301
0.722558 -9.180971 -0.482642
0.616027 -7.844863 1.816705
0.719606 -9.184450 -0.160806
0.712464 -9.113716 2.449464
0.705025 -9.183576 0.160772
0.703095 -9.200512 0.483584
0.699779 -9.178202 0.805319
0.049144 -0.646057 -0.102621
0.696578 -9.178478 1.130216
0.051707 -0.682902 -0.084090
0.438361 -5.802926 0.921712
0.048176 -0.637740 -0.055954
0.690507 -9.162047 1.785972
0.689908 -9.175472 -0.482224
0.688349 -9.176169 2.124438
0.686497 -9.172947 -0.160562
0.678634 -9.089178 2.442217
0.671942 -9.172020 0.160527
0.670394 -9.194942 0.483166
0.667593 -9.178601 0.805145
0.042600 -0.587119 -0.093235
0.524376 -7.244500 0.891840
0.050181 -0.694958 -0.085552
0.425767 -5.910816 0.938607
0.049528 -0.687585 -0.060312
0.561290 -7.811282 1.522274
0.525642 -7.333096 -0.385297
0.656315 -9.178515 2.124438
0.654901 -9.181271 -0.160667
0.646627 -9.087637 2.441181
0.639782 -9.172314 0.160492
0.469871 -6.770401 0.355675
