# This PCD file was generated using the MATLAB® pcwrite function
# from Computer Vision Toolbox®.
# .PCD v.7 - Point Cloud Data file format
VERSION .7
FIELDS x y z
SIZE 4 4 4
TYPE F F F
COUNT 1 1 1
WIDTH 1684
HEIGHT 1
VIEWPOINT 0 0 0 1 0 0 0
POINTS 1684
DATA ascii
-6.504913 24.602707 0.444199
-1.825922 6.910833 -1.650241
-2.087855 7.907796 0.428632
-2.032762 7.699131 -1.547843
-3.240764 12.283149 1.111410
-2.010379 7.625136 -1.248973
-2.242468 8.511449 1.080737
-2.037303 7.738212 -0.982511
-2.015936 7.662485 1.254917
-2.008458 7.634063 -0.690622
-2.022702 7.693660 1.546316
-2.006636 7.637970 -0.413873
-2.010031 7.656331 1.827502
-2.005907 7.646054 -0.137979
-2.009558 7.665421 2.123352
-1.548174 5.935029 -1.643501
-6.412430 24.600109 0.443745
-1.800803 6.913393 -1.649341
-2.058731 7.909236 0.428317
-1.999942 7.683379 -1.543263
-3.241499 12.462143 1.126575
-1.981760 7.624461 -1.247721
-2.211248 8.513461 1.080006
-2.012770 7.754884 -0.983729
-1.984711 7.652267 1.252102
-1.979795 7.633314 -0.689925
-1.996324 7.702575 1.546698
-1.978458 7.639129 -0.413559
-1.980362 7.651981 1.824803
-1.974697 7.635586 -0.137665
-1.981336 7.666778 2.121799
-1.520711 5.914203 -1.636254
-6.228988 24.242731 0.436904
-1.774723 6.912087 -1.647542
-2.031496 7.912152 0.428108
-1.970180 7.678904 -1.540974
-3.236082 12.621989 1.139997
-1.955135 7.631332 -1.247721
-2.181023 8.519205 1.079762
-1.971422 7.706090 -0.976661
-1.958836 7.656892 1.251789
-1.949192 7.624735 -0.688530
-1.966997 7.699986 1.544790
-1.950794 7.642117 -0.413349
-1.952677 7.655070 1.823903
-1.949367 7.642092 -0.137665
-1.953040 7.662075 2.118693
-1.499106 5.915730 -1.635219
-6.103363 24.084921 0.433692
-1.750836 6.914155 -1.646642
-2.002397 7.913386 0.427794
-1.944324 7.689542 -1.541737
-3.237396 12.812854 1.156208
-1.925949 7.622451 -1.245219
-2.153244 8.528316 1.080006
-1.949740 7.727984 -0.978611
-1.929201 7.652190 1.249912
-1.923049 7.633425 -0.688705
-1.936654 7.687428 1.540974
-1.923976 7.642734 -0.413035
-1.927283 7.661503 1.823903
-1.920727 7.641093 -0.137525
-1.927222 7.672593 2.119728
-1.480887 5.926292 -1.636772
-6.002788 24.040113 0.432506
-1.724330 6.910771 -1.644392
-1.975243 7.922266 0.427899
-1.917391 7.690232 -1.540592
-3.244022 13.020714 1.173988
-1.898373 7.625295 -1.244593
-2.116754 8.508811 1.076594
-1.930895 7.767492 -0.982754
-1.903428 7.662713 1.250537
-1.897727 7.639760 -0.688705
-1.908864 7.690331 1.540210
-1.894884 7.639710 -0.412512
-1.900526 7.668185 1.823903
-1.893083 7.643869 -0.137455
-1.899033 7.673647 2.118175
-1.459269 5.927673 -1.635736
-5.908332 24.018200 0.431738
-1.699264 6.912964 -1.643492
-1.942814 7.909716 0.426852
-1.890068 7.694972 -1.540210
-3.240816 13.204171 1.189502
-1.870801 7.628037 -1.243967
-2.089404 8.525788 1.077813
-1.901883 7.766473 -0.981780
-1.871972 7.650123 1.247409
-1.870572 7.644403 -0.688530
-1.880144 7.689318 1.538684
-1.864888 7.632696 -0.411779
-1.869585 7.657734 1.819854
-1.867335 7.654316 -0.137525
-1.873613 7.685859 2.119728
-1.437657 5.928976 -1.634701
-5.816916 24.007584 0.431179
-1.672835 6.909382 -1.641243
-1.917986 7.921939 0.427166
-1.860424 7.690073 -1.537921
-3.247603 13.434240 1.209199
-1.844168 7.634520 -1.243967
-2.069410 8.573553 1.082931
-1.874759 7.773065 -0.981780
-1.845668 7.652448 1.246783
-1.842015 7.643137 -0.687833
-1.851452 7.688200 1.537157
-1.837297 7.635277 -0.411570
-1.840571 7.654738 1.817604
-1.836338 7.637134 -0.137106
-1.843149 7.671368 2.114034
-1.414707 5.924563 -1.632113
-5.734943 24.017017 0.431005
-1.650364 6.916788 -1.641693
-1.888930 7.922756 0.426852
-1.831748 7.688881 -1.536394
-3.243140 13.623812 1.225235
-1.817924 7.636752 -1.243341
-2.047400 8.607405 1.086343
-1.843462 7.756064 -0.978855
-1.816208 7.647311 1.244906
-1.812102 7.635951 -0.686613
-1.826854 7.698117 1.537921
-1.811965 7.641328 -0.411570
-1.815174 7.660800 1.817604
-1.810587 7.647390 -0.137176
-1.814579 7.670237 2.111964
-1.393287 5.921700 -1.630042
-5.641479 23.996008 0.430272
-1.626208 6.922507 -1.641693
-1.861261 7.929302 0.426852
-1.806242 7.694913 -1.536394
-3.243898 13.830404 1.242841
-1.786296 7.621895 -1.239900
-2.022771 8.637693 1.089268
-1.818191 7.770181 -0.979830
-1.787701 7.645911 1.243654
-1.784074 7.636409 -0.686090
-1.797737 7.694889 1.536012
-1.785286 7.647605 -0.411570
-1.789306 7.670886 1.818504
-1.782064 7.645873 -0.137036
-1.786484 7.670877 2.110410
-1.371136 5.924884 -1.629525
-5.555422 24.005814 0.430097
-1.597645 6.909154 -1.637194
-1.831774 7.927968 0.426433
-1.777145 7.697656 -1.535631
-3.244237 14.063522 1.262712
-1.759237 7.632240 -1.240525
-1.989489 8.631161 1.087562
-1.796402 7.799694 -0.982754
-1.761885 7.655956 1.244280
-1.756516 7.638707 -0.685741
-1.767765 7.693773 1.534486
-1.752770 7.634632 -0.410523
-1.758566 7.665996 1.815805
-1.755366 7.652047 -0.137036
-1.758832 7.673301 2.109375
-1.349589 5.925867 -1.628489
-5.448325 23.942169 0.428596
-1.570581 6.907363 -1.635394
-1.801430 7.922628 0.425805
-1.749396 7.699983 -1.534868
-3.245411 14.296257 1.282584
-1.732146 7.636409 -1.240213
-1.952138 8.613226 1.084394
-1.766927 7.802354 -0.982267
-1.733410 7.654351 1.243028
-1.728960 7.640905 -0.685393
-1.740466 7.697980 1.534104
-1.725674 7.638755 -0.410419
-1.729648 7.662583 1.813555
-1.726881 7.650326 -0.136897
-1.732034 7.679394 2.109375
-1.327627 5.924887 -1.626937
-5.371517 23.971815 0.428806
-1.547668 6.912533 -1.635394
-1.770713 7.915225 0.425073
-1.718222 7.686883 -1.531051
-3.248468 14.544727 1.303850
-1.705092 7.634399 -1.238961
-1.924860 8.625464 1.085125
-1.702160 7.633795 -0.960331
-1.704102 7.648787 1.241151
-1.701413 7.643004 -0.685044
-1.716633 7.711376 1.535631
-1.702066 7.652234 -0.410837
-1.702962 7.662570 1.812206
-1.698000 7.646546 -0.136722
-1.705638 7.687279 2.109893
-1.304644 5.914165 -1.622795
-5.283066 23.968939 0.428422
-1.522693 6.914086 -1.634494
-1.744363 7.927209 0.425387
-1.690614 7.682951 -1.529143
-3.249842 14.781144 1.324070
-1.678010 7.638374 -1.238648
-1.895592 8.636008 1.085612
-1.706969 7.783177 -0.978367
-1.676548 7.650829 1.240525
-1.671742 7.635272 -0.683824
-1.686348 7.701978 1.532578
-1.674489 7.654227 -0.410628
-1.675373 7.664659 1.811306
-1.669163 7.642658 -0.136548
-1.672614 7.664876 2.102129
-1.282548 5.917019 -1.622278
-5.200643 23.993097 0.428526
-1.498547 6.919360 -1.634494
-1.714989 7.925441 0.424968
-1.664931 7.700610 -1.531433
-3.246974 15.030547 1.345336
-1.646667 7.629026 -1.236145
-1.870040 8.663918 1.088293
-1.685651 7.816255 -0.981780
-1.648581 7.650842 1.239587
-1.642982 7.631323 -0.682952
-1.655628 7.696591 1.530288
-1.645166 7.654455 -0.410314
-1.646859 7.668843 1.810856
-1.641637 7.644528 -0.136478
-1.645850 7.670667 2.102129
-1.263498 5.929018 -1.624348
-2.466593 11.584511 0.206741
-1.470745 6.913369 -1.631795
-1.685101 7.927766 0.424759
-1.636001 7.696773 -1.529525
-3.247470 15.291251 1.367648
-1.619618 7.632795 -1.235832
-1.837859 8.668772 1.088050
-1.659869 7.835974 -0.983486
-1.620121 7.654901 1.239274
-1.615510 7.633113 -0.682604
-1.627531 7.696561 1.529143
-1.615132 7.644518 -0.409477
-1.619678 7.672638 1.810406
-1.612780 7.646581 -0.136408
-1.618121 7.678538 2.102646
-1.240815 5.923937 -1.621760
-1.444209 6.907017 -1.629096
-1.652926 7.912094 0.423607
-1.609929 7.706280 -1.530288
-3.251878 15.579446 1.392400
-1.594173 7.644204 -1.236771
-1.799496 8.636267 1.083175
-1.621180 7.787304 -0.976661
-1.592182 7.654707 1.238335
-1.588853 7.638706 -0.682604
-1.601459 7.706039 1.529907
-1.586003 7.638376 -0.408849
-1.589321 7.661073 1.806357
-1.586080 7.652164 -0.136408
-1.590526 7.680356 2.101611
-1.220906 5.932017 -1.622795
-1.420091 6.912015 -1.629096
-1.625296 7.917816 0.423607
-1.579859 7.696468 -1.527235
-3.250309 15.848336 1.415409
-1.565499 7.640046 -1.235207
-1.793622 8.761126 1.098043
-1.582847 7.738461 -0.969836
-1.563872 7.652477 1.237084
-1.561782 7.642253 -0.682429
-1.574548 7.711583 1.529907
-1.559329 7.643866 -0.408849
-1.561404 7.660845 1.805007
-1.556169 7.641977 -0.136129
-1.562549 7.680182 2.100058
-1.199042 5.930562 -1.621243
-1.395182 6.913110 -1.628196
-1.598830 7.929316 0.423921
-1.550654 7.690389 -1.524946
-3.248491 16.125212 1.439116
-1.537649 7.639655 -1.234268
-1.741895 8.662243 1.084881
-1.566387 7.796485 -0.976417
-1.537148 7.657889 1.237084
-1.533526 7.639845 -0.681732
-1.545302 7.705483 1.527617
-1.533820 7.655136 -0.409163
-1.535798 7.671982 1.806357
-1.527913 7.639519 -0.135989
-1.534222 7.678010 2.097987
-1.177490 5.925031 -1.618654
-1.372252 6.917698 -1.628196
-1.570971 7.926737 0.423503
-1.525904 7.699341 -1.525709
-3.252270 16.425154 1.464914
-1.509625 7.631147 -1.232078
-1.714697 8.675762 1.085856
-1.538984 7.793848 -0.975442
-1.512129 7.664883 1.237397
-1.506256 7.635114 -0.680861
-1.515943 7.691303 1.523801
-1.507266 7.654302 -0.408849
-1.509222 7.671296 1.805007
-1.502569 7.644544 -0.135989
-1.506144 7.669787 2.094364
-1.157169 5.931002 -1.619172
-1.342882 6.895667 -1.621897
-1.549019 7.961579 0.425073
-1.496775 7.693056 -1.523419
-3.253457 16.737598 1.491758
-1.482226 7.632492 -1.231452
-1.686677 8.693386 1.087318
-1.510634 7.793326 -0.974711
-1.484987 7.668175 1.237084
-1.479593 7.640326 -0.680861
-1.489464 7.698474 1.524182
-1.477504 7.643829 -0.408011
-1.480955 7.668864 1.803208
-1.475502 7.647779 -0.135954
-1.479726 7.676896 2.094882
-1.135731 5.931211 -1.618137
-1.318070 6.896484 -1.620997
-3.274298 17.131975 0.914100
-1.471383 7.705948 -1.524946
-1.512017 7.926250 0.705962
-1.455573 7.637619 -1.231452
-1.659289 8.714821 1.089268
-1.471185 7.734196 -0.966668
-1.458079 7.665294 1.235832
-1.453288 7.647402 -0.681035
-1.462946 7.705556 1.524564
-1.450070 7.645015 -0.407802
-1.451275 7.658669 1.799608
-1.449759 7.650665 -0.135919
-1.454981 7.685556 2.095917
-1.114665 5.933240 -1.617619
-2.015199 10.726684 0.190510
-1.294476 6.896986 -1.620097
-3.272629 17.453463 0.930638
-1.440139 7.687881 -1.520366
-1.486537 7.943230 0.707007
-1.429512 7.638521 -1.230826
-1.632202 8.730032 1.090487
-1.443340 7.727325 -0.965205
-1.428412 7.654802 1.233329
-1.426583 7.652428 -0.681035
-1.436304 7.704575 1.523419
-1.424712 7.649782 -0.407802
-1.424089 7.653860 1.797359
-1.419388 7.636019 -0.135570
-1.426030 7.679192 2.092811
-1.090780 5.914105 -1.611407
-1.962884 10.653024 0.189079
-1.269686 6.897630 -1.619198
-3.270938 17.786924 0.947804
-1.413928 7.688752 -1.519603
-1.455146 7.920682 0.704567
-1.402838 7.643464 -1.230826
-1.600647 8.729818 1.089756
-1.432093 7.818231 -0.975930
-1.401325 7.657799 1.233017
-1.398331 7.641438 -0.679640
-1.407638 7.699886 1.521511
-1.396563 7.646850 -0.407383
-1.396662 7.654951 1.796459
-1.391291 7.633058 -0.135431
-1.397829 7.676520 2.090740
-1.070128 5.917878 -1.611407
-1.903648 10.537804 0.186915
-1.247332 6.911609 -1.621447
-3.271904 18.148109 0.966436
-1.387776 7.697506 -1.520366
-1.426780 7.921791 0.704218
-1.374052 7.636649 -1.228949
-1.570166 8.735353 1.089756
-1.398827 7.789968 -0.971786
-1.375285 7.666532 1.233642
-1.371299 7.644311 -0.679466
-1.379022 7.695090 1.519603
-1.369156 7.647746 -0.407174
-1.370278 7.661697 1.796909
-1.364640 7.637868 -0.135431
-1.370683 7.679451 2.090223
-1.048791 5.917772 -1.610372
-1.852208 10.461683 0.185449
-1.219124 6.892894 -1.616048
-3.271786 18.517374 0.985486
-1.358850 7.690702 -1.518076
-1.401199 7.938496 0.705264
-1.346012 7.633618 -1.227698
-1.534845 8.713410 1.086343
-1.376445 7.822174 -0.975199
-1.347146 7.663505 1.232391
-1.344605 7.649052 -0.679466
-1.350792 7.692122 1.518076
-1.338658 7.630839 -0.406022
-1.346550 7.683710 1.800958
-1.338658 7.646524 -0.135500
-1.343537 7.682286 2.089705
-1.028787 5.925204 -1.611407
-1.802694 10.393213 0.184123
-1.192729 6.883666 -1.612899
-3.273888 18.914410 1.006002
-1.332664 7.699269 -1.518840
-1.372124 7.935485 0.704567
-1.320032 7.642162 -1.228324
-1.505431 8.724584 1.087075
-1.336657 7.754549 -0.966180
-1.320388 7.668160 1.232391
-1.317560 7.651735 -0.679292
-1.323935 7.696790 1.518076
-1.314721 7.651213 -0.406860
-1.316096 7.667235 1.796009
-1.311285 7.647209 -0.135431
-1.316715 7.686929 2.089705
-1.007449 5.924950 -1.610372
-1.748994 10.296927 0.182308
-1.169017 6.889709 -1.613349
-3.273258 19.311682 1.026518
-1.302497 7.684518 -1.515024
-1.343752 7.936297 0.704218
-1.292687 7.642829 -1.227698
-1.473973 8.723914 1.086343
-1.310573 7.765040 -0.966911
-1.291641 7.661035 1.230514
-1.290509 7.654323 -0.679118
-1.295754 7.693621 1.516550
-1.286681 7.647877 -0.406441
-1.287708 7.662174 1.793760
-1.281270 7.632019 -0.135082
-1.289237 7.687668 2.088670
-0.984859 5.916997 -1.607266
-1.694342 10.190532 0.180318
-1.144962 6.893748 -1.613349
-3.275133 19.740698 1.048708
-1.274382 7.681270 -1.513497
-1.313758 7.927181 0.702998
-1.264712 7.639499 -1.226446
-1.442866 8.725088 1.085856
-1.283458 7.769567 -0.966911
-1.262641 7.651854 1.228324
-1.261514 7.645020 -0.677897
-1.270169 7.705845 1.518076
-1.259001 7.646410 -0.406127
-1.260639 7.664700 1.793310
-1.254623 7.636444 -0.135082
-1.259889 7.676871 2.084529
-0.964197 5.920399 -1.607266
-1.652020 10.154935 0.179585
-1.120268 6.893855 -1.612449
-3.279163 20.201502 1.072573
-1.249132 7.695361 -1.515405
-1.284483 7.921886 0.702127
-1.235512 7.628267 -1.223943
-1.411764 8.726152 1.085368
-1.262345 7.811234 -0.971543
-1.237499 7.665966 1.229888
-1.245934 7.718219 -0.683998
-1.239510 7.686974 1.513497
-1.231983 7.648787 -0.406022
-1.233878 7.669053 1.793310
-1.228909 7.646700 -0.135186
-1.231857 7.673593 2.082458
-0.942921 5.919912 -1.606231
-1.610276 10.121142 0.178887
-1.093136 6.878478 -1.607950
-3.280660 20.666513 1.096648
-1.221344 7.693857 -1.514260
-1.257136 7.928289 0.702301
-1.208257 7.628631 -1.223318
-1.380061 8.723185 1.084394
-1.232594 7.799907 -0.969593
-1.209499 7.662434 1.228637
-1.206868 7.645768 -0.677200
-1.211139 7.681558 1.511589
-1.202482 7.635283 -0.405080
-1.208007 7.679089 1.794659
-1.201897 7.648969 -0.135151
-1.205964 7.683570 2.084011
-0.922547 5.925076 -1.606749
-1.068821 6.880326 -1.607500
-3.282619 21.131205 1.120722
-1.193876 7.694193 -1.513497
-1.229147 7.930660 0.702127
-1.182227 7.636706 -1.223943
-1.349904 8.729910 1.084637
-1.204903 7.792180 -0.968130
-1.183477 7.662498 1.228011
-1.180477 7.651904 -0.677374
-1.184922 7.689619 1.512352
-1.174909 7.633512 -0.404766
-1.180755 7.671496 1.791960
-1.175923 7.648958 -0.135082
-1.181652 7.695165 2.086082
-0.902019 5.922374 -1.605196
-1.045415 6.879979 -1.606600
-3.288741 21.643520 1.147309
-1.167763 7.694229 -1.512734
-1.202842 7.934693 0.702127
-1.156898 7.640584 -1.223943
-1.320351 8.730413 1.084150
-1.177273 7.784357 -0.966668
-1.157472 7.662474 1.227385
-1.154801 7.653806 -0.677200
-1.162046 7.710978 1.515787
-1.150185 7.641316 -0.404976
-1.154440 7.669589 1.790610
-1.148175 7.636996 -0.134802
-1.156699 7.702862 2.087117
-0.880100 5.910047 -1.601055
-1.022307 6.881481 -1.606151
-3.291728 22.184336 1.175361
-1.141091 7.690290 -1.511207
-1.172724 7.913017 0.699861
-1.131552 7.644380 -1.223943
-1.291394 8.734743 1.084150
-1.152991 7.808056 -0.969105
-1.129567 7.658651 1.226133
-1.125752 7.642022 -0.675806
-1.134468 7.701193 1.513115
-1.125418 7.649041 -0.405185
-1.127380 7.671643 1.790160
-1.120927 7.637000 -0.134733
-1.124758 7.672449 2.077800
-0.858156 5.911321 -1.600537
-0.997439 6.879221 -1.604801
-3.294425 22.749151 1.204669
-1.113461 7.698307 -1.511971
-1.144000 7.919233 0.700035
-1.100703 7.628925 -1.220815
-1.260044 8.733304 1.083418
-1.126301 7.815963 -0.969593
-1.102262 7.658637 1.225508
-1.098500 7.641961 -0.675457
-1.103725 7.687809 1.509681
-1.097944 7.657068 -0.405394
-1.098976 7.673795 1.789711
-1.094827 7.644826 -0.134802
-1.096881 7.668677 2.075729
-0.837786 5.916193 -1.601055
-0.970857 6.873183 -1.602551
-2.723882 19.308052 1.021912
-1.084934 7.690483 -1.509681
-1.116907 7.927123 0.700384
-1.073518 7.628808 -1.220189
-1.227752 8.735898 1.083175
-1.095989 7.808244 -0.968130
-1.075282 7.670450 1.226759
-1.095884 7.817408 -0.690622
-1.076336 7.687726 1.508918
-1.070654 7.656899 -0.405185
-1.071915 7.675654 1.789261
-1.066802 7.648787 -0.134802
-1.069827 7.680300 2.077800
-0.817131 5.919081 -1.601055
-0.946326 6.872669 -1.601652
-2.654840 19.305571 1.021284
-1.058085 7.694223 -1.509681
-1.088147 7.923079 0.699686
-1.046611 7.630552 -1.219876
-1.196713 8.736197 1.082687
-1.071957 7.835623 -0.971055
-1.049034 7.678071 1.227385
-1.052135 7.700769 -0.679989
-1.048965 7.687546 1.508154
-1.042307 7.648715 -0.404557
-1.043011 7.663901 1.785661
-1.039559 7.648501 -0.134733
-1.043273 7.685902 2.078317
-0.796978 5.925726 -1.602090
-0.922850 6.879794 -1.602551
-3.281689 24.497250 1.295315
-1.030436 7.692032 -1.508536
-1.061538 7.934728 0.700384
-1.020233 7.636117 -1.220189
-1.166734 8.744256 1.083175
-1.038828 7.796028 -0.965693
-1.019101 7.658189 1.223631
-1.018416 7.653045 -0.675457
-1.023416 7.700891 1.510062
-1.014549 7.644387 -0.404138
-1.015998 7.665564 1.785212
-1.012065 7.646136 -0.134628
-1.016186 7.687582 2.077800
-0.773778 5.909318 -1.596914
-1.036354 7.925311 0.139515
-0.898074 6.877176 -1.601202
-1.004339 7.701423 -1.509681
-1.031521 7.920603 0.698815
-0.993064 7.635713 -1.219563
-1.137480 8.758120 1.084394
-1.006248 7.758266 -0.960574
-0.992360 7.661700 1.223631
-0.989135 7.636795 -0.673714
-0.995771 7.698576 1.508918
-0.988628 7.653824 -0.404452
-0.988235 7.661333 1.783412
-0.985112 7.647639 -0.134593
-0.987868 7.679585 2.074694
-0.753392 5.913899 -1.597431
-1.008429 7.926897 0.139480
-0.875292 6.889935 -1.603451
-1.007584 7.931283 0.419002
-0.976958 7.700986 -1.508918
-1.003363 7.920202 0.698466
-0.966898 7.643053 -1.220189
-1.111133 8.795516 1.088537
-0.979656 7.765670 -0.961062
-0.966949 7.664948 1.223631
-0.962473 7.640201 -0.673714
-0.968893 7.702005 1.508918
-0.961156 7.651283 -0.404138
-0.962700 7.674403 1.785661
-0.959996 7.652848 -0.134628
-0.960953 7.671318 2.071588
-0.731558 5.906907 -1.594843
-0.849328 6.867657 -1.597602
-0.949588 7.700453 -1.508154
-0.975956 7.925634 0.698640
-0.940100 7.634454 -1.218312
-1.083172 8.809004 1.089756
-0.956799 7.792520 -0.963987
-0.940189 7.668277 1.223631
-0.935799 7.643514 -0.673714
-0.940724 7.683739 1.504720
-0.934807 7.646499 -0.403720
-0.936299 7.669816 1.783862
-0.933278 7.656152 -0.134628
-0.935568 7.686132 2.074694
-0.712657 5.915054 -1.596396
-0.824883 6.866711 -1.596703
-2.072699 17.254103 0.910750
-0.923815 7.701610 -1.507773
-0.950617 7.936739 0.699338
-0.913912 7.641611 -1.218938
-1.055004 8.834414 1.092437
-0.928423 7.785956 -0.962768
-0.914757 7.671352 1.223631
-0.910210 7.644596 -0.673540
-0.915518 7.700624 1.507391
-0.907880 7.647732 -0.403615
-0.908375 7.663363 1.781612
-0.906941 7.651262 -0.134488
-0.909168 7.681518 2.072623
-0.691783 5.915587 -1.595878
-1.460258 12.486993 0.219447
-0.802109 6.869409 -1.596703
-2.017542 17.304878 0.913053
-0.895111 7.689187 -1.504720
-0.922675 7.938031 0.699163
-0.888112 7.640676 -1.218312
-1.026844 8.847722 1.093655
-0.895284 7.725892 -0.954968
-0.886609 7.662725 1.221753
-0.884661 7.657623 -0.674411
-0.889298 7.697766 1.506246
-0.882740 7.652684 -0.403720
-0.882290 7.660524 1.780263
-0.880454 7.656368 -0.134523
-0.881910 7.680806 2.071588
-0.669008 5.908485 -1.593290
-0.775725 6.872438 -1.596703
-1.978300 17.526499 0.924358
-0.867360 7.696318 -1.505483
-0.892017 7.927500 0.697943
-0.857883 7.636178 -1.217060
-0.991759 8.841737 1.092437
-0.872270 7.776466 -0.960818
-0.857640 7.658070 1.220502
-0.854376 7.641014 -0.672668
-0.859301 7.697222 1.505483
-0.853794 7.659987 -0.403929
-0.853993 7.661769 1.779813
-0.852166 7.657557 -0.134488
-0.852897 7.676307 2.069517
-0.648149 5.899148 -1.590184
-0.752084 6.867223 -1.594903
-1.984534 18.120638 0.955341
-0.841412 7.695248 -1.504720
-0.864424 7.918530 0.696897
-0.831274 7.627198 -1.215183
-0.963934 8.858791 1.094143
-0.844972 7.765503 -0.959112
-0.832878 7.666764 1.221440
-0.829034 7.643805 -0.672668
-0.834614 7.707837 1.507010
-0.828171 7.660791 -0.403824
-0.829417 7.672310 1.781612
-0.825482 7.648411 -0.134279
-0.826193 7.667569 2.066411
-0.628582 5.901265 -1.590184
-0.727248 6.850301 -1.590404
-1.982319 18.703432 0.985696
-0.816301 7.701900 -1.505483
-0.839629 7.935223 0.698117
-0.806389 7.633842 -1.215809
-0.932476 8.842196 1.091706
-0.820568 7.794069 -0.962280
-0.805903 7.667660 1.221128
-0.804096 7.650476 -0.673017
-0.807621 7.696894 1.504338
-0.800891 7.645617 -0.402882
-0.802831 7.677096 1.782062
-0.799193 7.655224 -0.134349
-0.800630 7.681934 2.069517
-0.607581 5.899580 -1.589149
-0.703336 6.852798 -1.590404
-1.987043 19.393719 1.021703
-0.789009 7.700797 -1.504720
-0.811518 7.934142 0.697769
-0.780144 7.640540 -1.216435
-0.901603 8.845398 1.091706
-0.788732 7.751463 -0.956674
-0.779533 7.674357 1.221753
-0.777791 7.657199 -0.673365
-0.781143 7.703573 1.505101
-0.773392 7.640419 -0.402464
-0.773874 7.658525 1.777113
-0.772468 7.657967 -0.134349
-0.773808 7.684682 2.069517
-0.587556 5.907433 -1.590702
-0.679409 6.855211 -1.590404
-1.982645 20.040527 1.055407
-0.761348 7.695690 -1.503193
-0.784798 7.946840 0.698640
-0.753467 7.643217 -1.216435
-0.870136 8.842566 1.090974
-0.764194 7.779851 -0.959843
-0.750814 7.657372 1.218625
-0.750495 7.667931 -0.674062
-0.753672 7.700391 1.503957
-0.747495 7.651022 -0.402882
-0.746949 7.659238 1.776663
-0.745342 7.656636 -0.134279
-0.746793 7.685414 2.069000
-0.565349 5.903778 -1.589149
-0.654733 6.849782 -1.588604
-1.988570 20.842619 1.097276
-0.732766 7.694520 -1.502430
-0.755099 7.943712 0.698117
-0.725446 7.645927 -1.216435
-0.839266 8.845549 1.090974
-0.729919 7.707374 -0.950581
-0.724450 7.663879 1.219250
-0.722041 7.652651 -0.672494
-0.725261 7.701147 1.503575
-0.719820 7.657687 -0.403092
-0.719051 7.663866 1.777113
-0.717865 7.651227 -0.134139
-0.719059 7.678356 2.066411
-0.543319 5.890325 -1.585008
-0.629267 6.848254 -1.587705
-1.993285 21.692719 1.141657
-0.706622 7.704851 -1.503957
-0.726096 7.932411 0.696897
-0.696957 7.628741 -1.213306
-0.807919 8.860426 1.092437
-0.703286 7.727790 -0.952775
-0.697337 7.662426 1.218625
-0.695145 7.653140 -0.672319
-0.698018 7.699721 1.502812
-0.693447 7.664132 -0.403301
-0.692472 7.668270 1.777563
-0.691335 7.655678 -0.134174
-0.691730 7.675048 2.064858
-0.522924 5.894111 -1.585526
-0.605521 6.838656 -1.585005
-1.995615 22.582886 1.188131
-0.679720 7.707271 -1.503957
-0.699099 7.942837 0.697595
-0.672692 7.642817 -1.215183
-0.685801 7.823023 -0.964230
-0.670584 7.664814 1.218625
-0.668255 7.653535 -0.672145
-0.672828 7.705905 1.503575
-0.666985 7.654451 -0.402673
-0.667375 7.674407 1.778463
-0.663914 7.650075 -0.134034
-0.665270 7.681264 2.065894
-0.503706 5.899662 -1.586561
-0.581152 6.834903 -1.583655
-1.997485 23.540985 1.238164
-0.654492 7.713394 -1.504720
-0.674102 7.960993 0.698989
-0.645678 7.641181 -1.214557
-0.668864 7.932070 0.977392
-0.655828 7.793719 -0.960331
-0.644653 7.676950 1.220189
-0.642536 7.651739 -0.671796
-0.644775 7.694511 1.500904
-0.639598 7.648771 -0.402254
-0.639773 7.666979 1.776214
-0.637871 7.660318 -0.134174
-0.638775 7.687390 2.066929
-0.482319 5.891757 -1.583973
-0.556497 6.827178 -1.581406
-1.993336 24.507324 1.288616
-0.626925 7.707805 -1.503193
-0.645665 7.955354 0.698292
-0.618681 7.639451 -1.213932
-0.640850 7.930399 0.976905
-0.622558 7.720771 -0.951068
-0.616424 7.661434 1.217373
-0.616300 7.659893 -0.672319
-0.618853 7.708457 1.503193
-0.612897 7.650957 -0.402254
-0.612384 7.661397 1.774414
-0.610172 7.650538 -0.133965
-0.611785 7.687647 2.066411
-0.460997 5.883775 -1.581384
-0.532664 6.829079 -1.581406
-1.911750 24.509817 1.288407
-0.599103 7.698203 -1.500904
-1.437528 18.513344 1.624583
-0.592317 7.645503 -1.214557
-0.612860 7.928629 0.976417
-0.602318 7.809983 -0.961793
-0.590864 7.661465 1.217060
-0.588031 7.642132 -0.670576
-0.591643 7.706656 1.502430
-0.586642 7.659024 -0.402568
-0.585783 7.665430 1.774864
-0.584644 7.650525 -0.133930
-0.585993 7.685782 2.065376
-0.439589 5.873790 -1.578279
-0.510451 6.836638 -1.582756
-1.825595 24.508373 1.287988
-0.572517 7.704163 -1.501667
-1.379970 18.613621 1.632950
-0.566378 7.639545 -1.213306
-0.586858 7.934577 0.976905
-0.567795 7.695135 -0.947412
-0.564260 7.665452 1.217373
-0.560915 7.638177 -0.670053
-0.565797 7.704659 1.501667
-0.561092 7.658937 -0.402464
-0.561072 7.677048 1.777113
-0.558667 7.662491 -0.134104
-0.559019 7.685853 2.064858
-0.420385 5.879069 -1.579314
-0.484784 6.813108 -1.576907
-1.739603 24.508621 1.287674
-0.546967 7.706019 -1.501667
-1.312894 18.542574 1.626326
-0.539984 7.645417 -1.213932
-0.559016 7.934597 0.976661
-0.547476 7.790139 -0.958868
-0.537500 7.667375 1.217373
-0.534943 7.650026 -0.670925
-0.538624 7.702670 1.500904
-0.533664 7.650886 -0.401940
-0.533731 7.671184 1.775314
-0.532192 7.668385 -0.134174
-0.532318 7.689686 2.065376
-0.398705 5.878643 -1.578796
-0.461260 6.818648 -1.577807
-1.653374 24.504580 1.287151
-0.518589 7.706013 -1.501285
-1.247044 18.579069 1.629115
-0.511960 7.647345 -1.213932
-0.531450 7.938481 0.976905
-0.519220 7.776157 -0.956918
-0.510993 7.673146 1.217999
-0.509030 7.663775 -0.671971
-0.510390 7.704592 1.500904
-0.505350 7.648805 -0.401731
-0.505485 7.671144 1.774864
-0.505160 7.666204 -0.134104
-0.505985 7.699207 2.067447
-0.377933 5.876143 -1.577761
-0.435521 6.808624 -1.575107
-1.567565 24.506218 1.286941
-0.491560 7.705817 -1.500904
-1.182955 18.595236 1.630161
-0.485511 7.653028 -1.214557
-0.502599 7.944337 0.977392
-0.490967 7.781971 -0.957406
-0.482967 7.655168 1.214870
-0.482273 7.665506 -0.671971
-0.483368 7.704368 1.500522
-0.479276 7.660488 -0.402254
-0.478581 7.670917 1.774414
-0.477896 7.659938 -0.133965
-0.478864 7.697070 2.066411
-0.356834 5.867785 -1.575173
-0.412941 6.810031 -1.575107
-1.482609 24.521505 1.287465
-0.464424 7.703567 -1.500140
-1.119947 18.631075 1.632950
-0.459894 7.650652 -1.213932
-0.475656 7.936053 0.976174
-0.465393 7.787519 -0.957893
-0.456711 7.664695 1.216122
-0.453265 7.629354 -0.668659
-0.457931 7.707888 1.500904
-0.453987 7.664030 -0.402359
-0.452683 7.664680 1.772614
-0.450801 7.655571 -0.133860
-0.451656 7.692909 2.064858
-0.337486 5.870864 -1.575690
-0.389169 6.811431 -1.575107
-1.397135 24.528526 1.287569
-0.438877 7.705064 -1.500140
-1.059734 18.662535 1.635390
-0.432517 7.640377 -1.212054
-0.447957 7.937665 0.976174
-0.437982 7.785132 -0.957406
-0.430173 7.670187 1.216747
-0.429080 7.650708 -0.670402
-0.430918 7.707479 1.500522
-0.426563 7.653603 -0.401731
-0.426140 7.670105 1.773514
-0.424633 7.667081 -0.134034
-0.424798 7.694439 2.064858
-0.316260 5.858504 -1.572067
-0.364762 6.801072 -1.572408
-1.310966 24.523283 1.287046
-0.412396 7.714391 -1.501667
-0.996495 18.701933 1.638528
-0.405843 7.641840 -1.212054
-0.419720 7.929268 0.974955
-0.412061 7.810402 -0.960331
-0.403294 7.669670 1.216435
-0.402268 7.650169 -0.670228
-0.403804 7.705016 1.499759
-0.399846 7.655045 -0.401731
-0.399466 7.673491 1.773964
-0.397762 7.666520 -0.134000
-0.397835 7.693946 2.064341
-0.295712 5.857642 -1.571549
-0.340237 6.786734 -1.568809
-1.224564 24.511749 1.286209
-0.385271 7.711862 -1.500904
-0.623119 12.516629 1.096419
-0.379261 7.645184 -1.212367
-0.391845 7.926721 0.974467
-0.378448 7.682918 -0.944488
-0.376614 7.673003 1.216747
-0.377123 7.683367 -0.673017
-0.376620 7.700496 1.498614
-0.373120 7.656394 -0.401731
-0.372393 7.669001 1.772614
-0.371096 7.669858 -0.134034
-0.371256 7.701076 2.065894
-0.275534 5.864428 -1.573102
-0.316456 6.785933 -1.568359
-1.138802 24.511885 1.285999
-0.357800 7.701393 -1.498614
-0.579236 12.514747 1.096071
-0.352665 7.648434 -1.212680
-0.364626 7.937955 0.975686
-0.356616 7.793258 -0.957893
-0.349200 7.660458 1.214557
-0.349304 7.662742 -0.671099
-0.350003 7.707647 1.499759
-0.346303 7.655655 -0.401626
-0.345622 7.670254 1.772614
-0.343602 7.655126 -0.133755
-0.344546 7.706185 2.066929
-0.254475 5.851844 -1.569479
-0.293020 6.792838 -1.569708
-1.057517 24.515528 1.285999
-0.331082 7.706518 -1.499377
-0.536062 12.528636 1.097116
-0.326134 7.653566 -1.213306
-0.336240 7.923313 0.973736
-0.330251 7.814289 -0.960331
-0.323797 7.661573 1.214557
-0.321798 7.645999 -0.669530
-0.323094 7.708822 1.499759
-0.319580 7.656817 -0.401626
-0.318844 7.671413 1.772614
-0.318545 7.664215 -0.133895
-0.318508 7.695704 2.063823
-0.233582 5.841115 -1.566373
-0.270491 6.793772 -1.569708
-0.972019 24.521065 1.286104
-0.304490 7.715473 -1.500904
-0.499831 12.721553 1.113850
-0.300130 7.638814 -1.210803
-0.310201 7.930335 0.974467
-0.304334 7.815341 -0.960331
-0.297278 7.668579 1.215496
-0.295339 7.653049 -0.670053
-0.297001 7.696118 1.497087
-0.294031 7.653843 -0.401417
-0.293404 7.672429 1.772614
-0.291563 7.659286 -0.133790
-0.291425 7.690978 2.062270
-0.214212 5.841857 -1.566373
-0.393883 10.793170 0.188521
-0.245998 6.773253 -1.564759
-0.891417 24.544113 1.287151
-0.278621 7.708593 -1.499377
-0.514074 14.292130 1.251208
-0.273889 7.651660 -1.212680
-0.282586 7.933353 0.974711
-0.275572 7.774694 -0.955212
-0.272054 7.675446 1.216435
-0.269890 7.651995 -0.669879
-0.270067 7.695146 1.496706
-0.267171 7.650831 -0.401207
-0.266893 7.681196 1.774414
-0.266650 7.674200 -0.134034
-0.266121 7.697694 2.063823
-0.193817 5.842570 -1.566373
-1.372212 41.364941 0.722425
-0.223280 6.766241 -1.562960
-0.604314 18.410805 0.965389
-0.251709 7.709518 -1.499377
-0.526273 16.205523 1.418547
-0.248259 7.644629 -1.211429
-0.256338 7.936230 0.974955
-0.250492 7.797390 -0.957893
-0.245392 7.680296 1.217060
-0.243176 7.652890 -0.669879
-0.244795 7.703848 1.498232
-0.241926 7.655667 -0.401417
-0.240932 7.666456 1.770815
-0.239734 7.671086 -0.133965
-0.239668 7.712092 2.067447
-0.173423 5.843211 -1.566373
-1.212699 41.101852 0.717748
-0.198474 6.767014 -1.562960
-0.539280 18.496746 0.969785
-0.224569 7.702501 -1.497851
-0.541151 18.672806 1.634344
-0.220233 7.645488 -1.211429
-0.227080 7.931164 0.974224
-0.220614 7.752618 -0.952287
-0.216956 7.671271 1.215496
-0.216797 7.665642 -0.670925
-0.216449 7.700769 1.497469
-0.214034 7.662492 -0.401731
-0.212880 7.669236 1.771265
-0.211397 7.663918 -0.133825
-0.211455 7.714850 2.067964
-0.152619 5.828331 -1.562232
-1.067876 41.053860 0.716840
-0.174554 6.755977 -1.560261
-0.197679 7.703238 -1.497851
-0.482765 18.941473 1.657702
-0.193649 7.650159 -1.212054
-0.199392 7.931909 0.974224
-0.192657 7.717620 -0.947900
-0.189937 7.662108 1.213932
-0.191277 7.716146 -0.675283
-0.189661 7.705403 1.498232
-0.187235 7.661196 -0.401626
-0.186302 7.677725 1.773064
-0.184401 7.654613 -0.133651
-0.184244 7.703953 2.064858
-0.132322 5.830759 -1.562749
-0.923474 41.009357 0.716002
-0.151142 6.764338 -1.562060
-0.547791 24.516230 1.285162
-0.170925 7.709769 -1.498996
-0.417963 19.002800 1.662932
-0.166683 7.638939 -1.210177
-0.171794 7.936525 0.974711
-0.169432 7.827371 -0.961305
-0.164653 7.668621 1.214870
-0.163024 7.655017 -0.669879
-0.162512 7.694241 1.495943
-0.160619 7.667793 -0.401940
-0.160798 7.676353 1.772614
-0.159101 7.659181 -0.133720
-0.158535 7.696796 2.062788
-0.112871 5.825371 -1.561196
-0.787792 41.028191 0.716282
-0.128523 6.755060 -1.559811
-0.466672 24.527895 1.285685
-0.145392 7.712256 -1.499377
-0.355321 19.024000 1.664675
-0.141495 7.647350 -1.211429
-0.145364 7.931098 0.973980
-0.142635 7.782240 -0.955700
-0.139152 7.665174 1.214244
-0.137564 7.651532 -0.669530
-0.137037 7.696701 1.496324
-0.135192 7.668283 -0.401940
-0.135377 7.678792 1.773064
-0.133909 7.671663 -0.133930
-0.133216 7.708869 2.065894
-0.093585 5.827645 -1.561714
-0.652230 41.062565 0.716840
-0.105909 6.741809 -1.556661
-0.380944 24.521385 1.285267
-0.119879 7.716622 -1.500140
-0.292962 19.072887 1.668858
-0.116196 7.651727 -1.212054
-0.119034 7.929550 0.973736
-0.114731 7.733068 -0.949606
-0.112508 7.673514 1.215496
-0.112279 7.657922 -0.670053
-0.111425 7.691224 1.495179
-0.109617 7.658704 -0.401417
-0.108543 7.677269 1.772614
-0.107130 7.672084 -0.133930
-0.106331 7.711218 2.066411
-0.073241 5.827937 -1.561714
-0.508781 41.056599 0.716701
-0.082448 6.747983 -1.558011
-0.295171 24.508585 1.284534
-0.092893 7.713067 -1.499377
-0.226473 19.081762 1.669555
-0.089441 7.648136 -1.211429
-0.091444 7.937858 0.974711
-0.088208 7.775106 -0.954725
-0.085635 7.665959 1.214244
-0.085638 7.666237 -0.670751
-0.084665 7.699419 1.496706
-0.082945 7.665032 -0.401731
-0.081683 7.671755 1.771265
-0.080204 7.658414 -0.133685
-0.079391 7.709611 2.065894
-0.052741 5.810771 -1.557055
-0.058822 6.740436 -1.556211
-0.209709 24.519453 1.285057
-0.065903 7.705492 -1.497851
-0.160435 19.150177 1.675482
-0.062806 7.656303 -1.212680
-0.063780 7.944084 0.975442
-0.061116 7.781322 -0.955456
-0.058858 7.664236 1.213932
-0.058738 7.648558 -0.669182
-0.057801 7.701631 1.497087
-0.056220 7.669269 -0.401940
-0.054943 7.677840 1.772614
-0.053497 7.662646 -0.133755
-0.052454 7.705977 2.064858
-0.032477 5.814783 -1.558091
-0.035275 6.736702 -1.555312
-0.124132 24.524029 1.285267
-0.039063 7.717454 -1.500140
-0.093708 19.174528 1.677574
-0.036017 7.642648 -1.210490
-0.036016 7.936317 0.974467
-0.034024 7.797369 -0.957406
-0.032164 7.678222 1.216122
-0.032049 7.650709 -0.669356
-0.030801 7.672337 1.491363
-0.029458 7.671415 -0.402045
-0.028125 7.674088 1.771715
-0.026764 7.666786 -0.133825
-0.025557 7.706114 2.064858
-0.012158 5.805202 -1.555503
-0.011744 6.728989 -1.553512
-0.042811 24.530298 1.285581
-0.012116 7.713617 -1.499377
-0.026825 19.206615 1.680363
-0.009334 7.640752 -1.210177
-0.008302 7.928455 0.973492
-0.006726 7.704141 -0.945950
-0.006697 7.670385 1.214870
-0.005370 7.692615 -0.673017
-0.004023 7.684177 1.493653
-0.002675 7.653497 -0.401103
-0.001340 7.679985 1.773064
-0.001337 7.658834 -0.133685
0.000000 7.710020 2.065894
0.008116 5.812936 -1.557573
0.010557 6.721196 -1.551712
0.042797 24.522310 1.285162
0.014816 7.717539 -1.500140
0.040341 19.262379 1.685243
0.016002 7.640741 -1.210177
0.017988 7.928439 0.973492
0.018911 7.739852 -0.950337
0.020090 7.674313 1.215496
0.021386 7.658716 -0.670053
0.021490 7.695927 1.495943
0.022713 7.655460 -0.401207
0.024114 7.676049 1.772164
0.025443 7.672790 -0.133930
0.026911 7.709973 2.065894
0.027355 5.805150 -1.555503
0.034020 6.721118 -1.551712
0.128391 24.522013 1.285162
0.040345 7.705668 -1.497851
0.104416 19.298004 1.688381
0.042697 7.644589 -1.210803
0.045719 7.938252 0.974711
0.046272 7.797306 -0.957406
0.046832 7.666295 1.214244
0.048241 7.678136 1.492508
0.050923 7.677868 1.772614
0.052183 7.666655 -0.133825
0.053826 7.709832 2.065894
0.048614 5.803079 -1.554985
0.057480 6.720959 -1.551712
0.213959 24.517420 1.284953
0.068620 7.709394 -1.498614
0.175504 19.337336 1.691867
0.070787 7.652282 -1.212054
0.073412 7.936060 0.974467
0.072833 7.727621 -0.948875
0.073667 7.673985 1.215496
0.076564 7.695577 1.495943
0.079042 7.675681 1.772164
0.078843 7.656428 -0.133651
0.080700 7.705734 2.064858
0.068734 5.791283 -1.551879
0.082064 6.716806 -1.550813
0.299583 24.520519 1.285162
0.095533 7.709108 -1.498614
0.243408 19.368481 1.694656
0.097396 7.644087 -1.210803
0.102574 7.941693 0.975199
0.100326 7.663785 -0.941075
0.100533 7.679607 1.216435
0.103289 7.685447 1.494035
0.105944 7.683152 1.773964
0.105681 7.664104 -0.133790
0.107565 7.703474 2.064341
0.088980 5.792940 -1.552397
0.104093 6.700909 -1.547213
0.385338 24.529308 1.285685
0.122569 7.716580 -1.500140
0.311450 19.395403 1.697096
0.122869 7.651623 -1.212054
0.128750 7.931385 0.973980
0.127789 7.788454 -0.956431
0.127367 7.681185 1.216747
0.128083 7.643726 -0.668833
0.128645 7.677210 1.492508
0.129497 7.648406 -0.400893
0.131383 7.680810 1.773514
0.132466 7.665688 -0.133825
0.134524 7.706914 2.065376
0.108228 5.794544 -1.552914
0.127337 6.692711 -1.545414
0.470965 24.527815 1.285685
0.148273 7.722020 -1.501285
0.376311 19.422152 1.699537
0.149425 7.643248 -1.210803
0.156515 7.934856 0.974467
0.155211 7.799869 -0.957893
0.154299 7.686618 1.217686
0.153509 7.647243 -0.669182
0.155762 7.692418 1.495561
0.156193 7.647907 -0.400893
0.158075 7.674459 1.772164
0.159433 7.675175 -0.134000
0.161424 7.706398 2.065376
0.128193 5.782544 -1.549809
0.150700 6.692226 -1.545414
0.551760 24.314365 1.274590
0.175043 7.713604 -1.499759
0.444384 19.432671 1.700583
0.176197 7.646630 -1.211429
0.184345 7.940216 0.975199
0.182253 7.791341 -0.956918
0.180852 7.674183 1.215809
0.180345 7.652636 -0.669705
0.182608 7.691827 1.495561
0.183129 7.657299 -0.401417
0.184912 7.675810 1.772614
0.185830 7.658579 -0.133720
0.188608 7.717375 2.068482
0.148131 5.772405 -1.547220
0.173855 6.683867 -1.543614
0.570029 21.768656 1.141238
0.201764 7.705096 -1.498232
0.505489 19.176065 1.678271
0.202939 7.647943 -1.211741
0.212009 7.937539 0.974955
0.209557 7.794626 -0.957406
0.207958 7.685353 1.217686
0.206677 7.638018 -0.668485
0.209458 7.691143 1.495561
0.209804 7.654617 -0.401312
0.211703 7.675117 1.772614
0.212898 7.669877 -0.133930
0.215062 7.699290 2.063823
0.168165 5.767990 -1.546185
0.197244 6.685167 -1.544064
0.599556 20.201368 1.059175
0.229123 7.720044 -1.501285
0.536152 17.959368 1.571941
0.229458 7.641264 -1.210803
0.240013 7.946671 0.976174
0.236759 7.793848 -0.957406
0.235027 7.692478 1.218938
0.233461 7.641233 -0.668833
0.235940 7.678590 1.493271
0.236640 7.657831 -0.401522
0.238676 7.680174 1.773964
0.239921 7.677083 -0.134069
0.241874 7.696561 2.063306
0.188300 5.767368 -1.546185
0.220127 6.670804 -1.540915
0.642923 19.380728 1.016260
0.256006 7.717234 -1.500904
0.562055 16.854218 1.475372
0.256194 7.642391 -1.211116
0.267619 7.941817 0.975686
0.263360 7.775118 -0.955212
0.261809 7.689637 1.218625
0.260335 7.646345 -0.669356
0.262811 7.679682 1.493653
0.263097 7.648973 -0.401103
0.265684 7.685137 1.775314
0.266299 7.664207 -0.133860
0.268872 7.699532 2.064341
0.208362 5.764745 -1.545667
0.242984 6.658310 -1.538215
0.712040 19.418283 1.018353
0.282945 7.716293 -1.500904
0.587137 15.936275 1.395189
0.283014 7.645398 -1.211741
0.295637 7.948769 0.976661
0.292202 7.819777 -0.960818
0.288647 7.688677 1.218625
0.287172 7.649373 -0.669705
0.289915 7.686565 1.495179
0.289945 7.652000 -0.401312
0.292214 7.676374 1.773514
0.293359 7.671224 -0.134000
0.296042 7.706267 2.066411
0.228253 5.758191 -1.544114
0.265914 6.649633 -1.536416
0.985007 24.524544 1.286313
0.309798 7.713297 -1.500522
0.607431 15.058187 1.318492
0.309702 7.644363 -1.211741
0.323138 7.941739 0.975930
0.318283 7.788958 -0.957162
0.315243 7.681701 1.217686
0.314200 7.656286 -0.670402
0.316258 7.673737 1.492890
0.316821 7.654932 -0.401522
0.318844 7.671413 1.772614
0.319799 7.662161 -0.133860
0.323104 7.709048 2.067447
0.248101 5.751570 -1.542562
0.289123 6.648664 -1.536416
1.071386 24.538914 1.287255
0.336462 7.706285 -1.499377
0.626831 14.299595 1.252254
0.336729 7.651130 -1.212993
0.351736 7.960394 0.978367
0.346351 7.807631 -0.959599
0.342229 7.684501 1.218312
0.340745 7.651162 -0.670053
0.343395 7.680431 1.494416
0.344169 7.667747 -0.402254
0.345882 7.676094 1.773964
0.346726 7.664993 -0.133930
0.349663 7.700153 2.065376
0.267905 5.744880 -1.541009
0.312331 6.647614 -1.536416
1.156843 24.531036 1.287046
0.363913 7.716830 -1.501667
0.646601 13.660468 1.196474
0.363437 7.649908 -1.212993
0.379421 7.957135 0.978123
0.374171 7.818270 -0.961062
0.369622 7.695097 1.220189
0.367070 7.641965 -0.669356
0.369914 7.673303 1.493271
0.372960 7.680679 1.775314
0.373867 7.671726 -0.134069
0.376349 7.695027 2.064341
0.287958 5.743909 -1.541009
2.532447 50.338665 0.879776
0.334844 6.632860 -1.533266
1.242472 24.526848 1.287046
0.390750 7.713552 -1.501285
0.668391 13.148733 1.151850
0.389834 7.642673 -1.212054
0.407196 7.955762 0.978123
0.401360 7.814934 -0.960818
0.396174 7.687842 1.219250
0.407994 7.917212 -0.693585
0.396800 7.673926 1.493653
0.397277 7.657179 -0.401836
0.400071 7.685168 1.776663
0.400851 7.674368 -0.134139
0.403412 7.697525 2.065376
0.307801 5.739010 -1.539973
2.697367 50.129841 0.876285
0.357157 6.616083 -1.529667
1.328410 24.528345 1.287360
0.418312 7.723904 -1.503575
0.713410 13.130404 1.150456
0.417049 7.651129 -1.213619
0.638956 11.684663 1.436840
0.427000 7.783754 -0.957162
0.423552 7.696274 1.220815
0.421507 7.659110 -0.671099
0.424127 7.682295 1.495561
0.423998 7.655746 -0.401836
0.426248 7.672050 1.773964
0.427862 7.676916 -0.134209
0.430489 7.699927 2.066411
0.327831 5.737901 -1.539973
2.874638 50.160046 0.876983
0.380586 6.620633 -1.531017
1.414476 24.531532 1.287779
0.444592 7.710636 -1.501285
0.760624 13.151704 1.152548
0.443528 7.645682 -1.212993
0.650448 11.178999 1.374930
0.455211 7.800052 -0.959356
0.450301 7.692777 1.220502
0.448591 7.663559 -0.671622
0.450594 7.674888 1.494416
0.451660 7.670169 -0.402673
0.453258 7.674407 1.774864
0.454301 7.669387 -0.134104
0.457595 7.702234 2.067447
0.346807 5.719367 -1.535315
0.403808 6.621210 -1.531467
1.500837 24.538408 1.288407
0.471146 7.703158 -1.500140
1.192709 19.445042 1.704418
0.470572 7.650003 -1.213932
0.663802 10.760581 1.323745
0.481702 7.786528 -0.957893
0.477268 7.693130 1.220815
0.474593 7.650015 -0.670576
0.477750 7.679147 1.495561
0.478434 7.668545 -0.402673
0.480403 7.678613 1.776214
0.481321 7.671746 -0.134174
0.483995 7.692878 2.065376
0.366889 5.720050 -1.535832
0.426293 6.610036 -1.529217
1.585821 24.523054 1.287883
0.498787 7.713222 -1.502430
1.263162 19.480522 1.707904
0.497531 7.652256 -1.214557
0.675653 10.364003 1.275241
0.510431 7.808569 -0.960818
0.504380 7.695360 1.221440
0.502208 7.662229 -0.671796
0.504422 7.675474 1.495179
0.505460 7.670815 -0.402882
0.507848 7.686611 1.778463
0.507968 7.668023 -0.134139
0.511100 7.694997 2.066411
0.386724 5.716807 -1.535315
0.447908 6.587121 -1.524268
1.665921 24.499727 1.286941
0.526245 7.719269 -1.503957
1.355342 19.829815 1.738931
0.524238 7.650473 -1.214557
0.688020 10.015007 1.232587
0.537278 7.800798 -0.960087
0.530169 7.697586 1.222066
0.528538 7.654466 -0.671273
0.531616 7.679542 1.496324
0.531682 7.661034 -0.402464
0.535216 7.692568 1.780263
0.533527 7.668292 -0.134174
0.536613 7.693260 2.066411
0.406816 5.717349 -1.535832
0.469609 6.583656 -1.523818
1.747164 24.433996 1.283801
0.553891 7.727175 -1.505865
1.438543 20.019714 1.756014
0.549890 7.652633 -1.215183
0.706968 9.814674 1.208213
0.562713 7.793034 -0.959356
0.556891 7.693718 1.221753
0.555977 7.662510 -0.672145
0.557082 7.677737 1.496324
0.557372 7.663212 -0.402673
0.559591 7.675202 1.776663
0.560730 7.672366 -0.134279
0.564031 7.699047 2.068482
0.425628 5.714042 -1.535315
0.492735 6.583920 -1.524268
1.829164 24.383932 1.281498
0.578486 7.711592 -1.503193
1.511193 20.098280 1.763335
0.577043 7.656576 -1.216122
0.741525 9.816105 1.208700
0.589311 7.783105 -0.958381
0.583742 7.691728 1.221753
0.581834 7.666584 -0.672668
0.584327 7.681618 1.497469
0.584117 7.661220 -0.402673
0.587268 7.684861 1.779363
0.587205 7.666374 -0.134209
0.591196 7.700883 2.069517
0.444071 5.693261 -1.530138
3.274266 41.883816 0.733315
0.515256 6.576331 -1.522919
1.912387 24.353506 1.280242
0.605399 7.709526 -1.503193
1.582908 20.112743 1.765078
0.604075 7.658453 -1.216747
0.777034 9.829288 1.210650
0.618202 7.802768 -0.961062
0.611059 7.695550 1.222692
0.608279 7.660534 -0.672319
0.611759 7.687360 1.498996
0.611652 7.669090 -0.403196
0.614868 7.692477 1.781612
0.613641 7.660291 -0.134139
0.617148 7.687218 2.066411
0.464568 5.699378 -1.532209
0.538687 6.580319 -1.524268
1.987255 24.223267 1.273753
0.632145 7.705410 -1.502812
1.654733 20.126953 1.766821
0.629833 7.644486 -1.214870
0.813298 9.850256 1.213575
0.645106 7.796606 -0.960574
0.638896 7.705183 1.224569
0.635014 7.658364 -0.672319
0.637774 7.675395 1.497087
0.638914 7.672879 -0.403510
0.642039 7.694168 1.782512
0.641541 7.672051 -0.134384
0.644302 7.688868 2.067447
0.482985 5.680398 -1.527550
3.524149 41.361816 0.724589
0.560163 6.560924 -1.520219
2.000968 23.388346 1.230209
0.658869 7.701200 -1.502430
1.730431 20.184576 1.772399
0.657192 7.650113 -1.216122
1.290325 14.989582 1.847296
0.674026 7.814084 -0.963012
0.666130 7.706841 1.225195
0.662431 7.664042 -0.673017
0.665069 7.678990 1.498232
0.665004 7.662642 -0.403092
0.669570 7.699645 1.784312
0.667796 7.663789 -0.134279
0.671976 7.696195 2.070035
0.503153 5.682526 -1.528585
3.666024 41.321381 0.724100
0.581853 6.545341 -1.517070
2.015267 22.625252 1.190434
0.684878 7.689075 -1.500522
1.805832 20.233980 1.777280
0.684594 7.655643 -1.217373
1.344771 15.008712 1.850221
0.700409 7.801797 -0.961793
0.693911 7.714306 1.226759
0.690070 7.671604 -0.673888
0.691520 7.672711 1.497469
0.691746 7.660274 -0.403092
0.695738 7.689498 1.782512
0.695628 7.673360 -0.134488
0.699189 7.697650 2.071070
0.523516 5.686506 -1.530138
3.812436 41.332230 0.724519
0.605595 6.552972 -1.519319
2.030525 21.929974 1.154217
0.710811 7.676863 -1.498614
1.880496 20.271200 1.781115
0.711315 7.653206 -1.217373
1.405623 15.094846 1.861433
0.728742 7.811165 -0.963255
0.721205 7.715770 1.227385
0.728158 7.790157 -0.684521
0.719398 7.681978 1.499759
0.719040 7.663779 -0.403406
0.723307 7.694783 1.784312
0.721661 7.662921 -0.134349
0.726593 7.700933 2.072623
0.541342 5.663490 -1.524444
0.627530 6.541120 -1.517070
2.045912 21.286560 1.120722
0.737039 7.668472 -1.497469
1.934063 20.086021 1.765427
0.738779 7.658542 -1.218625
1.456011 15.066138 1.858508
0.756963 7.818452 -0.964474
0.747754 7.709273 1.226759
0.743615 7.666599 -0.673888
0.746777 7.685283 1.500904
0.747144 7.675138 -0.404138
0.750543 7.696090 1.785212
0.749182 7.668317 -0.134488
0.752719 7.690659 2.070552
0.560347 5.653876 -1.522374
3.943238 39.716652 0.696665
0.650361 6.538889 -1.517070
2.063575 20.710886 1.090786
0.763804 7.665853 -1.497469
1.961813 19.654886 1.728124
0.764723 7.648055 -1.217373
1.509388 15.068863 1.859483
0.787419 7.847365 -0.968374
0.775050 7.710547 1.227385
0.769968 7.659992 -0.673540
0.772421 7.670908 1.498614
0.773327 7.666522 -0.403824
0.777397 7.693424 1.785212
0.776349 7.669634 -0.134558
0.779562 7.687984 2.070552
0.581456 5.665339 -1.525997
3.984105 38.751804 0.679981
0.671986 6.524948 -1.514371
2.124464 20.628433 1.086809
0.789344 7.651423 -1.495179
1.974708 19.108856 1.680711
0.791824 7.649268 -1.217999
1.562788 15.071403 1.860458
0.815219 7.848518 -0.968861
0.801433 7.715795 1.228637
0.796497 7.655276 -0.673365
0.799798 7.674025 1.499759
0.799878 7.661788 -0.403720
0.805263 7.700355 1.787461
0.801777 7.667018 -0.134558
0.806053 7.694964 2.073141
0.600618 5.657511 -1.524444
3.990349 37.587025 0.659771
0.692179 6.509119 -1.511221
2.593732 24.350647 1.283382
0.815425 7.642765 -1.494035
1.986780 18.590723 1.635739
0.817608 7.650528 -1.218625
1.616987 15.105612 1.865332
0.841451 7.847745 -0.969105
0.829207 7.720806 1.229888
0.830032 7.715840 -0.678943
0.825664 7.675233 1.500522
0.825922 7.665051 -0.404034
0.830587 7.695704 1.787011
0.829178 7.670136 -0.134663
0.833743 7.699786 2.075211
0.618326 5.645886 -1.521856
4.131769 37.666294 0.661411
0.714892 6.506663 -1.511221
2.678286 24.337473 1.283173
0.838405 7.618552 -1.489837
1.996025 18.108736 1.593904
0.844736 7.651555 -1.219250
1.672328 15.123553 1.868257
0.869279 7.848706 -0.969593
0.857018 7.725718 1.231139
0.851439 7.675421 -0.675631
0.852886 7.676207 1.501285
0.853558 7.670062 -0.404452
0.857440 7.692758 1.787011
0.856171 7.669182 -0.134698
0.860832 7.698749 2.075729
0.638029 5.643693 -1.521856
4.263233 37.651642 0.661411
0.737162 6.500255 -1.510321
2.764796 24.341869 1.283906
0.864770 7.613628 -1.489455
2.006974 17.642387 1.553464
0.872784 7.660336 -1.221128
1.726456 15.129457 1.869720
0.897120 7.849568 -0.970080
0.884882 7.730529 1.232391
0.876642 7.658545 -0.674411
0.879901 7.675133 1.501667
0.880781 7.671004 -0.404662
0.884957 7.695526 1.788361
0.882938 7.666147 -0.134698
0.887477 7.693778 2.075211
0.656605 5.631838 -1.519268
4.389080 37.588860 0.660574
0.759394 6.493772 -1.509422
2.852066 24.351908 1.284953
0.890655 7.604713 -1.488310
2.018879 17.211805 1.516161
0.899056 7.653318 -1.220502
1.782965 15.154882 1.873619
0.925446 7.854275 -0.971055
0.913248 7.739164 1.234268
0.908972 7.702927 -0.678595
0.906221 7.668117 1.500904
0.907319 7.665899 -0.404557
0.912730 7.700130 1.790160
0.909219 7.659047 -0.134628
0.913646 7.684877 2.073658
0.675109 5.619921 -1.516680
4.522404 37.591175 0.660888
0.780194 6.475603 -1.505822
2.937777 24.347750 1.285267
0.915315 7.585966 -1.485257
2.029229 16.793230 1.479905
0.926004 7.652095 -1.220815
1.837292 15.160391 1.875082
0.956203 7.878586 -0.974467
0.940736 7.739851 1.234894
0.932732 7.673995 -0.676329
0.933459 7.668804 1.501667
0.933830 7.660703 -0.404452
