# This PCD file was generated using the MATLAB® pcwrite function
# from Computer Vision Toolbox®.
# .PCD v.7 - Point Cloud Data file format
VERSION .7
FIELDS x y z
SIZE 4 4 4
TYPE F F F
COUNT 1 1 1
WIDTH 1729
HEIGHT 1
VIEWPOINT 0 0 0 1 0 0 0
POINTS 1729
DATA ascii
4.557113 7.792319 1.754680
4.521439 7.728231 -0.469244
4.537935 7.753314 2.074049
4.531680 7.739527 -0.156548
4.556942 7.779568 2.415817
2.928514 4.985549 -1.549291
4.557001 7.754812 0.157002
3.049692 5.187698 -1.389298
4.561239 7.755826 0.471547
3.524164 5.992408 -1.351309
4.566623 7.761880 0.787888
4.218357 7.167071 -1.317178
4.577777 7.774629 1.107792
4.640593 7.878166 -1.122661
4.563087 7.743496 1.423554
4.567995 7.751824 -0.787191
4.598243 7.800043 1.760022
4.564623 7.739926 -0.470919
4.576853 7.757568 2.079448
4.567815 7.739162 -0.156862
4.588984 7.771930 2.418405
2.943932 4.971972 -1.548256
4.595252 7.757785 0.157386
3.066787 5.175345 -1.388848
4.597453 7.755319 0.472489
3.542058 5.975002 -1.350165
4.697351 7.920691 0.805668
4.243348 7.152303 -1.317178
4.747748 7.999297 1.142160
4.662995 7.853385 -1.121442
4.600176 7.744506 1.426683
4.602485 7.745306 -0.788237
4.635473 7.800820 1.763838
4.597734 7.734247 -0.471547
4.615855 7.761644 2.084846
4.602983 7.736917 -0.157141
4.621023 7.764164 2.420993
2.958173 4.954514 -1.546185
4.626406 7.748564 0.157525
3.087833 5.169627 -1.390198
4.778166 7.996398 0.488190
3.563933 5.961981 -1.350165
4.263451 7.126530 -1.315301
6.173886 10.319900 1.476569
4.719945 7.886456 -1.128510
4.635301 7.741959 1.429186
4.640753 7.747996 -0.790154
4.671095 7.795568 1.766510
4.648645 7.755031 -0.473850
4.650288 7.754702 2.087546
4.652585 7.758533 -0.157909
4.653068 7.756269 2.423582
2.979433 4.950779 -1.548256
4.661993 7.743548 0.157770
3.109775 5.163283 -1.391547
4.826657 8.013890 0.490283
3.584724 5.949503 -1.350165
8.935952 14.825004 1.514418
4.287280 7.109914 -1.314988
6.188088 10.258106 1.470963
4.751895 7.874204 -1.129241
4.676585 7.749411 1.433566
4.698660 7.782920 -0.795383
4.703355 7.787617 1.768418
4.678783 7.743885 -0.474164
4.689427 7.758434 2.092945
4.682745 7.747378 -0.158014
4.696110 7.766429 2.431864
2.989684 4.928786 -1.544632
4.701129 7.750271 0.158224
3.134969 5.166269 -1.395146
4.862892 8.010653 0.491121
3.605469 5.936954 -1.350165
8.950408 14.732418 1.508143
4.313913 7.100722 -1.315927
6.228250 10.247712 1.472426
4.782107 7.865185 -1.130216
4.713874 7.749913 1.436694
4.738229 7.786894 -0.797475
4.739358 7.788749 1.772234
4.708593 7.735150 -0.474583
4.717154 7.746170 2.093844
4.724323 7.754895 -0.158503
4.731233 7.763187 2.436005
3.017092 4.936977 -1.550326
4.737541 7.749170 0.158538
3.160100 5.166933 -1.398296
4.898810 8.009816 0.492063
3.614889 5.908220 -1.346348
9.644092 15.756248 1.616216
4.335576 7.080567 -1.314988
6.272281 10.239450 1.474375
4.812647 7.853521 -1.130948
4.745743 7.744344 1.438571
4.756735 7.759250 -0.796255
4.772674 7.782202 1.774524
4.747056 7.737392 -0.475734
4.752318 7.742944 2.097444
4.752104 7.742595 -0.158573
4.767057 7.763918 2.441181
3.026203 4.913256 -1.546185
4.772653 7.748740 0.158852
3.188461 5.174675 -1.403245
4.939318 8.013068 0.493319
3.635492 5.895565 -1.346348
9.650910 15.644488 1.608198
4.357994 7.064471 -1.314675
7.571825 12.269405 1.770274
4.856389 7.866234 -1.135091
4.787273 7.751264 1.442952
4.787982 7.749377 -0.796952
4.814967 7.793054 1.780630
4.787388 7.745394 -0.477199
4.792315 7.750348 2.103742
4.786467 7.737863 -0.158817
4.799213 7.755444 2.443769
3.033311 4.888421 -1.541526
4.810216 7.749023 0.159201
3.213702 5.175102 -1.406394
4.983069 8.021224 0.494889
3.648808 5.873469 -1.344059
9.654364 15.534554 1.600179
4.373242 7.034116 -1.311860
7.574770 12.178843 1.761012
4.897450 7.871147 -1.138260
4.825785 7.752952 1.446393
4.844184 7.782511 -0.802007
4.837992 7.769530 1.779103
4.824954 7.745589 -0.478246
4.835833 7.760034 2.110941
4.827203 7.743167 -0.159271
4.837500 7.756676 2.449464
3.045234 4.869614 -1.538938
4.840420 7.737270 0.159306
3.229678 5.160550 -1.405494
5.024812 8.025792 0.496250
3.675535 5.870684 -1.346348
9.651425 15.409575 1.590767
4.394624 7.013785 -1.310921
7.568731 12.074962 1.749800
4.938607 7.875865 -1.141428
4.866467 7.757812 1.450461
4.860735 7.748675 -0.800264
4.888036 7.789184 1.787499
4.860459 7.742230 -0.479083
4.874293 7.761257 2.115890
4.862707 7.739819 -0.159550
4.876884 7.759370 2.455675
3.068395 4.868759 -1.542044
4.885523 7.749087 0.159899
3.254951 5.160781 -1.408643
5.058127 8.016647 0.496773
3.691816 5.851175 -1.344822
9.654099 15.294926 1.582400
4.414860 6.991722 -1.309669
7.568431 11.981335 1.740051
4.985152 7.888789 -1.145816
4.901960 7.754137 1.452963
4.897334 7.746819 -0.801833
4.931987 7.798621 1.793605
4.897068 7.740407 -0.480025
4.909691 7.757370 2.119489
4.910021 7.754897 -0.160213
4.918414 7.765145 2.462922
3.089513 4.864542 -1.544114
4.930775 7.760678 0.160492
3.282355 5.164189 -1.412693
5.100009 8.020854 0.498134
3.705896 5.828313 -1.342532
9.656107 15.180438 1.574033
4.439240 6.976267 -1.309669
7.576093 11.901258 1.732251
5.016925 7.878036 -1.146791
4.933246 7.743641 1.454215
4.935053 7.746479 -0.803576
4.968674 7.796258 1.797039
4.934789 7.740110 -0.481072
4.944077 7.751685 2.122638
4.939210 7.741083 -0.160283
4.958997 7.769102 2.469651
3.093980 4.834202 -1.537903
4.965384 7.755206 0.160737
3.312971 5.172394 -1.418091
5.141986 8.024863 0.499494
3.723042 5.810382 -1.341387
9.668184 15.082897 1.567409
4.461428 6.957406 -1.309044
7.585437 11.824612 1.724939
5.067983 7.897228 -1.152153
4.975181 7.749650 1.458595
4.965287 7.734238 -0.804099
5.009652 7.800341 1.802000
4.980132 7.751401 -0.482852
4.984801 7.755692 2.128487
4.978101 7.742296 -0.160667
4.992359 7.761492 2.472757
3.112931 4.826619 -1.538938
5.001097 7.751271 0.161016
3.343688 5.180445 -1.423490
5.181886 8.025320 0.500646
3.744368 5.798999 -1.341769
9.688339 14.998850 1.562180
4.470679 6.918561 -1.304664
7.587874 11.738045 1.716164
5.113843 7.907828 -1.156296
5.015079 7.752137 1.462350
5.001996 7.731913 -0.805668
5.040052 7.787750 1.803145
5.016926 7.749061 -0.483794
5.024553 7.757873 2.133886
5.022496 7.751723 -0.161225
5.033079 7.765094 2.479487
3.124493 4.807627 -1.536350
5.037935 7.748853 0.161330
3.358563 5.163842 -1.422141
5.220756 8.023928 0.501693
3.760301 5.779314 -1.340242
9.740640 14.964938 1.562180
4.503427 6.916155 -1.307166
7.585460 11.644955 1.706415
5.155506 7.911549 -1.159465
5.053977 7.752786 1.465791
5.044452 7.735223 -0.807934
5.074711 7.781622 1.805817
5.051586 7.743209 -0.484526
5.062256 7.756605 2.138385
5.062640 7.754237 -0.161644
5.073888 7.768503 2.486216
3.145270 4.800990 -1.537903
5.077006 7.749621 0.161714
3.380841 5.158605 -1.423940
5.256400 8.017345 0.502425
3.783613 5.768775 -1.341006
9.828211 14.979113 1.567409
4.524408 6.892999 -1.305915
7.584666 11.555345 1.697153
5.190717 7.905121 -1.161171
5.094021 7.754910 1.469545
5.080173 7.730888 -0.809328
5.118298 7.785936 1.811159
5.098588 7.753012 -0.486306
5.097075 7.747768 2.141084
5.098468 7.749884 -0.161923
5.111597 7.766880 2.491392
3.166265 4.796431 -1.539973
5.116397 7.747646 0.162063
3.407244 5.157562 -1.427089
5.292058 8.010614 0.503158
3.796151 5.744066 -1.338334
9.919998 15.004545 1.573684
4.538632 6.862335 -1.303099
7.589729 11.471178 1.688866
5.228139 7.901852 -1.163365
5.129785 7.750258 1.472049
5.120326 7.733044 -0.811420
5.159537 7.789301 1.816120
5.130033 7.741825 -0.486724
5.134583 7.748691 2.146033
5.132117 7.742042 -0.162133
5.152555 7.769921 2.498122
3.168250 4.764990 -1.533244
5.154242 7.748954 0.162447
3.432966 5.159213 -1.430689
5.335192 8.017962 0.504728
3.806474 5.718373 -1.335281
4.561366 6.847245 -1.303099
7.594700 11.396391 1.681553
5.271926 7.910903 -1.167265
5.167508 7.751285 1.475490
5.150366 7.722651 -0.812117
5.196233 7.788481 1.819936
5.168982 7.744707 -0.487980
5.175395 7.754315 2.152332
5.166647 7.738284 -0.162412
5.184729 7.762432 2.501227
3.192634 4.767298 -1.537385
5.187703 7.743446 0.162691
3.458734 5.160751 -1.434288
5.380946 8.025831 0.506403
3.830884 5.713871 -1.337190
4.577442 6.822242 -1.301222
7.597050 11.318398 1.673754
5.315002 7.915524 -1.170677
5.212156 7.759438 1.480496
5.191498 7.728685 -0.814558
5.230794 7.784242 1.822989
5.212467 7.754043 -0.489655
5.217653 7.758842 2.158630
5.207024 7.740110 -0.162831
5.224739 7.763518 2.507439
3.201689 4.744917 -1.533762
5.230362 7.748496 0.163180
3.485453 5.161566 -1.437887
5.422338 8.026863 0.507659
3.850802 5.700466 -1.337190
4.599018 6.802947 -1.300596
7.589804 11.222749 1.663517
5.361508 7.924873 -1.174821
5.248069 7.754282 1.482999
5.241899 7.745165 -0.818218
5.275544 7.791948 1.829095
5.243979 7.742415 -0.490074
5.260010 7.763167 2.164929
5.248594 7.743407 -0.163285
5.271321 7.774015 2.516757
3.223664 4.741700 -1.536350
5.274249 7.754992 0.163704
3.505641 5.152591 -1.438787
5.455945 8.016140 0.508182
3.862946 5.675628 -1.334518
4.617175 6.778690 -1.299032
7.597632 11.150256 1.656692
5.388023 7.904469 -1.174577
5.292909 7.762029 1.488005
5.278109 7.737423 -0.819438
5.319304 7.797814 1.834819
5.279982 7.737260 -0.490911
5.291474 7.751195 2.166729
5.294762 7.753113 -0.163878
5.307145 7.768327 2.520898
3.235561 4.721885 -1.533762
5.320497 7.764582 0.164297
3.534625 5.156395 -1.443286
5.501968 8.023400 0.509857
3.880389 5.656575 -1.333373
4.637519 6.755206 -1.297781
7.603929 11.076204 1.649624
5.427938 7.903617 -1.177258
5.330041 7.758160 1.490821
5.316372 7.735371 -0.821181
5.363419 7.800915 1.840162
5.324148 7.740896 -0.492377
5.333102 7.751015 2.172127
5.327463 7.742819 -0.164053
5.347368 7.768853 2.527109
3.245440 4.701023 -1.530656
5.356880 7.756543 0.164541
3.570114 5.167456 -1.450034
5.551777 8.032757 0.511741
3.897879 5.639765 -1.332610
9.667465 13.982431 1.487226
4.661069 6.738978 -1.297781
7.604939 10.991128 1.641093
5.467043 7.898355 -1.179452
5.365186 7.748317 1.492698
5.353762 7.728937 -0.822576
5.400681 7.796670 1.843597
5.368203 7.746888 -0.493947
5.381217 7.762782 2.180676
5.371757 7.746247 -0.164541
5.382419 7.758722 2.530215
3.258233 4.682754 -1.528585
5.390770 7.747649 0.164751
3.602605 5.175754 -1.455883
5.594622 8.034635 0.513102
3.918523 5.625441 -1.332610
9.673082 13.881521 1.480253
4.677831 6.710505 -1.295590
7.609206 10.915659 1.633781
5.499118 7.885741 -1.180427
5.412545 7.758702 1.498329
5.394393 7.729806 -0.824668
5.435961 7.786482 1.845886
5.413713 7.751723 -0.495517
5.419681 7.757384 2.184725
5.413654 7.748758 -0.164995
5.422744 7.758891 2.536427
3.274330 4.676230 -1.529621
5.431144 7.753606 0.165239
3.621083 5.167603 -1.456783
5.627859 8.028469 0.513834
3.926183 5.600928 -1.329557
9.666180 13.784247 1.472932
4.695452 6.693363 -1.294965
7.600128 10.829955 1.624519
5.544400 7.897666 -1.184814
5.445974 7.754593 1.500832
5.432189 7.734964 -0.826934
5.471457 7.787989 1.850084
5.444730 7.747063 -0.496250
5.456121 7.760400 2.190123
5.454075 7.754613 -0.165484
5.461549 7.762352 2.543156
3.291746 4.666351 -1.530138
5.470861 7.752573 0.165623
3.649215 5.169259 -1.460832
5.655849 8.008776 0.513834
3.944577 5.585586 -1.329176
9.679745 13.701606 1.467703
4.719929 6.678544 -1.295278
7.601211 10.751492 1.616719
5.585684 7.897717 -1.187739
5.486703 7.754885 1.504587
5.475268 7.738724 -0.829374
5.520157 7.799290 1.857335
5.487892 7.750834 -0.497715
5.491063 7.752437 2.193273
5.494986 7.755105 -0.165903
5.506482 7.768462 2.551438
3.314730 4.664279 -1.533244
5.511795 7.752984 0.166042
3.679659 5.173959 -1.465781
5.716190 8.034550 0.516765
3.956084 5.560584 -1.326504
9.683617 13.606049 1.461079
4.744357 6.663637 -1.295590
7.611058 10.686086 1.610869
5.628195 7.899186 -1.190907
5.520617 7.745338 1.506464
5.523257 7.746183 -0.832337
5.557609 7.794360 1.860770
5.524194 7.744637 -0.498552
5.531672 7.752259 2.198672
5.526669 7.742389 -0.166042
5.552652 7.775918 2.560238
3.314930 4.628541 -1.525479
5.553960 7.754833 0.166496
3.702236 5.167420 -1.467581
5.753511 8.027534 0.517603
3.971861 5.539665 -1.324978
9.675356 13.489517 1.452363
4.760689 6.634968 -1.293400
7.612442 10.609453 1.603313
5.682356 7.916585 -1.196513
5.566052 7.751696 1.511470
5.552589 7.730091 -0.832686
5.606759 7.802636 1.867638
5.565364 7.742178 -0.499704
5.578254 7.757246 2.205870
5.566504 7.740906 -0.166426
5.579759 7.756490 2.560238
3.333328 4.620074 -1.526515
5.590539 7.745773 0.166740
3.727997 5.163295 -1.470280
5.797864 8.030072 0.519068
3.990026 5.524175 -1.324596
9.673379 13.387831 1.445042
4.771090 6.600700 -1.289959
7.621032 10.539658 1.596976
5.706682 7.889270 -1.195538
5.613918 7.761028 1.517102
5.593553 7.730032 -0.834778
5.647777 7.802100 1.872218
5.614614 7.753438 -0.501693
5.621302 7.759822 2.212169
5.611086 7.745720 -0.166950
5.623806 7.760429 2.568003
3.343755 4.600598 -1.523927
5.635003 7.753074 0.167299
3.750827 5.158786 -1.472530
9.733259 13.381948 0.867207
4.009283 5.510214 -1.324596
9.710670 13.341100 1.443648
4.791789 6.583246 -1.289646
7.616209 10.459766 1.588689
5.744502 7.886346 -1.197976
5.657260 7.763735 1.521482
5.638109 7.734610 -0.837392
5.684030 7.797606 1.875653
5.645005 7.741231 -0.502111
5.660784 7.760033 2.217567
5.652238 7.745470 -0.167369
5.674784 7.773516 2.578873
3.361274 4.592602 -1.524962
5.676209 7.752717 0.167718
3.773420 5.151949 -1.474329
9.768104 13.331782 0.866160
4.024052 5.492139 -1.323451
9.771350 13.331318 1.446088
4.804229 6.552141 -1.286830
7.613927 10.380297 1.580645
5.783738 7.882252 -1.200413
5.696017 7.759863 1.524610
5.682588 7.741569 -0.840181
5.723989 7.795127 1.879850
5.686179 7.740795 -0.503367
5.701686 7.759068 2.222966
5.701742 7.756307 -0.168032
5.720194 7.778562 2.587155
3.377286 4.580841 -1.524962
5.719853 7.755388 0.168206
3.802949 5.154428 -1.478828
9.748167 13.207612 0.860299
4.029210 5.459102 -1.318872
9.855692 13.348420 1.451666
4.825895 6.533743 -1.286517
5.951402 8.054616 1.229662
5.815938 7.868399 -1.201388
5.737161 7.758994 1.528365
5.723790 7.740911 -0.842273
5.765177 7.794039 1.884430
5.732175 7.746586 -0.505042
5.743806 7.759481 2.228815
5.735921 7.746001 -0.168241
5.761113 7.777174 2.593367
3.379435 4.550412 -1.518750
5.761199 7.754639 0.168625
3.826731 5.148941 -1.481078
9.906230 13.324166 0.870138
4.048242 5.445003 -1.318872
9.909359 13.323532 1.452712
4.848674 6.516856 -1.286517
5.993707 8.052901 1.232587
5.863517 7.875121 -1.205532
5.778372 7.757931 1.532119
5.761489 7.735264 -0.843842
5.806427 7.792757 1.889009
5.771112 7.742548 -0.506089
5.788333 7.762816 2.235564
5.776079 7.743562 -0.168625
5.795151 7.766310 2.596473
3.398768 4.543229 -1.520303
5.800215 7.750489 0.168974
3.866872 5.165191 -1.489626
6.037693 8.061949 0.527861
4.064869 5.427697 -1.318109
4.859548 6.484083 -1.283388
6.043213 8.060520 1.236974
5.917176 7.889542 -1.210894
5.819645 7.756673 1.535874
5.808784 7.742197 -0.846805
5.844198 7.786574 1.892444
5.819691 7.751103 -0.507973
5.831781 7.764376 2.241862
5.819889 7.745735 -0.169114
5.838478 7.767652 2.603720
3.416933 4.534422 -1.521338
5.841678 7.749358 0.169393
3.879009 5.143885 -1.487376
6.083633 8.067399 0.529535
4.087339 5.418176 -1.319253
4.870245 6.451318 -1.280260
6.078492 8.048880 1.238436
5.965024 7.895763 -1.215037
5.863194 7.760974 1.540567
5.850184 7.740952 -0.848897
5.890288 7.791182 1.898550
5.857557 7.745077 -0.508915
5.880007 7.771951 2.249960
5.863638 7.750315 -0.169637
5.880528 7.769813 2.610967
3.439745 4.531702 -1.524444
5.885477 7.753837 0.169917
3.894867 5.129440 -1.486926
6.131088 8.071560 0.531210
4.101472 5.397625 -1.317727
4.888028 6.430414 -1.279321
6.119567 8.047641 1.241361
5.994775 7.880683 -1.215769
5.908191 7.764041 1.545260
5.896480 7.745846 -0.851686
5.939874 7.802851 1.906182
5.900144 7.747860 -0.510380
5.908111 7.755507 2.250860
5.910052 7.755246 -0.170196
5.924013 7.770746 2.618213
3.450063 4.514130 -1.522374
5.929513 7.755485 0.170405
3.917486 5.122004 -1.488726
6.173788 8.069145 0.532466
4.115771 5.379316 -1.316582
4.910446 6.413311 -1.279321
6.170555 8.056175 1.245992
6.037945 7.880193 -1.218937
5.937662 7.746505 1.545886
5.935469 7.743644 -0.853603
5.986187 7.806997 1.912288
5.942957 7.747817 -0.511741
5.949385 7.753387 2.256259
5.950478 7.752018 -0.170580
5.966392 7.769942 2.624943
3.458730 4.492874 -1.519268
5.979732 7.764840 0.171068
3.928202 5.099039 -1.486027
6.236056 8.091840 0.535397
4.126136 5.354030 -1.313911
9.717188 12.604368 1.392400
4.932799 6.396134 -1.279321
6.210766 8.050303 1.248430
6.065417 7.859066 -1.218937
5.983976 7.750753 1.550892
5.973416 7.737075 -0.855172
6.031404 7.809359 1.918012
5.990726 7.753892 -0.513520
6.000246 7.763412 2.265257
5.989736 7.747019 -0.170929
6.010027 7.770460 2.632190
3.474391 4.480774 -1.519268
6.019055 7.759722 0.171418
3.950757 5.091453 -1.487826
4.154432 5.352000 -1.316964
9.687805 12.475955 1.381941
4.936920 6.355475 -1.274628
6.252230 8.045814 1.251111
6.083065 7.825309 -1.216987
6.029186 7.753207 1.555584
6.008951 7.727185 -0.856392
6.063452 7.794455 1.919539
6.032474 7.751849 -0.514777
6.041672 7.760874 2.270656
6.035173 7.749727 -0.171452
6.053735 7.770772 2.639437
3.487631 4.465574 -1.518233
6.058417 7.754420 0.171767
3.970905 5.080703 -1.488726
4.170667 5.334376 -1.316200
9.696930 12.398117 1.377061
4.965159 6.345983 -1.276192
6.287616 8.033321 1.252573
6.095661 7.785271 -1.214063
6.076923 7.758549 1.560903
6.061688 7.739100 -0.860053
6.109994 7.797969 1.925644
6.068122 7.741747 -0.515509
6.091575 7.768873 2.279204
6.085635 7.758510 -0.172116
6.095134 7.767828 2.645648
3.500810 4.450336 -1.517197
6.107707 7.761513 0.172395
3.978974 5.054559 -1.485127
4.189263 5.319784 -1.316200
9.695760 12.307851 1.370785
4.976278 6.314648 -1.273377
6.331594 8.031592 1.255742
6.144923 7.792003 -1.218450
6.121096 7.759004 1.565283
6.108410 7.742923 -0.862842
6.150555 7.793548 1.929842
6.114909 7.745602 -0.517184
6.123485 7.753680 2.281004
6.136232 7.767034 -0.172779
6.146172 7.776816 2.656001
3.517522 4.439603 -1.517715
6.152154 7.762084 0.172884
3.995384 5.039112 -1.484677
4.204146 5.300514 -1.315056
9.711423 12.239593 1.366951
5.001976 6.301880 -1.274315
6.381807 8.037425 1.260129
6.177025 7.776722 -1.219425
6.161662 7.754601 1.568725
6.157712 7.749630 -0.865979
6.200931 7.801233 1.937093
6.158072 7.744530 -0.518545
6.177204 7.765809 2.290901
6.165795 7.748698 -0.172849
6.186513 7.771943 2.661695
3.524564 4.416727 -1.514091
6.195428 7.760880 0.173337
4.008084 5.019044 -1.482877
4.228751 5.293475 -1.316964
9.711795 12.152702 1.361024
5.020241 6.279753 -1.273377
6.435863 8.047655 1.265248
6.209093 7.761314 -1.220400
6.202268 7.750011 1.572167
6.198418 7.745201 -0.867897
6.250212 7.807126 1.943962
6.200047 7.741695 -0.519801
6.224986 7.770055 2.298550
6.209065 7.747412 -0.173302
6.230521 7.771403 2.668942
3.537539 4.401386 -1.513056
6.238769 7.759468 0.173791
4.030467 5.011096 -1.484677
4.239820 5.269503 -1.314674
9.724172 12.081479 1.356841
5.030984 6.248342 -1.270561
6.482595 8.048328 1.268904
6.223690 7.724137 -1.217962
6.256558 7.762148 1.579050
6.244174 7.746785 -0.870512
6.299610 7.812769 1.950831
6.247095 7.744881 -0.521476
6.266757 7.766476 2.303949
6.253656 7.747474 -0.173791
6.275813 7.772154 2.676707
3.555313 4.392013 -1.514091
6.279661 7.754736 0.174175
4.046703 4.995485 -1.484227
4.263131 5.260773 -1.316200
13.916711 17.167320 1.933463
5.051515 6.229211 -1.270248
6.523154 8.041068 1.271341
6.255620 7.708529 -1.218937
6.299798 7.760200 1.583117
6.284988 7.741957 -0.872429
6.334267 7.799877 1.953121
6.296761 7.750928 -0.523360
6.311037 7.765724 2.310247
6.300844 7.750425 -0.174350
6.319971 7.771182 2.683954
3.568182 4.376580 -1.513056
6.329440 7.760664 0.174803
4.065350 4.982838 -1.484677
26.888962 32.945621 2.228675
4.281470 5.245859 -1.316200
5.074480 6.213069 -1.270561
6.559977 8.029008 1.273047
6.257363 7.655908 -1.214063
6.344351 7.759573 1.587497
6.328367 7.740025 -0.874695
6.376372 7.795953 1.957700
6.337689 7.745906 -0.524511
6.347975 7.755715 2.313847
6.348131 7.753137 -0.174908
6.369095 7.775972 2.693271
3.580982 4.361115 -1.512021
6.376801 7.763244 0.175362
4.080245 4.965604 -1.483777
26.991095 32.836151 2.227628
4.284792 5.212685 -1.311621
5.088608 6.186163 -1.268684
6.615708 8.039788 1.278410
6.279005 7.627886 -1.213088
6.386469 7.755678 1.591252
6.378146 7.745570 -0.877833
6.432251 7.808505 1.966478
6.390094 7.754561 -0.526604
6.402282 7.766590 2.323745
6.387873 7.746363 -0.175257
6.420785 7.783499 2.703624
3.591260 4.342632 -1.509950
6.421709 7.762507 0.175850
4.092583 4.945327 -1.481978
27.092819 32.726341 2.226581
4.310474 5.206769 -1.313911
14.975117 18.082512 2.054086
5.112690 6.171406 -1.269309
6.658934 8.034986 1.281334
6.287858 7.584525 -1.209675
6.433677 7.757667 1.596257
6.416590 7.737063 -0.879401
6.473260 7.802623 1.970675
6.438809 7.758335 -0.528384
6.454247 7.774183 2.332742
6.437873 7.751707 -0.175885
6.459028 7.774411 2.708283
3.603170 4.327729 -1.508915
6.457647 7.753466 0.176130
4.101474 4.922746 -1.479278
27.260025 32.706882 2.231396
4.320177 5.183396 -1.311621
14.989063 17.977665 2.047811
5.125535 6.145317 -1.267432
6.705892 8.037245 1.285234
6.328237 7.581922 -1.212600
6.483420 7.765100 1.602202
6.466472 7.744802 -0.882713
6.520496 7.806728 1.977163
6.481148 7.756866 -0.529745
6.506235 7.784138 2.342191
6.475090 7.744121 -0.176199
6.495927 7.766287 2.712941
3.620736 4.318087 -1.509950
6.500096 7.749261 0.176549
4.119886 4.909891 -1.479728
22.055363 26.275249 1.797845
4.340767 5.171293 -1.312384
14.995350 17.858105 2.040142
5.134251 6.112261 -1.264304
6.751783 8.035066 1.288647
6.311234 7.508122 -1.204313
6.530829 7.766611 1.607208
6.511421 7.743529 -0.885154
6.567929 7.807956 1.983269
6.515899 7.743367 -0.530373
6.557214 7.789704 2.350739
6.523980 7.747472 -0.176793
6.549132 7.774593 2.723812
3.635787 4.305423 -1.509950
6.552917 7.757074 0.177247
4.138257 4.896969 -1.480178
4.363861 5.162108 -1.313911
13.570365 16.046989 1.838637
5.160657 6.100336 -1.265555
6.809283 8.046304 1.294253
6.327144 7.473923 -1.202363
6.577048 7.766380 1.611901
6.561586 7.748123 -0.888291
6.624326 7.819441 1.992046
6.563551 7.744952 -0.532047
6.599485 7.784607 2.356138
6.583313 7.762784 -0.177666
6.599977 7.779673 2.733647
3.643285 4.283875 -1.506845
6.603277 7.761569 0.177875
4.154064 4.881009 -1.479728
4.374218 5.137873 -1.311621
13.675385 16.057165 1.845261
5.169111 6.067247 -1.262426
6.851494 8.039103 1.296934
6.350617 7.448772 -1.201876
6.611811 7.752391 1.613778
6.605402 7.744876 -0.890557
6.664326 7.811203 1.995862
6.615180 7.750859 -0.534036
6.643070 7.780787 2.361986
6.622062 7.753441 -0.177980
6.652190 7.785964 2.743999
3.653188 4.265263 -1.504774
6.655049 7.767326 0.178538
4.176150 4.872396 -1.481528
4.412571 5.146420 -1.317727
6.918855 8.066671 0.929777
5.196691 6.056660 -1.263991
6.904078 8.043758 1.301565
6.368819 7.417524 -1.200413
6.659427 7.753238 1.618784
6.640188 7.730839 -0.891603
6.706903 7.805763 2.000442
6.665631 7.754982 -0.535920
6.696872 7.788580 2.371434
6.669948 7.754536 -0.178538
6.690670 7.775875 2.748658
3.666794 4.251021 -1.504256
6.691265 7.754648 0.178782
4.189312 4.853364 -1.480178
6.940355 8.037642 0.556541
4.433077 5.133957 -1.318490
6.944368 8.039454 0.929429
5.211342 6.031012 -1.262426
6.956780 8.048142 1.306196
6.392077 7.392242 -1.199926
6.716171 7.764307 1.625980
6.695807 7.740765 -0.895438
6.746958 7.797149 2.004258
6.718802 7.761872 -0.538014
6.744427 7.788728 2.378632
6.724473 7.762946 -0.179271
6.735482 7.772914 2.755905
3.685410 4.242572 -1.505809
6.734034 7.749355 0.179201
4.201113 4.832829 -1.478378
6.970989 8.016383 0.556750
4.469006 5.139193 -1.323833
14.470450 16.634626 1.928931
5.221988 6.000865 -1.259923
7.004380 8.046269 1.309852
6.420448 7.372880 -1.200413
6.765293 7.766136 1.631299
6.748962 7.747389 -0.898924
6.792194 7.794270 2.009600
6.761603 7.756439 -0.539270
6.790788 7.787167 2.385381
6.769935 7.760520 -0.179760
6.784165 7.774100 2.764705
3.697654 4.226772 -1.504774
6.783433 7.751381 0.179795
4.215388 4.815204 -1.477479
4.498559 5.136853 -1.327267
14.292111 16.314253 1.897555
5.242902 5.982601 -1.259923
7.057289 8.050130 1.314483
6.427823 7.329527 -1.197001
6.813199 7.766238 1.636305
6.798296 7.749251 -0.901888
6.847847 7.802978 2.017996
6.804450 7.750799 -0.540526
6.830783 7.778063 2.389880
6.815459 7.757875 -0.180248
6.838044 7.780844 2.775576
3.717494 4.219638 -1.506845
6.835568 7.756162 0.180458
4.232172 4.800458 -1.477479
4.526853 5.132897 -1.330320
14.327879 16.240364 1.894766
5.263754 5.964262 -1.259923
7.119508 8.064137 1.320820
6.450739 7.304071 -1.196513
6.851993 7.758405 1.639433
6.851691 7.755334 -0.905374
6.890647 7.796678 2.022575
6.857921 7.756927 -0.542619
6.890170 7.790664 2.401128
6.850420 7.745719 -0.180493
6.906053 7.805870 2.792658
3.727071 4.200857 -1.504774
6.895755 7.772345 0.181365
4.250657 4.789312 -1.478378
9.730430 10.959643 0.768083
4.561687 5.136150 -1.335281
9.718460 10.938470 1.280143
5.278257 5.940865 -1.258672
8.926497 10.043557 1.649867
6.472285 7.279673 -1.196026
6.901354 7.759531 1.644752
6.893290 7.747742 -0.907291
6.941257 7.801654 2.029826
6.910161 7.763983 -0.544713
6.928926 7.782324 2.405627
6.908007 7.756103 -0.181296
6.926827 7.774508 2.790070
3.730687 4.176946 -1.500633
6.932172 7.758663 0.181610
4.262150 4.768636 -1.476579
9.760636 10.916679 0.767455
4.594398 5.138556 -1.339861
14.605452 16.329576 1.916729
5.288427 5.910625 -1.256169
8.920459 9.966485 1.642311
6.484417 7.242247 -1.193588
6.954758 7.764821 1.651010
6.933568 7.741163 -0.909209
6.982857 7.793463 2.034024
6.957219 7.762123 -0.546283
6.975566 7.779853 2.412375
6.969753 7.770648 -0.182203
6.981019 7.780476 2.800940
3.745245 4.163898 -1.500633
6.979275 7.756718 0.182133
4.261823 4.734899 -1.470730
4.624132 5.135617 -1.343295
14.857039 16.494637 1.942178
5.303733 5.886263 -1.254917
8.921969 9.898420 1.636218
6.512314 7.222517 -1.194076
7.002984 7.763971 1.656015
6.987231 7.746507 -0.912695
7.023172 7.783614 2.037840
7.016390 7.773370 -0.548795
7.031407 7.787282 2.422273
7.016943 7.768528 -0.182727
7.028860 7.778992 2.809222
3.770130 4.162256 -1.504774
7.033165 7.761943 0.182831
4.279635 4.721436 -1.471180
4.656533 5.135447 -1.347493
14.933271 16.463329 1.944619
5.318939 5.861860 -1.253666
8.928442 9.836356 1.631099
6.521474 7.182103 -1.191151
7.055252 7.769953 1.662273
7.039684 7.750090 -0.916007
7.071419 7.782305 2.043946
7.052885 7.759179 -0.549528
7.076902 7.782873 2.428571
7.062843 7.767411 -0.183250
7.080613 7.784224 2.819575
3.779429 4.143360 -1.502703
7.077731 7.759263 0.183320
4.295269 4.707217 -1.471180
4.686347 5.132207 -1.350928
15.431395 16.893606 2.001793
5.335686 5.841272 -1.253040
8.922181 9.764194 1.624031
6.539897 7.154579 -1.190176
7.098330 7.762770 1.666027
7.092243 7.753403 -0.919319
7.123691 7.787783 2.051579
7.096102 7.754904 -0.550888
7.123727 7.782359 2.435770
7.099366 7.753035 -0.183495
7.135144 7.789378 2.830445
3.790536 4.127957 -1.501668
7.131830 7.763961 0.184018
4.319583 4.700808 -1.473879
4.713971 5.128201 -1.353981
5.356040 5.822615 -1.253040
8.922609 9.696469 1.617938
6.564834 7.131705 -1.190176
7.154820 7.769915 1.672910
7.136814 7.747648 -0.921585
7.181427 7.796079 2.060356
7.147492 7.756523 -0.552772
7.173302 7.781805 2.443418
7.142654 7.745845 -0.183913
7.175391 7.778622 2.835622
3.789898 4.097020 -1.495457
7.175180 7.756636 0.184437
4.328025 4.677118 -1.471180
4.755410 5.135378 -1.360468
5.366607 5.791349 -1.250537
8.411303 9.077018 1.519467
6.589686 7.108747 -1.190176
7.203388 7.768070 1.677916
7.185498 7.746058 -0.924374
7.219299 7.779780 2.063027
7.204406 7.761014 -0.554971
7.217690 7.772596 2.448817
7.206391 7.760428 -0.184856
7.228794 7.781837 2.845974
3.812078 4.092246 -1.498562
7.230826 7.759547 0.185135
4.342483 4.658371 -1.470280
4.797409 5.144591 -1.367337
5.384094 5.769694 -1.249912
8.397102 8.995341 1.510936
6.604856 7.072941 -1.188226
7.260118 7.774642 1.684799
7.231532 7.741313 -0.926814
7.265180 7.774613 2.068370
7.247823 7.753326 -0.556227
7.278052 7.782940 2.460065
7.264848 7.768820 -0.185659
7.286270 7.789003 2.857880
3.827660 4.080324 -1.499080
7.281146 7.761775 0.185763
4.345903 4.631157 -1.466231
26.530029 28.261503 2.031473
4.831464 5.144989 -1.371917
15.837640 16.859480 2.023756
5.395081 5.743170 -1.248034
8.456790 8.999272 1.516299
6.614680 7.036535 -1.185789
7.308867 7.772275 1.689805
7.295368 7.755208 -0.931521
7.319169 7.780510 2.076384
7.303606 7.761250 -0.558529
7.325191 7.781466 2.467263
7.311113 7.763797 -0.186147
7.339906 7.791647 2.868233
3.843822 4.070419 -1.500115
7.332915 7.762476 0.186392
4.366059 4.620207 -1.467581
26.579123 28.116482 2.027704
4.852544 5.133220 -1.373062
15.890727 16.803970 2.023408
5.420527 5.730042 -1.249286
8.518167 9.001421 1.521661
6.631016 7.004751 -1.184326
7.354970 7.766793 1.694185
7.347076 7.758457 -0.934833
7.366535 7.776294 2.082108
7.349887 7.756002 -0.559995
7.373762 7.778476 2.474462
7.357431 7.758544 -0.186636
7.388334 7.788401 2.876515
3.847357 4.045776 -1.495974
7.382017 7.760015 0.186950
4.378129 4.600704 -1.466231
4.878555 5.124780 -1.375351
5.443219 5.713947 -1.249912
8.565972 8.988874 1.524586
6.658164 6.984437 -1.184814
7.403846 7.763947 1.699191
7.391986 7.751510 -0.937099
7.423449 7.781782 2.090503
7.410007 7.764977 -0.562507
7.431816 7.785110 2.484809
7.412093 7.761736 -0.187334
7.435494 7.783515 2.884279
3.865464 4.036508 -1.497527
7.442257 7.768857 0.187788
4.407646 4.599462 -1.470730
4.927661 5.140316 -1.384128
16.007647 16.692629 2.023408
5.452193 5.683507 -1.247409
8.619291 8.981833 1.528485
6.677004 6.955426 -1.183839
7.463743 7.772248 1.706700
7.436942 7.744339 -0.939365
7.469611 7.775642 2.095846
7.456440 7.759228 -0.563972
7.483258 7.784408 2.492908
7.465479 7.763201 -0.187997
7.492078 7.788147 2.895668
3.874168 4.017427 -1.495457
7.480440 7.754344 0.188067
4.403373 4.563017 -1.463982
4.953757 5.131558 -1.386418
5.459643 5.651658 -1.244593
8.678179 8.980243 1.533360
6.706762 6.937783 -1.184814
7.516913 7.773133 1.712645
7.495780 7.751279 -0.943374
7.522641 7.776332 2.103097
7.495982 7.746068 -0.564914
7.542917 7.791840 2.503705
7.516179 7.761516 -0.188591
7.554168 7.798022 2.909126
3.889514 4.005264 -1.495974
7.552047 7.774085 0.189184
4.419276 4.547618 -1.463982
4.983957 5.126904 -1.389853
15.682081 16.126247 1.967977
5.476584 5.629732 -1.243967
8.031102 8.252794 1.413928
6.711552 6.894418 -1.181401
7.574322 7.777979 1.719528
7.553373 7.756467 -0.947209
7.568920 7.769711 2.108439
7.557821 7.755617 -0.567531
7.589108 7.785004 2.510004
7.578131 7.771022 -0.189463
7.596179 7.786818 2.914820
3.903469 3.991665 -1.495974
7.595921 7.764827 0.189603
4.435124 4.532163 -1.463982
5.016926 5.124910 -1.394051
5.493440 5.607758 -1.243341
8.804569 8.984662 1.544572
6.738358 6.873782 -1.181889
7.613875 7.764183 1.722344
7.609700 7.759925 -0.950869
7.628987 7.776886 2.117598
7.612828 7.757696 -0.569625
7.643542 7.786277 2.519002
7.630425 7.770209 -0.190092
7.649038 7.786437 2.924655
3.904488 3.966308 -1.491315
7.649689 7.768094 0.190301
4.441925 4.509100 -1.461282
5.054566 5.129220 -1.399775
5.514781 5.592321 -1.243967
8.859410 8.980851 1.548959
6.758325 6.848574 -1.181401
7.670114 7.769818 1.729227
7.660587 7.760168 -0.954007
7.682326 7.779480 2.125231
7.663774 7.757985 -0.571509
7.702197 7.794152 2.529799
7.675834 7.764771 -0.190580
7.701983 7.788503 2.935008
3.919671 3.954026 -1.491833
7.693653 7.758384 0.190720
4.465869 4.501871 -1.463982
9.749417 9.824575 0.725376
5.089035 5.128266 -1.404354
5.520345 5.559023 -1.240838
6.768200 6.810860 -1.178964
7.729214 7.775223 1.736423
7.711502 7.757406 -0.956970
7.732971 7.776280 2.131718
7.718982 7.759504 -0.573602
7.752720 7.790707 2.537448
7.729698 7.764854 -0.191243
7.759116 7.791685 2.946396
3.933448 3.940320 -1.491833
7.754602 7.765439 0.191558
4.477426 4.482118 -1.462632
9.744122 9.750929 0.722446
5.130496 5.134080 -1.410842
15.894485 15.900038 1.966931
5.539717 5.539719 -1.240838
8.955586 8.952463 1.554809
6.791932 6.787194 -1.178964
7.778670 7.770531 1.741429
7.776594 7.768457 -0.961676
7.789239 7.778374 2.139732
7.771462 7.757913 -0.575486
7.804698 7.788373 2.545546
7.786488 7.767481 -0.191976
7.812255 7.790473 2.956231
3.938960 3.918391 -1.488727
7.810022 7.766522 0.192256
4.487514 4.460967 -1.460832
9.738429 9.677439 0.719515
5.149777 5.117525 -1.411223
15.980992 15.875347 1.970766
5.563224 5.524525 -1.241777
8.969874 8.904368 1.551884
6.801493 6.749459 -1.176527
7.845012 7.782286 1.750189
7.836195 7.773539 -0.965686
7.841434 7.776022 2.146601
7.829702 7.761671 -0.577789
7.855367 7.784401 2.553195
7.856168 7.782479 -0.193024
7.865484 7.788980 2.966067
3.978727 3.930413 -1.498562
7.857003 7.758885 0.192744
4.501673 4.443905 -1.460382
9.740876 9.612519 0.717212
5.164816 5.096758 -1.410460
9.747169 9.615372 1.197868
5.579664 5.502297 -1.241151
9.051797 8.923171 1.560659
6.816526 6.717318 -1.175064
7.886204 7.768714 1.753318
7.905865 7.788083 -0.970915
7.896509 7.776152 2.154234
7.885213 7.762317 -0.579882
7.918608 7.792470 2.564892
7.893267 7.764823 -0.193268
7.918794 7.787216 2.975901
3.967598 3.892150 -1.489245
7.922587 7.769217 0.193687
4.517159 4.428163 -1.460382
9.740134 9.544912 0.714700
5.181172 5.077326 -1.410079
9.720894 9.522733 1.190547
5.597426 5.481402 -1.240838
9.097073 8.905407 1.563096
6.837094 6.690708 -1.174577
7.952815 7.779816 1.762078
7.958641 7.785515 -0.974053
7.953079 7.777367 2.162248
7.937970 7.759874 -0.581767
7.972244 7.790658 2.573440
7.946070 7.762377 -0.193896
7.974956 7.787868 2.986772
3.989464 3.886364 -1.492351
7.975444 7.766628 0.194315
4.540966 4.420525 -1.463082
9.744767 9.482992 0.712606
5.217156 5.077007 -1.415040
9.722654 9.458180 1.186713
5.602363 5.448060 -1.237710
9.122412 8.868062 1.562121
6.860409 6.666799 -1.174577
8.002591 7.774033 1.767084
8.018636 7.789619 -0.978062
8.008350 7.776911 2.169880
8.000834 7.766899 -0.584383
8.035748 7.798069 2.585138
8.001825 7.762437 -0.194594
8.033987 7.790917 2.998677
3.991897 3.861670 -1.488210
8.032695 7.767931 0.195048
4.546560 4.395167 -1.459932
9.736157 9.408672 0.709571
5.240493 5.064223 -1.416566
9.721222 9.390960 1.182529
5.625610 5.432586 -1.238648
9.090469 8.775502 1.551397
6.875067 6.634542 -1.173114
8.066645 7.781707 1.775218
8.083062 7.797544 -0.982594
8.063710 7.776167 2.177512
8.046588 7.756945 -0.585744
8.088181 7.794311 2.593236
8.069200 7.773303 -0.195572
8.090354 7.790968 3.009548
4.008140 3.850387 -1.489245
8.090053 7.768929 0.195781
4.546410 4.364426 -1.454983
9.737046 9.347290 0.707373
5.243974 5.032305 -1.412750
9.719440 9.323863 1.178346
5.643110 5.411553 -1.238335
9.209895 8.828886 1.566509
6.871237 6.586978 -1.168727
8.120928 7.782250 1.781476
8.151950 7.809258 -0.987649
8.130509 7.785989 2.188198
8.108244 7.761955 -0.588256
8.140727 7.793051 2.601784
8.123821 7.774158 -0.196270
8.148255 7.794808 3.021454
4.026476 3.842410 -1.491315
8.146157 7.771043 0.196514
4.559448 4.347979 -1.454533
9.731856 9.280488 0.704756
5.263474 5.017598 -1.413513
9.724344 9.266838 1.175208
5.651013 5.383271 -1.236145
9.325373 8.880436 1.581133
6.898792 6.569633 -1.169702
8.168154 7.775705 1.786169
8.203784 7.806902 -0.990786
8.193267 7.794169 2.198120
8.161440 7.761173 -0.590245
8.207480 7.804955 2.614831
8.171299 7.767840 -0.196793
8.203465 7.795694 3.032324
4.016764 3.807771 -1.483033
8.202359 7.772878 0.197247
4.585159 4.343558 -1.458133
9.736640 9.220366 0.702767
5.265831 4.986615 -1.409697
9.714506 9.196190 1.170327
5.665964 5.361787 -1.235520
9.393708 8.886293 1.587714
6.918799 6.542783 -1.169215
8.231129 7.781077 1.793991
8.252791 7.801556 -0.993575
8.233339 7.780438 2.201936
8.229235 7.773841 -0.593280
8.261589 7.801685 2.623379
8.234718 7.773584 -0.197666
8.254515 7.789549 3.041124
4.034249 3.797702 -1.484586
8.255656 7.768863 0.197875
4.600294 4.327525 -1.458133
9.735295 9.154860 0.700360
5.291783 4.976277 -1.411987
9.732029 9.148580 1.168584
5.678888 5.336564 -1.234268
9.724158 9.134797 1.638168
6.938700 6.515874 -1.168727
8.291368 7.783391 1.801187
8.311934 7.802698 -0.997410
8.296240 7.785235 2.211476
8.286908 7.773766 -0.595479
8.312939 7.795458 2.631027
8.293901 7.774879 -0.198434
8.308436 7.785787 3.050959
4.040425 3.776999 -1.481998
8.319252 7.774129 0.198748
4.598282 4.295478 -1.452734
9.748089 9.106163 0.699104
5.311992 4.960454 -1.412750
9.728952 9.081921 1.164401
5.700370 5.319405 -1.234894
9.744375 9.089963 1.636218
6.958500 6.488904 -1.168240
8.344584 7.781448 1.807131
8.377009 7.808960 -1.001942
8.347776 7.778988 2.217964
8.343225 7.772017 -0.597572
8.384308 7.807564 2.644974
8.348903 7.774593 -0.199132
8.383698 7.804265 3.069076
4.057834 3.766814 -1.483551
8.375763 7.775070 0.199481
4.615357 4.282858 -1.453634
9.740283 9.035403 0.696278
5.337914 4.949889 -1.415040
9.775201 9.061457 1.166144
5.710733 5.293759 -1.233329
9.739522 9.025214 1.630368
6.959591 6.446909 -1.164827
8.412272 7.789858 1.815892
8.442234 7.814859 -1.006474
8.412429 7.787269 2.228267
8.414393 7.786361 -0.600817
8.434475 7.802212 2.652623
8.418569 7.784772 -0.200144
8.436427 7.798554 3.078394
4.071724 3.754646 -1.484068
8.424905 7.766118 0.200005
4.636012 4.272002 -1.455433
9.730635 8.963457 0.693347
5.336972 4.916197 -1.410460
9.301014 8.564716 1.106181
5.732085 5.276467 -1.233955
9.264089 8.524733 1.545791
6.973285 6.414515 -1.163365
8.468496 7.787186 1.822149
8.497433 7.813794 -1.009961
8.484369 7.799042 2.240098
8.476816 7.789377 -0.603329
8.493230 7.801726 2.662521
8.467788 7.775624 -0.200668
8.499174 7.801719 3.091335
4.084803 3.740413 -1.484068
8.497690 7.778516 0.201087
4.639394 4.245270 -1.451834
9.303534 8.510201 0.660794
5.354097 4.897542 -1.410460
9.277925 8.483794 1.099905
5.744638 5.251094 -1.232704
9.264479 8.465564 1.540916
6.998567 6.392810 -1.163852
8.527721 7.786880 1.829032
8.554084 7.810952 -1.013447
8.544889 7.799822 2.248875
8.533463 7.786663 -0.605422
8.549208 7.798295 2.671519
8.524428 7.772968 -0.201366
8.553485 7.796729 3.101170
4.077825 3.707935 -1.476822
8.548465 7.770329 0.201645
4.655628 4.230360 -1.452284
9.299181 8.446784 0.658386
5.368255 4.876181 -1.409697
9.288304 8.433947 1.097639
5.761469 5.229682 -1.232391
9.266039 8.407830 1.536285
7.020838 6.368343 -1.163852
8.585580 7.784932 1.835602
8.622622 7.818520 -1.018328
8.605519 7.800275 2.257652
8.603515 7.795717 -0.608458
8.619705 7.807656 2.685016
8.584119 7.772695 -0.202134
8.613592 7.796639 3.113076
4.107948 3.709215 -1.483033
8.617103 7.777956 0.202622
4.666027 4.210165 -1.450934
9.310810 8.398222 0.657130
5.382326 4.854784 -1.408934
9.292535 8.378789 1.094676
5.788494 5.217474 -1.234268
9.262884 8.346202 1.530923
7.037126 6.338481 -1.162877
8.652340 7.790601 1.844050
8.673554 7.809702 -1.021117
8.651662 7.787265 2.262613
8.652944 7.785678 -0.610028
8.681682 7.808794 2.695813
8.654319 7.781458 -0.203146
8.670925 7.793646 3.123946
4.112242 3.687114 -1.479927
8.676958 7.777194 0.203390
4.671985 4.186050 -1.448235
9.310316 8.339017 0.655037
5.390467 4.828106 -1.406644
9.295005 8.322380 1.091538
5.796367 5.188015 -1.232078
9.268294 8.292637 1.527023
7.053289 6.308586 -1.161902
8.716294 7.793269 1.851871
8.743711 7.815038 -1.025997
8.719780 7.793648 2.273299
8.709853 7.782042 -0.612121
8.742313 7.808300 2.706161
8.718722 7.784495 -0.204019
8.735549 7.796779 3.137405
4.127171 3.673302 -1.480445
8.738408 7.777439 0.204193
4.683658 4.167124 -1.447335
9.315492 8.285227 0.653362
5.411060 4.810927 -1.407407
9.209290 8.185015 1.077942
5.818297 5.169358 -1.232704
9.273442 8.239136 1.523123
7.057455 6.268110 -1.158978
8.767082 7.783778 1.856877
8.803724 7.813564 -1.029832
8.789405 7.798120 2.283984
8.768205 7.776570 -0.614215
8.795664 7.798181 2.713809
8.778763 7.783196 -0.204787
8.806083 7.804681 3.152934
4.132730 3.652476 -1.477857
8.813310 7.786404 0.205275
4.707663 4.157670 -1.450034
9.146661 8.075223 0.639441
5.421935 4.786810 -1.405881
9.191495 8.111952 1.072539
5.833343 5.146404 -1.232078
9.282733 8.186712 1.519711
7.074428 6.236948 -1.158003
8.829636 7.781634 1.864073
8.853364 7.802547 -1.032447
8.853402 7.799835 2.293524
8.843258 7.788158 -0.617564
8.855008 7.795763 2.723707
8.837252 7.777393 -0.205485
8.866545 7.800419 3.164322
4.139646 3.632931 -1.475786
8.862987 7.775372 0.205799
4.728009 4.146351 -1.451834
9.288933 8.143312 0.647396
5.444515 4.773033 -1.407407
9.291677 8.142850 1.080905
5.854245 5.128613 -1.232704
9.284371 8.130721 1.515324
7.099142 6.214833 -1.158490
8.902830 7.791091 1.873772
8.925529 7.810956 -1.037676
8.899786 7.785686 2.298485
8.898954 7.782225 -0.619553
8.932053 7.808412 2.739004
8.909520 7.785971 -0.206532
8.922812 7.794847 3.174675
4.161042 3.626073 -1.478892
8.935309 7.783789 0.206846
4.721876 4.111908 -1.445535
9.323328 8.116080 0.647815
5.449297 4.743685 -1.404354
9.300507 8.093362 1.078639
5.854223 5.092593 -1.228949
9.279744 8.069603 1.509961
7.123789 6.192616 -1.158978
8.964260 7.789775 1.880968
8.987323 7.809816 -1.041685
8.974336 7.795774 2.310697
8.948688 7.770755 -0.621123
9.000454 7.812960 2.751601
8.971381 7.784970 -0.207335
8.986451 7.795298 3.187616
4.176597 3.614053 -1.479927
8.997210 7.782643 0.207649
4.736202 4.095399 -1.445535
9.321384 8.057363 0.645721
5.462854 4.722065 -1.403591
9.307594 8.042612 1.076199
5.865986 5.066960 -1.227698
9.277807 8.011211 1.505087
7.133339 6.157337 -1.157028
9.033276 7.794568 1.889729
9.059787 7.817443 -1.046915
9.031227 7.790043 2.318329
9.006008 7.765557 -0.623217
9.051291 7.801850 2.758800
9.036375 7.786236 -0.208207
9.054589 7.799185 3.202109
4.191487 3.602703 -1.480963
9.066952 7.790559 0.208661
4.754193 4.083479 -1.446885
9.319378 8.004617 0.643837
5.466565 4.693694 -1.400538
9.306998 7.988347 1.073061
5.891753 5.055196 -1.229575
9.281720 7.961018 1.501430
7.135633 6.118144 -1.154103
9.093707 7.797011 1.897237
9.106841 7.805507 -1.049355
9.100244 7.797098 2.329396
9.074183 7.772030 -0.626147
9.106722 7.797138 2.767798
9.094209 7.786424 -0.208975
9.123078 7.808383 3.217638
4.183465 3.570493 -1.473716
9.136848 7.798094 0.209673
4.767707 4.067692 -1.446885
9.316869 7.946118 0.641744
5.482915 4.674584 -1.400538
9.296919 7.923500 1.068704
5.935544 5.058696 -1.235207
9.283894 7.909594 1.497531
7.158907 6.097020 -1.154590
9.165994 7.803635 1.906623
9.135550 7.774959 -1.049529
9.166420 7.801231 2.339700
9.142502 7.778131 -0.629078
9.190421 7.816134 2.785344
9.154853 7.783124 -0.209743
9.191497 7.811523 3.232132
4.189387 3.551605 -1.471645
9.194527 7.792007 0.210371
4.772954 4.043468 -1.444186
9.312540 7.886443 0.639545
5.510371 4.666528 -1.403591
9.298815 7.872026 1.065915
5.959197 5.043051 -1.236458
9.288708 7.857913 1.493875
7.174085 6.066864 -1.153615
9.244467 7.814953 1.917261
9.159585 7.740457 -1.049181
9.217582 7.789468 2.345806
9.210793 7.780968 -0.631904
9.250405 7.811665 2.795242
9.224744 7.787245 -0.210720
9.242332 7.799322 3.240415
4.217159 3.548663 -1.476822
9.249207 7.783041 0.211000
4.781076 4.021764 -1.442386
9.326257 7.842318 0.638603
5.506399 4.628613 -1.398248
9.298620 7.813540 1.062603
6.010918 5.049127 -1.243341
9.297843 7.810118 1.490950
7.189136 6.036681 -1.152640
9.317082 7.820734 1.926647
9.180447 7.703312 -1.048484
9.285180 7.788434 2.355728
9.265266 7.768974 -0.633684
9.313323 7.806502 2.805589
9.294784 7.790962 -0.211698
9.333171 7.820366 3.262673
4.217659 3.524012 -1.472680
9.339066 7.800364 0.212396
4.795783 4.004214 -1.442386
9.331936 7.788888 0.637033
5.525536 4.611881 -1.399012
9.342669 7.795073 1.064520
6.031539 5.030645 -1.243967
9.341651 7.788702 1.493387
7.199016 6.000122 -1.150690
9.394247 7.826997 1.936659
9.193502 7.659743 -1.046915
9.360583 7.796182 2.367940
9.332237 7.769809 -0.636405
9.368974 7.797633 2.814138
9.349412 7.778584 -0.212291
9.397420 7.815751 3.275096
4.226963 3.506800 -1.471645
9.401638 7.797078 0.213199
4.812733 3.989936 -1.443286
9.383674 7.776654 0.638708
5.532532 4.585047 -1.396722
9.411245 7.796734 1.069227
6.079493 5.034758 -1.250224
9.410069 7.790222 1.499968
7.219915 5.974957 -1.150690
9.470219 7.834448 1.946671
9.214046 7.622522 -1.046218
9.427078 7.795988 2.377862
9.402403 7.772820 -0.639336
9.439700 7.800880 2.827185
9.407338 7.771373 -0.212989
9.479758 7.828416 3.294249
4.239177 3.492025 -1.471645
9.475107 7.802350 0.214246
4.819108 3.966920 -1.441036
9.457211 7.784845 0.641953
5.557598 4.573193 -1.399012
9.472254 7.791683 1.073061
6.112288 5.026051 -1.253353
9.484742 7.796407 1.507524
7.234593 5.944675 -1.149715
9.532779 7.833097 1.954180
9.211346 7.566282 -1.042906
9.499750 7.800412 2.389310
9.475795 7.777965 -0.642476
9.513577 7.806200 2.841132
9.479437 7.778187 -0.214036
9.522095 7.810416 3.299943
4.237883 3.466197 -1.466986
9.538078 7.801268 0.215083
4.833744 3.952152 -1.441486
9.527631 7.787174 0.644884
5.561367 4.543827 -1.395959
9.539513 7.791341 1.077594
6.150337 5.023252 -1.257733
9.556676 7.802571 1.514836
7.251191 5.918143 -1.149228
9.615159 7.844735 1.965443
9.236156 7.532825 -1.042731
9.560561 7.797404 2.398088
9.541781 7.779315 -0.645198
9.580195 7.807851 2.853279
9.543736 7.775364 -0.214874
9.580759 7.802746 3.310813
4.261349 3.461871 -1.471128
9.607162 7.801965 0.216026
4.830868 3.921743 -1.436537
9.599730 7.790363 0.647919
5.573356 4.522884 -1.395195
9.611719 7.797318 1.082823
6.186247 5.016682 -1.261488
9.616240 7.795413 1.519955
7.277973 5.897797 -1.150203
9.679324 7.840964 1.972952
9.260847 7.499283 -1.042557
9.631968 7.799810 2.409154
9.603028 7.773609 -0.647501
9.664954 7.820946 2.870375
9.620572 7.782245 -0.215991
9.662013 7.812987 3.329448
4.277017 3.448653 -1.472163
9.677927 7.803525 0.217003
4.846047 3.906079 -1.436987
9.656410 7.780622 0.649908
5.602127 4.512280 -1.398248
9.686790 7.799519 1.088052
6.241525 5.023702 -1.268997
9.689779 7.799146 1.527267
7.267584 5.847466 -1.145328
9.758972 7.849219 1.983589
9.282305 7.463172 -1.042034
9.703336 7.798894 2.419840
9.675053 7.773383 -0.650431
9.723941 7.809878 2.879373
9.697564 7.788693 -0.217108
9.716345 7.800980 3.338766
4.284505 3.430079 -1.470610
9.756422 7.807987 0.218120
4.863373 3.890726 -1.437887
9.731860 7.785543 0.653153
5.596378 4.475529 -1.392906
9.751306 7.795519 1.092236
6.274455 5.014214 -1.272125
9.766384 7.801980 1.534823
7.295171 5.825746 -1.146303
9.821813 7.843461 1.990785
9.300516 7.424507 -1.041162
9.776539 7.801711 2.431288
9.758334 7.784404 -0.654200
9.789235 7.806259 2.890621
9.771599 7.792195 -0.218155
9.787326 7.801935 3.353777
4.284352 3.405489 -1.466469
9.812002 7.799234 0.218783
4.876249 3.874576 -1.437887
9.799639 7.783826 0.655874
5.608889 4.453529 -1.392143
9.815912 7.791159 1.096419
6.329730 5.024080 -1.279947
9.834188 7.802867 1.541404
7.305117 5.794122 -1.144841
9.897119 7.847171 2.000484
9.296711 7.368482 -1.037851
9.851590 7.808273 2.443500
9.821664 7.781771 -0.656712
9.862428 7.811260 2.904568
9.819122 7.774172 -0.218609
9.856911 7.801300 3.368271
4.294106 3.390064 -1.465951
9.886262 7.802099 0.219831
4.892802 3.859949 -1.438787
9.878709 7.793348 0.659433
5.635961 4.444629 -1.395195
9.888633 7.795571 1.101649
6.358086 5.010518 -1.282137
9.908144 7.805346 1.548716
7.334656 5.775954 -1.146303
9.322656 7.338850 -1.038025
9.909641 7.798121 2.451133
9.883306 7.774604 -0.659014
9.895151 7.781119 -0.219726
4.293751 3.365519 -1.461810
9.953002 7.801342 0.220738
4.899441 3.838893 -1.436987
9.943591 7.788372 0.661945
5.654534 4.427348 -1.395959
9.959714 7.795393 1.106529
6.398002 5.007668 -1.286830
9.960549 7.793244 1.552859
7.341262 5.741813 -1.144353
9.332519 7.293992 -1.036282
9.951529 7.774984 -0.661841
9.974261 7.787148 -0.220878
4.310985 3.356010 -1.463881
10.019622 7.797262 0.221611
4.902044 3.813390 -1.433838
10.002253 7.778134 0.664039
5.659884 4.401342 -1.393669
6.435721 5.001059 -1.290897
7.354988 5.711285 -1.143378
9.361380 7.266667 -1.036805
10.027528 7.778149 -0.665085
10.044059 7.785358 -0.221820
4.327258 3.344486 -1.465433
4.918411 3.798637 -1.434738
5.656564 4.367163 -1.389090
6.476601 4.996662 -1.295590
7.363873 5.677093 -1.141672
9.377221 7.226645 -1.035759
12.493106 9.620993 -0.826385
4.329711 3.322304 -1.462328
4.928547 3.779075 -1.433838
5.671775 4.347390 -1.389090
6.528502 5.000451 -1.302473
7.383646 5.651352 -1.141672
9.387817 7.180125 -1.034016
12.247365 9.363818 -0.807963
4.338784 3.304072 -1.461292
4.941708 3.761848 -1.433838
5.684546 4.324196 -1.388326
6.548357 4.977685 -1.302786
7.393844 5.618340 -1.140210
9.395368 7.134061 -1.032098
12.281601 9.318870 -0.807963
4.359538 3.295896 -1.464398
