# This PCD file was generated using the MATLAB® pcwrite function
# from Computer Vision Toolbox®.
# .PCD v.7 - Point Cloud Data file format
VERSION .7
FIELDS x y z
SIZE 4 4 4
TYPE F F F
COUNT 1 1 1
WIDTH 1668
HEIGHT 1
VIEWPOINT 0 0 0 1 0 0 0
POINTS 1668
DATA ascii
5.720583 -8.468354 2.738306
2.705453 -4.017045 -1.297719
3.042130 -4.520347 -1.257926
3.471648 -5.160519 -1.208966
3.910048 -5.816572 -1.110059
5.480519 -8.155872 1.206507
4.056744 -6.039349 -0.893302
5.390596 -8.025080 1.531181
4.331606 -6.450973 -0.679815
5.494783 -8.186354 1.916486
6.622296 -9.869894 -0.622903
5.670592 -8.454659 2.350289
6.620853 -9.871466 -0.207474
5.633970 -8.403228 2.710871
2.691414 -4.026464 -1.297719
3.024958 -4.527169 -1.257027
5.160594 -7.726293 0.486934
3.461245 -5.184036 -1.211637
5.769130 -8.643906 0.909209
3.875386 -5.806504 -1.105679
6.235655 -9.346435 1.379561
3.999247 -5.996618 -0.885015
5.480891 -8.221357 1.564971
4.327845 -6.494239 -0.682778
5.498089 -8.250274 1.927171
6.571814 -9.865204 -0.621228
6.526058 -9.800226 2.718308
6.568626 -9.867883 -0.206916
5.620656 -8.446968 2.718635
2.683388 -4.043415 -1.300307
3.015599 -4.547445 -1.259726
50.263294 -75.824478 4.767597
3.440781 -5.190576 -1.210492
5.163750 -7.792705 0.817869
3.839822 -5.796940 -1.101299
5.766809 -8.709394 1.282553
3.998012 -6.040338 -0.889403
5.336621 -8.065812 1.531806
5.735070 -8.671320 -0.909557
6.595599 -9.972425 2.324054
6.517511 -9.858095 -0.619344
5.690272 -8.610118 2.382682
6.516504 -9.864056 -0.206357
6.466216 -9.791649 3.144134
2.664301 -4.046769 -1.298236
2.995422 -4.551433 -1.257926
3.422812 -5.204792 -1.210874
3.807701 -5.794467 -1.098170
3.939848 -5.997845 -0.881115
5.366982 -8.173557 1.548701
5.756151 -8.769571 -0.917750
6.128199 -9.339946 2.171407
6.467095 -9.860205 -0.617983
5.686456 -8.673286 2.394379
6.455719 -9.846607 -0.205520
6.412936 -9.785077 3.134816
2.652272 -4.059279 -1.299272
5.521077 -8.453180 0.176234
2.993634 -4.585226 -1.264225
5.069312 -7.767416 0.486096
3.405696 -5.218353 -1.211256
3.778819 -5.794485 -1.095667
5.428988 -8.328049 1.220644
3.927592 -6.027213 -0.883309
5.341301 -8.199795 1.549953
5.829426 -8.952564 -0.934658
6.476934 -9.946977 2.307263
6.414115 -9.854263 -0.616204
5.690156 -8.745353 2.408776
6.407592 -9.851763 -0.205136
4.714326 -7.251110 2.317466
2.642630 -4.077078 -1.301860
2.967015 -4.579293 -1.259726
3.396150 -5.245632 -1.214690
3.731804 -5.768491 -1.088158
5.408510 -8.360283 1.222593
3.904373 -6.037552 -0.882822
5.134628 -7.943005 1.498017
5.895461 -9.123466 -0.950346
6.431911 -9.957456 2.304209
6.349786 -9.834081 -0.613482
5.890558 -9.126358 2.507754
6.349307 -9.837107 -0.204368
6.311332 -9.782018 3.119287
2.633660 -4.089774 -1.303413
2.952614 -4.588591 -1.259726
4.993915 -7.763910 0.483794
3.384962 -5.264533 -1.216598
3.714673 -5.779538 -1.088158
5.326422 -8.290387 1.209919
3.885387 -6.049788 -0.882822
5.220635 -8.131976 1.530555
5.879682 -9.162064 -0.952438
6.396357 -9.971004 2.302683
6.308078 -9.837168 -0.612435
6.256876 -9.757319 2.676018
6.307580 -9.840169 -0.204019
6.259725 -9.769265 3.108935
2.616572 -4.096143 -1.302377
2.944164 -4.612523 -1.263325
4.939642 -7.741752 0.481281
3.360365 -5.268627 -1.214690
5.509087 -8.637549 0.896310
3.667978 -5.753139 -1.080649
5.323740 -8.353378 1.216256
3.915449 -6.146025 -0.894765
4.246526 -6.670848 -0.691842
5.729483 -9.003887 2.074476
6.254830 -9.833259 -0.610761
5.601892 -8.806771 2.409676
6.251085 -9.831159 -0.203355
6.209368 -9.769316 3.101687
2.602575 -4.107338 -1.302895
2.930365 -4.628222 -1.264675
5.253034 -8.299852 0.514777
3.340904 -5.278666 -1.214309
5.439044 -8.597070 0.890034
3.638420 -5.753188 -1.078146
5.492506 -8.688284 1.262079
3.909864 -6.187184 -0.898665
5.407748 -8.560824 1.603766
4.192358 -6.636782 -0.686787
5.477896 -8.675229 1.994336
6.208742 -9.836453 -0.609609
6.172705 -9.783144 2.670619
6.197941 -9.826943 -0.202797
5.318377 -8.435639 2.672048
2.589250 -4.118033 -1.303413
29.979263 -47.698524 0.983373
2.917302 -4.643373 -1.266025
5.056198 -8.050902 0.498238
3.328722 -5.300271 -1.216598
4.932296 -7.856660 0.811594
3.612015 -5.755814 -1.076269
5.474803 -8.727583 1.265004
3.754311 -5.987206 -0.867710
5.642212 -9.001434 1.682609
4.151177 -6.622676 -0.683824
4.367654 -6.970744 1.598979
6.153165 -9.824214 -0.607516
6.119904 -9.774899 2.662521
6.143445 -9.816311 -0.202134
5.222301 -8.347697 2.638402
2.577928 -4.131963 -1.304966
2.901076 -4.653529 -1.266025
3.313316 -5.316857 -1.217743
4.942766 -7.934711 0.817869
3.571018 -5.734850 -1.070012
5.446402 -8.750011 1.265491
3.694574 -5.935581 -0.858448
5.666597 -9.107311 1.698879
4.199588 -6.752172 -0.695677
5.417199 -8.713260 1.994336
6.099858 -9.815097 -0.605632
6.062768 -9.755417 2.651723
6.098197 -9.816245 -0.201715
5.233317 -8.427333 2.658072
2.569297 -4.148701 -1.307554
4.802852 -7.758295 0.159271
2.881527 -4.656495 -1.264225
3.295666 -5.327815 -1.217743
3.539519 -5.726497 -1.066257
5.398576 -8.737626 1.261104
3.668611 -5.937668 -0.856985
5.746393 -9.304203 1.732043
5.751334 -9.315837 -0.957842
5.419206 -8.781297 2.005784
6.046303 -9.801275 -0.603538
6.007875 -9.738981 2.641825
6.053016 -9.815989 -0.201296
2.555525 -4.157198 -1.307554
2.872189 -4.675988 -1.266924
5.296317 -8.625898 0.530477
3.276953 -5.337041 -1.217361
3.512245 -5.724732 -1.063754
5.377873 -8.769018 1.263054
3.617774 -5.901359 -0.849917
5.711815 -9.320838 1.731417
4.154713 -6.779877 -0.695677
6.001252 -9.800832 -0.602282
5.959600 -9.736623 2.635527
5.994712 -9.797827 -0.200493
5.954980 -9.736708 3.058206
2.536975 -4.159496 -1.305483
2.857877 -4.689313 -1.267824
5.141483 -8.439653 0.517917
3.263410 -5.356831 -1.219270
3.488132 -5.730209 -1.062503
4.666186 -7.668497 1.102186
3.599216 -5.917343 -0.850404
5.716190 -9.401481 1.742680
5.727123 -9.419461 -0.964465
5.218596 -8.586458 1.953121
5.957672 -9.806357 -0.601340
5.913439 -9.737379 2.630128
5.949059 -9.799889 -0.200109
5.542127 -9.133143 2.862539
2.524441 -4.171632 -1.306519
2.846532 -4.707598 -1.270074
4.998346 -8.269526 0.506403
3.249770 -5.376590 -1.221178
4.659137 -7.711360 0.788237
3.453812 -5.718677 -1.058123
4.559366 -7.552183 1.083175
3.577513 -5.928171 -0.850161
5.697623 -9.445058 1.747060
5.727139 -9.493988 -0.970043
5.910001 -9.804857 -0.599979
5.855276 -9.717901 2.619330
5.899340 -9.794901 -0.199586
5.847004 -9.711841 3.037501
2.515830 -4.190357 -1.309624
2.825071 -4.709150 -1.267824
5.123525 -8.543857 0.522104
3.234011 -5.392952 -1.222322
4.204004 -7.013263 0.715374
3.419615 -5.706975 -1.053743
4.593157 -7.668529 1.097555
3.586369 -5.990015 -0.857229
5.161458 -8.624167 1.591877
5.634620 -9.414765 -0.959933
5.854213 -9.789431 -0.597781
5.801320 -9.704826 2.610332
5.851778 -9.793118 -0.199132
5.458419 -9.138441 2.852186
2.502176 -4.200772 -1.310142
2.815592 -4.730705 -1.270973
5.124306 -8.613183 0.525244
3.211151 -5.397460 -1.220796
4.208013 -7.075844 0.720255
3.379484 -5.684916 -1.047485
4.682979 -7.880765 1.125585
3.581659 -6.029804 -0.861129
5.663819 -9.538957 1.757072
5.590924 -9.419932 -0.958364
5.298740 -8.927643 2.017996
5.799623 -9.775452 -0.595688
5.685897 -9.587575 2.573440
5.804301 -9.791123 -0.198678
5.430426 -9.164087 2.854257
2.492657 -4.219895 -1.313248
2.801043 -4.743861 -1.271873
4.606919 -7.805411 0.475001
3.196335 -5.417647 -1.222704
4.815633 -8.165543 0.829374
3.350600 -5.683652 -1.044982
4.745162 -8.049260 1.147278
3.563613 -6.047400 -0.861860
4.026473 -6.838323 -0.694283
5.750591 -9.774263 -0.594327
5.709993 -9.709137 2.600434
5.749816 -9.776850 -0.197980
5.692114 -9.682605 3.009548
2.474983 -4.223570 -1.311695
2.786592 -4.759140 -1.273223
4.565164 -7.799837 0.473640
3.174429 -5.423689 -1.221559
5.048690 -8.629423 0.874695
3.324756 -5.685082 -1.043105
4.311890 -7.375959 1.049051
3.540422 -6.058707 -0.861616
5.471764 -9.367555 -0.949126
5.700329 -9.766678 -0.592652
5.666247 -9.712177 2.595935
5.701852 -9.777129 -0.197561
5.646859 -9.686712 3.004372
2.454399 -4.222163 -1.308589
2.773877 -4.775578 -1.275023
3.163364 -5.448318 -1.224612
3.300927 -5.689818 -1.041854
4.308025 -7.428745 1.054414
3.487395 -6.016071 -0.853817
5.487978 -9.471069 -0.957667
6.189362 -10.685803 2.400377
5.658195 -9.772690 -0.591815
5.620596 -9.711658 2.590536
5.653672 -9.772740 -0.197073
5.611077 -9.703020 3.003336
2.450261 -4.249113 -1.314283
2.751353 -4.775101 -1.272323
3.148246 -5.466133 -1.226139
4.664252 -8.101563 0.817869
3.265280 -5.673912 -1.036848
4.291965 -7.460945 1.056851
3.449552 -5.998953 -0.849673
5.522401 -9.607628 -0.969520
5.603159 -9.756010 -0.589617
5.567257 -9.697417 2.581538
5.605589 -9.768134 -0.196584
5.563716 -9.699087 2.996089
2.435414 -4.257640 -1.314283
2.738536 -4.791443 -1.274123
33.248272 -58.195984 3.512580
3.131094 -5.480499 -1.226902
5.092424 -8.917117 0.898401
3.233703 -5.664689 -1.033093
4.336732 -7.600018 1.074400
3.475800 -6.093725 -0.861373
5.422712 -9.510881 -0.957842
5.558196 -9.756419 -0.588466
5.512157 -9.679536 2.571640
5.559587 -9.766788 -0.196165
5.514540 -9.691584 2.987807
2.418631 -4.262755 -1.313248
2.725639 -4.807755 -1.275922
3.108073 -5.484563 -1.225375
4.913965 -8.674803 0.872255
3.210016 -5.669066 -1.031842
4.320933 -7.634113 1.077081
3.502405 -6.190480 -0.873316
5.460096 -9.654619 -0.970392
5.513297 -9.756634 -0.587314
5.459168 -9.664783 2.562642
5.508482 -9.752088 -0.195502
5.467174 -9.682901 2.979525
2.402789 -4.269488 -1.312730
4.771328 -8.478119 0.169812
2.715413 -4.826958 -1.278622
3.090832 -5.498801 -1.226139
4.147789 -7.382211 0.740824
3.183459 -5.665903 -1.029339
4.214911 -7.504744 1.056851
3.502264 -6.238410 -0.878434
6.430588 -11.459170 2.081204
4.806429 -8.568460 -0.859530
5.467237 -9.750475 -0.585849
5.427088 -9.682833 2.562642
5.462679 -9.750322 -0.195083
5.401247 -9.644619 2.961925
2.390501 -4.280806 -1.313766
6.219284 -11.141794 0.222728
2.695698 -4.831302 -1.277272
3.074494 -5.512449 -1.226902
5.019736 -9.003886 0.901888
3.144430 -5.642470 -1.023082
4.275632 -7.675487 1.078787
3.515233 -6.313034 -0.887209
6.413605 -11.522972 2.088713
3.870065 -6.953133 -0.696200
5.416665 -9.739826 -0.584069
5.368637 -9.657434 2.550945
5.424725 -9.762339 -0.194943
5.350663 -9.633016 2.952608
2.380224 -4.297575 -1.316354
6.166794 -11.138943 0.222239
2.679761 -4.842387 -1.277722
3.060935 -5.533456 -1.229192
4.099371 -7.413761 0.741172
3.118981 -5.643039 -1.021204
3.427918 -6.207102 -0.870635
3.851547 -6.977065 -0.697246
5.367200 -9.730691 -0.582395
5.327367 -9.662461 2.547346
5.384824 -9.770708 -0.194734
5.311411 -9.641482 2.949502
2.370789 -4.316016 -1.319459
6.133648 -11.170918 0.222448
2.662842 -4.851711 -1.277722
3.040657 -5.542386 -1.228810
4.136696 -7.543323 0.752677
3.085971 -5.629641 -1.016824
3.356644 -6.128495 -0.857960
5.680351 -10.375373 1.873459
3.587784 -6.555937 -0.653842
5.320740 -9.726589 -0.581034
5.276778 -9.650223 2.539248
5.350685 -9.789445 -0.194734
5.266610 -9.639620 2.943290
2.354030 -4.322980 -1.318942
5.363991 -9.850524 0.195781
2.647754 -4.864400 -1.278622
5.362612 -9.856179 0.588047
3.019384 -5.551768 -1.228428
3.880637 -7.138327 0.710842
3.055885 -5.623557 -1.013695
4.242412 -7.807050 1.090974
3.378816 -6.220416 -0.869172
5.689342 -10.478466 1.888477
3.755904 -6.920394 -0.688879
5.271726 -9.721445 -0.579568
5.226514 -9.642086 2.532049
5.320293 -9.815094 -0.194874
5.223725 -9.640959 2.938114
2.330664 -4.315872 -1.314283
6.380313 -11.819858 0.234456
2.632683 -4.879217 -1.279971
5.330244 -9.882801 0.588466
3.003715 -5.569185 -1.229955
4.910859 -9.109025 0.905374
3.034362 -5.630713 -1.013070
4.189292 -7.777107 1.084637
3.334349 -6.192558 -0.863566
5.300760 -9.848698 1.771464
3.751281 -6.972714 -0.692714
5.286986 -9.827215 2.169117
5.231137 -9.727474 -0.578836
5.187288 -9.649973 2.529350
5.280497 -9.827482 -0.194734
5.179214 -9.643022 2.932938
2.316653 -4.327792 -1.315318
6.010598 -11.228534 0.222309
2.621151 -4.898686 -1.282671
6.297962 -11.775241 0.699836
2.984208 -5.581889 -1.230337
4.894343 -9.158592 0.908511
3.002535 -5.620887 -1.009315
4.158379 -7.784679 1.083662
3.239783 -6.067573 -0.844555
5.651420 -10.588616 1.900992
3.763495 -7.054323 -0.699512
5.256474 -9.856920 2.171407
5.186054 -9.728957 -0.577789
5.139972 -9.646563 2.523501
5.238637 -9.831737 -0.194455
5.136440 -9.643990 2.927761
2.305913 -4.342275 -1.317389
2.602209 -4.904363 -1.281771
6.185862 -11.658446 0.691672
2.969361 -5.598692 -1.231863
3.751545 -7.076474 0.700732
2.972780 -5.609868 -1.005561
4.928425 -9.304247 1.292790
3.270749 -6.174764 -0.857960
5.605184 -10.586349 1.897237
5.132290 -9.705492 -0.575382
5.095066 -9.635099 2.516303
5.200398 -9.838447 -0.194245
5.084578 -9.623391 2.916373
2.300505 -4.366990 -1.322565
6.170682 -11.718608 0.231175
2.585932 -4.912965 -1.281771
6.625321 -12.587332 0.745473
2.947122 -5.601558 -1.230337
4.156508 -7.903568 0.781264
2.948645 -5.609204 -1.003684
4.771965 -9.081550 1.259642
3.247485 -6.180304 -0.857229
5.562699 -10.590889 1.894735
3.572147 -6.803936 -0.672319
5.555906 -10.586929 2.324054
5.081521 -9.687084 -0.573288
5.050413 -9.627782 2.510004
5.156602 -9.834386 -0.193826
5.049049 -9.633356 2.914303
2.287800 -4.378019 -1.323601
6.576187 -12.589787 0.247929
2.571429 -4.924968 -1.282671
6.296725 -12.065029 0.713234
2.922172 -5.599117 -1.227665
2.924549 -5.608442 -1.001806
4.773937 -9.158936 1.268173
3.235064 -6.209208 -0.859666
3.629333 -6.971885 -0.687659
5.043838 -9.693252 -0.572660
5.005983 -9.624606 2.504605
5.107483 -9.823938 -0.193268
5.002920 -9.626924 2.907056
2.266408 -4.376082 -1.320495
6.524843 -12.598461 0.247650
2.556014 -4.937376 -1.283571
5.935142 -11.469640 0.676809
2.894415 -5.595839 -1.224612
4.024365 -7.783727 0.766622
2.900345 -5.612104 -1.000555
4.764723 -9.219632 1.274266
3.113152 -6.026458 -0.832855
5.543005 -10.734777 1.913507
3.753926 -7.273098 -0.716072
5.003700 -9.702797 -0.572137
4.958174 -9.618640 2.498307
5.065830 -9.827487 -0.192989
4.949819 -9.606548 2.895668
2.253766 -4.389122 -1.322048
2.541458 -4.953646 -1.285370
6.055292 -11.807657 0.695440
2.868593 -5.593680 -1.221941
4.002624 -7.808365 0.767668
2.862722 -5.587033 -0.994298
3.155270 -6.163285 -0.850161
3.674619 -7.183927 -0.705962
6.279777 -12.277040 2.680485
4.957071 -9.695308 -0.570671
4.913926 -9.615066 2.492908
5.015221 -9.817496 -0.192430
4.893492 -9.583332 2.883244
2.235912 -4.393909 -1.321012
2.522385 -4.959013 -1.284470
5.554204 -10.924297 0.642267
2.844514 -5.597155 -1.220414
3.975782 -7.826535 0.768016
2.840436 -5.593965 -0.993672
4.736373 -9.327831 1.284503
2.998073 -5.906970 -0.813356
3.643213 -7.184271 -0.704741
6.218759 -12.268455 2.673616
4.901643 -9.674217 -0.568369
4.868087 -9.612148 2.487509
4.979115 -9.831374 -0.192360
4.853029 -9.586566 2.879103
2.223171 -4.406862 -1.322565
2.505069 -4.969965 -1.284920
5.584360 -11.079165 0.650222
2.816126 -5.589518 -1.216598
3.935892 -7.815454 0.765576
2.812010 -5.586202 -0.990543
4.686094 -9.313209 1.280116
3.030079 -6.022021 -0.827737
5.327221 -10.592000 1.877840
3.617218 -7.195165 -0.704567
6.248180 -12.433933 2.704908
4.857983 -9.671635 -0.567217
4.822190 -9.600377 2.480310
4.928615 -9.816527 -0.191732
4.820403 -9.605175 2.879621
2.222375 -4.441853 -1.330848
2.492060 -4.985218 -1.286720
5.572594 -11.147644 0.653153
2.787044 -5.577750 -1.212019
4.486833 -8.983482 0.878530
2.788177 -5.584892 -0.988666
5.495457 -11.012551 1.511180
2.960456 -5.932569 -0.814087
5.336154 -10.697991 1.893483
3.591559 -7.203554 -0.704218
5.993244 -12.025844 2.611794
4.816978 -9.669814 -0.566170
4.778162 -9.591894 2.474012
4.885340 -9.811337 -0.191313
4.778194 -9.600353 2.873409
2.195612 -4.424971 -1.323601
5.801080 -11.696449 0.227894
2.479842 -5.002184 -1.288970
4.176839 -8.428960 0.493005
2.761559 -5.572889 -1.208966
5.512906 -11.130054 1.086658
2.766135 -5.587026 -0.987414
5.622674 -11.361636 1.556515
2.962613 -5.989128 -0.820424
3.555800 -7.194613 -0.702127
5.922018 -11.982290 2.598055
4.777809 -9.671409 -0.565333
4.736887 -9.592789 2.469963
4.836900 -9.799640 -0.190755
4.729270 -9.585790 2.864092
2.179379 -4.432989 -1.323601
5.754923 -11.705860 0.227684
2.463226 -5.012558 -1.289419
5.466455 -11.128911 0.649803
2.734192 -5.568875 -1.205913
5.549321 -11.307582 1.101997
2.733459 -5.572298 -0.983034
5.616202 -11.448918 1.565777
2.982764 -6.083204 -0.831880
5.420456 -11.069415 2.395798
4.734426 -9.672710 -0.564391
4.691418 -9.589080 2.464564
4.804422 -9.820056 -0.190825
4.686444 -9.583149 2.858398
2.167277 -4.447515 -1.325671
2.441425 -5.014545 -1.287620
5.453598 -11.206340 0.653153
2.713019 -5.574855 -1.205150
2.710537 -5.574700 -0.981783
5.589820 -11.501562 1.570165
2.972593 -6.119092 -0.835293
4.350481 -8.959460 1.577485
4.208671 -8.667416 -0.842970
5.392070 -11.109464 2.400377
4.682327 -9.651442 -0.562193
4.647714 -9.584356 2.459165
4.749208 -9.798010 -0.190057
4.642864 -9.582876 2.853221
2.156780 -4.465491 -1.328777
2.424753 -5.024791 -1.288070
2.685866 -5.568376 -1.201715
2.679055 -5.559214 -0.977403
5.592713 -11.610426 1.582352
2.976188 -6.181301 -0.842361
5.270051 -10.950355 1.924770
4.060884 -8.437893 -0.819264
5.383897 -11.191908 2.414115
4.641684 -9.653328 -0.561356
4.599879 -9.570663 2.451517
4.699391 -9.782084 -0.189428
4.597679 -9.574644 2.845974
2.144516 -4.479962 -1.330848
5.386579 -11.257782 0.217841
2.411403 -5.042015 -1.290319
2.654558 -5.552920 -1.196373
2.649417 -5.547142 -0.973648
5.023619 -10.522781 1.431721
2.919542 -6.118197 -0.832368
4.010819 -8.408857 -0.815080
5.711480 -11.979748 2.579738
4.597649 -9.647836 -0.560099
4.555549 -9.563790 2.445668
4.654887 -9.772339 -0.188940
4.557598 -9.572395 2.840798
2.126381 -4.482184 -1.329295
8.100538 -17.075073 0.329885
2.396339 -5.053505 -1.291219
5.086415 -10.731295 0.622379
2.627593 -5.546185 -1.192938
8.068445 -17.038126 1.649335
2.627626 -5.548755 -0.972397
5.049845 -10.668569 1.449270
2.836413 -5.995060 -0.814331
8.044751 -17.011112 2.980390
3.915880 -8.284108 -0.801659
5.693537 -12.044770 2.589660
4.555391 -9.641358 -0.558843
4.514654 -9.559462 2.440719
4.612211 -9.770445 -0.188591
4.513440 -9.565534 2.834069
2.111506 -4.489211 -1.329295
8.030677 -17.081528 0.329467
2.381999 -5.068894 -1.293019
8.008993 -17.050861 0.987266
2.608353 -5.553091 -1.192556
4.987327 -10.622659 1.026695
2.606562 -5.554317 -0.971771
3.705900 -7.900476 1.071475
2.809571 -5.992343 -0.812625
3.833694 -8.184059 -0.790677
5.731408 -12.235246 2.626295
4.511546 -9.635495 -0.557587
4.477129 -9.566337 2.438469
4.566216 -9.761127 -0.188102
4.466930 -9.553230 2.825786
2.097485 -4.502173 -1.330848
5.401263 -11.593611 0.223251
2.361823 -5.071878 -1.291669
5.002946 -10.748436 0.621333
2.578872 -5.543032 -1.188358
4.943318 -10.630028 1.025649
2.572865 -5.535172 -0.966765
4.928385 -10.602755 1.435621
2.807873 -6.043521 -0.818231
3.261516 -7.026336 -0.677723
5.415502 -11.672034 2.501124
4.461075 -9.619351 -0.555703
4.431381 -9.559697 2.432621
4.525386 -9.762491 -0.187823
4.422185 -9.544224 2.818539
2.083376 -4.512976 -1.331883
5.272439 -11.426310 0.219656
2.343218 -5.080501 -1.291669
5.082504 -11.019745 0.635987
2.556220 -5.544869 -1.186832
4.937866 -10.715981 1.032273
2.553528 -5.544120 -0.966765
5.392552 -11.713476 1.583327
2.731766 -5.936555 -0.802388
5.152730 -11.197692 1.952302
3.235305 -7.034056 -0.677374
5.389489 -11.722976 2.507994
4.420797 -9.620347 -0.554866
4.389851 -9.557400 2.428122
4.486273 -9.767326 -0.187613
4.379171 -9.538534 2.812328
2.072432 -4.530761 -1.334989
5.331840 -11.656494 0.223740
2.332030 -5.100649 -1.294818
5.150268 -11.269938 0.649385
2.522167 -5.521615 -1.179963
4.890501 -10.711403 1.030181
2.530206 -5.541775 -0.964888
5.759161 -12.619810 1.703246
2.660987 -5.833605 -0.787276
5.287344 -11.596652 2.018631
3.223952 -7.074316 -0.680163
5.347327 -11.733637 2.506467
4.382247 -9.620414 -0.554029
4.344406 -9.541753 2.420473
4.437243 -9.750165 -0.186985
4.337049 -9.534421 2.806634
2.054205 -4.530571 -1.332918
5.219304 -11.516576 0.220703
2.313407 -5.106983 -1.294368
4.946136 -10.923959 0.628450
2.505462 -5.533524 -1.180726
4.838524 -10.691257 1.026695
2.509219 -5.546974 -0.964262
5.270169 -11.655854 1.570652
2.641425 -5.844667 -0.787520
5.271229 -11.669045 2.028017
5.485692 -12.149460 2.591186
4.340424 -9.617448 -0.552982
4.305463 -9.544425 2.417324
4.388386 -9.732781 -0.186357
4.293423 -9.526605 2.799905
2.037585 -4.538069 -1.332918
5.265895 -11.728094 0.224403
2.301950 -5.129251 -1.297968
4.903069 -10.930223 0.627822
2.480344 -5.531922 -1.178436
4.815602 -10.745284 1.030181
2.526019 -5.639061 -0.978654
5.260289 -11.743021 1.579914
2.621819 -5.855663 -0.787763
3.815565 -8.529802 -0.817521
5.200722 -11.631804 2.476701
4.295366 -9.611410 -0.551726
4.254556 -9.524556 2.408326
4.342968 -9.722479 -0.185868
4.252267 -9.523892 2.794728
2.024088 -4.550450 -1.334471
5.248870 -11.805787 0.225520
2.277595 -5.125187 -1.294818
4.903817 -11.034880 0.632846
2.459425 -5.536958 -1.177673
5.221108 -11.759928 1.125704
2.570419 -5.792290 -1.003684
5.151211 -11.613425 1.559928
2.766883 -6.240884 -0.838217
5.186433 -11.698337 2.026765
3.846308 -8.679686 -0.830594
5.557628 -12.547413 2.667510
4.248853 -9.597123 -0.550051
4.213398 -9.521527 2.403827
4.299294 -9.715635 -0.185449
4.212744 -9.524545 2.790587
2.012865 -4.568095 -1.337577
2.262158 -5.136279 -1.295718
5.209683 -11.834303 0.677646
2.433757 -5.531133 -1.174620
5.212111 -11.851032 1.132676
2.551197 -5.800782 -1.003684
4.523118 -10.289308 1.380049
2.755754 -6.271834 -0.841142
5.596737 -12.743678 2.204475
3.770339 -8.589070 -0.820658
5.288722 -12.048042 2.557604
4.209783 -9.594700 -0.549109
4.173973 -9.517601 2.399328
4.257324 -9.712270 -0.185100
4.174821 -9.528575 2.787481
1.997706 -4.574744 -1.337577
2.247331 -5.151289 -1.297518
5.064989 -11.609870 0.663829
2.409124 -5.524776 -1.171567
2.534088 -5.816896 -1.004935
4.476078 -10.279553 1.376636
2.702158 -6.208608 -0.831393
5.543412 -12.736809 2.200095
3.728324 -8.570467 -0.817695
5.216885 -11.998014 2.543103
4.169895 -9.594684 -0.548272
4.136067 -9.521388 2.396628
4.220314 -9.715329 -0.184891
4.138583 -9.531734 2.784375
1.981725 -4.581689 -1.337577
2.237197 -5.174811 -1.301567
5.086228 -11.770484 0.671994
2.383596 -5.518733 -1.168514
7.411911 -17.169010 1.636088
2.511653 -5.818014 -1.003684
5.006649 -11.603004 1.551641
2.710642 -6.284978 -0.840411
3.725191 -8.645641 -0.823622
5.116475 -11.874613 2.513336
4.130157 -9.590115 -0.547225
4.101388 -9.527892 2.394829
4.176891 -9.707959 -0.184472
4.091548 -9.514178 2.775058
1.968002 -4.593906 -1.339130
2.219748 -5.186560 -1.302467
5.013677 -11.714721 0.667807
2.359685 -5.516190 -1.166225
2.684470 -6.287569 -0.839436
3.775536 -8.847339 -0.841576
4.091063 -9.596001 -0.546701
4.058035 -9.523141 2.389880
4.141411 -9.718801 -0.184402
4.049229 -9.507073 2.768846
1.951954 -4.600748 -1.339130
2.194929 -5.175951 -1.297968
5.276731 -12.449320 0.708629
2.335820 -5.513547 -1.163935
5.003160 -11.815358 1.122566
2.924656 -6.906807 -1.187963
4.897669 -11.571863 1.542866
2.596318 -6.137380 -0.818231
3.642250 -8.618216 -0.818567
5.007464 -11.848558 2.500361
4.043675 -9.572718 -0.544608
4.016579 -9.513206 2.384031
4.107461 -9.733198 -0.184402
4.013016 -9.514030 2.766776
1.938933 -4.612539 -1.340683
2.180620 -5.192565 -1.300217
4.579282 -10.909666 0.620076
2.313725 -5.512211 -1.162027
4.971658 -11.850256 1.124309
2.903583 -6.924261 -1.189215
4.401447 -10.501400 1.398085
2.972195 -7.094822 -0.944488
3.611375 -8.629039 -0.818392
4.994876 -11.934784 2.514863
4.004069 -9.572035 -0.543771
3.973575 -9.503796 2.378183
4.070376 -9.740096 -0.184263
3.973078 -9.511937 2.762117
1.923498 -4.623181 -1.341718
5.017565 -12.059858 0.227998
2.170713 -5.219938 -1.305166
4.683754 -11.268621 0.639545
2.284468 -5.498898 -1.157447
2.879700 -6.938505 -1.189841
4.959822 -11.950461 1.588689
3.485931 -8.403335 -1.117054
3.578944 -8.636071 -0.817869
3.961319 -9.568193 -0.542724
3.931264 -9.500290 2.373683
4.024118 -9.724681 -0.183704
3.929515 -9.500755 2.754870
1.905877 -4.626295 -1.340683
7.173718 -17.421997 0.328873
2.150083 -5.224255 -1.304266
5.149116 -12.511282 0.709048
2.257791 -5.488683 -1.153631
2.417720 -5.883307 -1.007438
4.866209 -11.847368 1.572602
3.464154 -8.438091 -1.119979
3.594158 -8.759106 -0.828328
3.921835 -9.567178 -0.541887
3.889951 -9.494119 2.368735
3.979534 -9.712763 -0.183215
3.877293 -9.467932 2.741411
1.891176 -4.636497 -1.341718
5.183991 -12.709321 0.239587
2.138632 -5.245792 -1.307865
5.477728 -13.442881 0.760756
2.241580 -5.503803 -1.155158
2.380322 -5.847383 -0.999929
4.756571 -11.690601 1.549691
3.439146 -8.456888 -1.120954
3.573310 -8.795595 -0.830594
4.896226 -12.051915 2.528601
3.885579 -9.569028 -0.541259
3.853317 -9.494326 2.365585
3.951620 -9.741419 -0.183495
3.834783 -9.458136 2.734682
1.876514 -4.644535 -1.342236
7.028006 -17.403673 0.327617
2.119579 -5.251419 -1.307415
2.223316 -5.511207 -1.155158
4.239461 -10.514164 0.991832
2.360635 -5.857488 -1.000242
4.708317 -11.688721 1.547253
3.428880 -8.516719 -1.127291
3.544072 -8.811711 -0.830943
3.841724 -9.556588 -0.539793
3.816519 -9.498677 2.363336
3.801025 -9.469670 2.734164
1.863781 -4.662144 -1.345341
2.099788 -5.255166 -1.306516
4.884484 -12.230649 0.690207
2.194368 -5.497437 -1.150578
2.344272 -5.878945 -1.002432
2.497351 -6.266012 -0.828224
1.533702 -3.852067 -0.362742
3.767281 -9.476384 2.354338
1.507753 -3.792668 -0.071241
3.762239 -9.468518 2.730023
1.848207 -4.670417 -1.345859
1.480537 -3.743227 0.070263
2.083380 -5.270076 -1.308315
3.772470 -9.547640 0.538014
2.170836 -5.494109 -1.148289
5.114033 -12.949576 1.218089
2.342593 -5.934865 -1.010567
2.434318 -6.173554 -0.814819
4.890467 -12.408818 2.112491
1.582343 -4.014956 -0.377559
1.486761 -3.776295 -0.212693
3.727758 -9.473157 2.350289
1.496038 -3.803752 -0.071345
3.724684 -9.475052 2.727953
1.829074 -4.669645 -1.343789
1.457985 -3.724165 0.069810
2.066391 -5.280946 -1.309215
3.732572 -9.544008 0.537072
2.144494 -5.483368 -1.144472
3.731240 -9.545513 0.896658
2.321143 -5.941165 -1.010254
3.727251 -9.545134 1.258179
2.445953 -6.267078 -0.826030
3.720051 -9.536517 1.621287
3.724094 -9.551805 1.992809
1.469219 -3.770296 -0.212065
3.691837 -9.478848 2.348489
1.470419 -3.777272 -0.070752
3.677577 -9.451989 2.717600
1.505515 -3.883459 -1.116028
1.423302 -3.673294 0.068762
2.056389 -5.309934 -1.314614
3.695631 -9.547667 0.536548
2.125341 -5.490821 -1.144472
3.692145 -9.543612 0.895264
2.312502 -5.980554 -1.015573
3.688186 -9.543272 1.256229
2.392590 -6.194102 -0.815306
3.685317 -9.545759 1.620661
1.476776 -3.825166 -0.358733
3.673766 -9.520788 1.983650
1.444550 -3.745585 -0.210391
3.654522 -9.480766 2.345790
1.457224 -3.782382 -0.070752
3.640396 -9.453951 2.714494
1.488489 -3.879672 -1.113440
1.402595 -3.657701 0.068379
1.474332 -3.846785 -0.951093
1.450337 -3.786156 0.212484
2.104756 -5.494540 -1.143709
3.648125 -9.528533 0.892649
2.273257 -5.940621 -1.007438
3.644922 -9.530131 1.252817
1.472188 -3.851246 -0.506245
3.644924 -9.540112 1.617532
1.443505 -3.778186 -0.353852
3.634207 -9.517047 1.980216
1.425769 -3.735677 -0.209553
3.617239 -9.482541 2.343090
1.397708 -3.665993 -0.068483
3.605310 -9.461185 2.712941
1.470824 -3.874008 -1.110334
1.382724 -3.643879 0.068029
1.454676 -3.835509 -0.947044
1.420067 -3.744258 0.209867
1.464140 -3.862495 -0.802924
3.609900 -9.528168 0.891429
1.452236 -3.835133 -0.649516
3.603905 -9.522373 1.250136
1.498768 -3.962193 -0.520138
3.602084 -9.522586 1.612527
1.419739 -3.755247 -0.351238
3.599577 -9.526001 1.979453
1.406370 -3.723815 -0.208611
3.573105 -9.465940 2.335892
1.372832 -3.636932 -0.067855
3.567096 -9.455013 2.707765
1.452537 -3.866459 -1.106710
1.370634 -3.648444 0.068029
1.441264 -3.838488 -0.946594
1.397866 -3.724883 0.208506
1.443754 -3.849201 -0.799108
3.569624 -9.522054 0.889686
1.433270 -3.823281 -0.646700
3.566736 -9.519402 1.248186
1.481444 -3.955987 -0.518676
3.560513 -9.512900 1.608772
1.404528 -3.754581 -0.350715
3.559025 -9.513982 1.974492
1.389817 -3.717234 -0.207983
3.536237 -9.463132 2.332292
1.354531 -3.626716 -0.067576
3.531367 -9.460168 2.705694
1.435667 -3.860391 -1.103605
1.358586 -3.655080 0.068064
1.423784 -3.832534 -0.943895
1.380684 -3.718505 0.207878
1.425514 -3.839244 -0.796055
3.533870 -9.522632 0.888640
1.411672 -3.806035 -0.642946
3.530726 -9.524348 1.247211
1.462109 -3.946243 -0.516726
3.520426 -9.506746 1.605644
1.387918 -3.748008 -0.349669
3.522386 -9.517140 1.972583
1.372675 -3.710823 -0.207355
3.490345 -9.440690 2.323745
1.339783 -3.625795 -0.067471
3.487616 -9.443441 2.697412
1.422850 -3.867192 -1.104122
1.341679 -3.648540 0.067855
1.411070 -3.839310 -0.944345
1.370450 -3.730802 0.208297
1.408042 -3.833139 -0.793765
3.491682 -9.510593 0.886374
1.391573 -3.792395 -0.639817
3.491305 -9.519841 1.245017
1.446959 -3.947594 -0.516239
3.483142 -9.507849 1.603766
1.370714 -3.741605 -0.348623
3.475643 -9.492507 1.964951
1.322649 -3.614309 -0.201703
3.454691 -9.445495 2.321945
1.322313 -3.617302 -0.067227
3.446676 -9.433784 2.691200
1.410663 -3.875765 -1.105157
1.328251 -3.651321 0.067820
1.391001 -3.825897 -0.939845
1.354691 -3.728054 0.207878
1.391972 -3.830650 -0.792239
3.453700 -9.509616 0.885154
1.370239 -3.774947 -0.636063
3.447900 -9.503980 1.241361
1.423697 -3.926495 -0.512826
3.445221 -9.506949 1.601576
1.358324 -3.748240 -0.348797
3.436471 -9.487968 1.961517
1.303907 -3.602002 -0.200761
3.413743 -9.435506 2.316546
1.306959 -3.614374 -0.067087
3.407815 -9.429406 2.686542
1.399089 -3.886118 -1.106710
1.317528 -3.661581 0.067925
1.378956 -3.834397 -0.940745
1.338292 -3.723362 0.207355
1.373944 -3.822552 -0.789568
3.416443 -9.510363 0.884108
1.356386 -3.777848 -0.635750
3.411350 -9.506615 1.240143
1.403281 -3.912755 -0.510389
3.406683 -9.504040 1.599073
1.341871 -3.743581 -0.347926
3.401342 -9.494361 1.960372
1.287286 -3.595249 -0.200133
3.376191 -9.434522 2.313397
1.297027 -3.626446 -0.067227
3.374878 -9.441244 2.686542
1.388755 -3.900079 -1.109298
1.305410 -3.668041 0.067960
1.366217 -3.841023 -0.941195
1.326624 -3.731775 0.207564
1.357961 -3.819926 -0.788041
3.378557 -9.509089 0.882888
1.344513 -3.786283 -0.636375
3.368186 -9.490402 1.236487
1.388287 -3.913887 -0.509901
3.362926 -9.486084 1.594067
1.323469 -3.733219 -0.346531
3.359657 -9.482119 1.955411
1.275395 -3.601604 -0.200237
3.337385 -9.429716 2.309348
1.288362 -3.642262 -0.067436
3.332887 -9.427468 2.679295
1.373850 -3.901258 -1.108263
1.295917 -3.682007 0.068134
1.356034 -3.854961 -0.943445
1.313590 -3.736382 0.207564
1.343317 -3.820939 -0.787278
3.335435 -9.492629 0.880273
1.330633 -3.789089 -0.636063
3.335696 -9.503976 1.236730
1.377902 -3.928076 -0.511120
3.323257 -9.479123 1.590939
1.305815 -3.724655 -0.345311
3.323293 -9.484525 1.953503
1.264796 -3.611689 -0.200551
3.300587 -9.430272 2.306648
1.276300 -3.648625 -0.067471
3.288484 -9.406219 2.669977
1.400885 -4.022791 -1.141392
1.281742 -3.682731 0.068064
1.348331 -3.876236 -0.947494
1.303162 -3.748492 0.207983
1.328681 -3.821896 -0.786515
1.310919 -3.775050 -0.632934
3.294039 -9.491182 1.233562
1.364182 -3.932862 -0.511120
3.285620 -9.477601 1.588749
1.267355 -3.655773 -0.338513
3.281809 -9.471952 1.948542
1.252181 -3.616082 -0.200551
3.262550 -9.427003 2.303049
1.261596 -3.647388 -0.067366
3.243006 -9.381124 2.659625
1.395639 -4.053229 -1.148639
1.269530 -3.689073 0.068099
1.337961 -3.890133 -0.949743
1.292018 -3.758684 0.208297
1.317247 -3.832080 -0.787660
1.332232 -3.877876 0.358733
1.298375 -3.781472 -0.633247
3.252512 -9.478212 1.230393
1.356886 -3.956377 -0.513557
3.247392 -9.474064 1.586246
1.259754 -3.675253 -0.339907
3.241727 -9.462918 1.944344
1.235022 -3.607204 -0.199819
3.225838 -9.427272 2.300349
1.273446 -3.723670 -0.068693
3.208990 -9.388732 2.658589
0.390351 -1.146649 -0.324559
1.263730 -3.714307 0.068483
1.373309 -4.038689 -0.984836
1.283388 -3.776408 0.209030
1.305758 -3.842231 -0.788804
1.314843 -3.871184 0.357687
1.286437 -3.789722 -0.633873
3.214943 -9.476350 1.228687
1.337330 -3.944170 -0.511364
3.210498 -9.474116 1.584368
1.225176 -3.615470 -0.333981
3.208675 -9.474177 1.944344
1.223704 -3.615276 -0.200028
3.183545 -9.410784 2.293601
1.266844 -3.747036 -0.069042
3.174961 -9.396215 2.657554
0.387578 -1.151666 -0.325594
1.255857 -3.733858 0.068762
1.360445 -4.047153 -0.985736
1.281011 -3.813051 0.210809
1.311720 -3.904458 -0.800635
1.305128 -3.887082 0.358733
1.271316 -3.788571 -0.632934
1.324185 -3.950696 -0.511608
3.171762 -9.468408 1.581553
1.210017 -3.612168 -0.333284
3.167482 -9.461118 1.939383
1.216146 -3.634678 -0.200865
3.146966 -9.410751 2.290901
1.255025 -3.755229 -0.069112
3.137859 -9.394415 2.653931
0.376239 -1.131015 -0.319383
1.240923 -3.732527 0.068658
1.343237 -4.042630 -0.983486
1.274617 -3.838349 0.211961
1.817192 -5.472245 -1.120812
1.277117 -3.848122 0.354724
1.263058 -3.807985 -0.635437
1.284843 -3.875926 0.501371
1.311635 -3.959063 -0.512095
3.132481 -9.460669 1.578424
1.193643 -3.605022 -0.332238
3.128887 -9.455342 1.935948
1.232299 -3.726129 -0.205680
3.106760 -9.399475 2.285503
1.238145 -3.748194 -0.068902
3.095963 -9.377793 2.646166
0.372289 -1.132322 -0.319383
1.225389 -3.729236 0.068518
1.326685 -4.039888 -0.981686
1.268062 -3.863650 0.213112
1.796855 -5.474825 -1.120049
1.259330 -3.839305 0.353504
1.260219 -3.844281 -0.640756
1.270687 -3.878501 0.501127
1.301514 -3.974936 -0.513557
3.096982 -9.464036 1.577173
1.183531 -3.616740 -0.332935
3.086098 -9.436351 1.929842
1.226110 -3.751290 -0.206832
3.070906 -9.401000 2.283253
1.225054 -3.752493 -0.068902
3.060812 -9.381197 2.644095
0.370721 -1.140963 -0.321453
1.213600 -3.737295 0.068588
1.307763 -4.029666 -0.978087
1.260792 -3.884931 0.214054
1.775310 -5.473594 -1.118522
1.244692 -3.839887 0.353155
1.257751 -3.882482 -0.646387
1.249804 -3.860250 0.498202
1.280297 -3.956790 -0.510633
3.059499 -9.455460 1.574044
1.173350 -3.628433 -0.333632
3.055555 -9.454537 1.931369
1.216078 -3.765050 -0.207355
3.033880 -9.398682 2.280104
1.216289 -3.767953 -0.069112
3.027314 -9.383941 2.642025
0.364374 -1.134893 -0.319383
1.204868 -3.752723 0.068797
1.292011 -4.026558 -0.976288
1.250272 -3.898818 0.214577
1.308607 -4.083176 -0.833454
1.231280 -3.844208 0.353155
1.276201 -3.984457 -0.662656
1.236390 -3.862483 0.497958
1.282895 -4.010173 -0.516970
3.023466 -9.456674 1.572479
1.161891 -3.636302 -0.333981
3.012235 -9.427217 1.923736
1.203586 -3.769062 -0.207355
2.994994 -9.384555 2.274255
1.208598 -3.789321 -0.069426
2.988672 -9.376045 2.636849
0.360609 -1.136095 -0.319383
1.195389 -3.768342 0.069007
1.275593 -4.023613 -0.974488
1.236655 -3.903158 0.214577
1.292094 -4.078135 -0.831546
1.218526 -3.848270 0.353155
1.265265 -3.998304 -0.664221
1.219309 -3.855419 0.496496
1.265898 -4.005163 -0.515751
2.980323 -9.435149 1.567161
1.151026 -3.643935 -0.334329
2.982265 -9.447034 1.925644
1.196431 -3.792288 -0.208402
2.955185 -9.372650 2.268856
1.191156 -3.780167 -0.069181
2.955345 -9.384579 2.636331
0.347393 -1.107853 -0.311100
1.185815 -3.783941 0.069216
1.262122 -4.029901 -0.974938
1.245694 -3.979882 0.218555
1.268469 -4.052643 -0.825440
1.203896 -3.848697 0.352806
1.250712 -4.000811 -0.663908
1.207619 -3.865336 0.497227
1.199845 -3.842808 -0.494302
2.943252 -9.432293 1.564971
1.139487 -3.651734 -0.334678
2.943425 -9.438645 1.921828
1.184375 -3.800254 -0.208611
2.921872 -9.381048 2.268406
1.179143 -3.788120 -0.069251
2.916830 -9.376390 2.631155
0.334378 -1.079533 -0.302818
1.172600 -3.788057 0.069216
1.252655 -4.049176 -0.978537
1.229434 -3.976573 0.218136
1.253154 -4.053295 -0.824677
1.189866 -3.850972 0.352632
1.232076 -3.990053 -0.661405
1.196461 -3.877115 0.498202
1.188179 -3.852664 -0.495033
2.905654 -9.427408 1.562468
1.165977 -3.785365 -0.346531
2.904104 -9.428223 1.917630
1.175216 -3.817727 -0.209344
2.884523 -9.376290 2.264807
1.167088 -3.796036 -0.069321
2.878976 -9.369895 2.626496
0.334938 -1.095531 -0.306959
1.168139 -3.820812 0.069740
1.239082 -4.055387 -0.978987
2.078211 -6.806014 0.372946
1.237716 -4.055983 -0.824295
1.177487 -3.861025 0.353155
1.215716 -3.988873 -0.660466
1.179448 -3.869874 0.496739
1.182821 -3.883373 -0.498446
2.876180 -9.448832 1.564345
1.184648 -3.894250 -0.356118
2.866102 -9.427533 1.915341
1.161796 -3.823920 -0.209449
2.849005 -9.383069 2.263907
1.164288 -3.834528 -0.069949
2.841765 -9.365098 2.622355
0.340045 -1.126284 -0.315242
1.159904 -3.844212 0.070089
1.226460 -4.067365 -0.980787
2.044607 -6.784901 0.371376
1.220719 -4.050880 -0.822387
1.162853 -3.861296 0.352806
1.201784 -3.993092 -0.660466
1.170973 -3.893181 0.499177
1.156008 -3.845859 -0.493083
2.047037 -6.814487 1.126954
1.164743 -3.877372 -0.354201
2.044583 -6.810630 1.382221
1.151885 -3.839431 -0.210077
2.038861 -6.800187 1.638993
1.158835 -3.867503 -0.070473
2.805203 -9.368049 2.620284
1.164749 -3.909564 0.071206
1.213368 -4.075356 -0.981686
2.013506 -6.767110 0.370015
1.202092 -4.040062 -0.819334
1.162429 -3.909256 0.356816
1.186713 -3.993476 -0.659841
1.163593 -3.918177 0.501858
1.147095 -3.865095 -0.495033
2.011443 -6.781820 1.120384
1.153468 -3.889054 -0.354898
2.012428 -6.789491 1.376496
1.144148 -3.862578 -0.211123
2.009579 -6.788577 1.634494
1.151568 -3.892618 -0.070857
2.013914 -6.811954 1.903355
1.164637 -3.959649 0.072044
1.604159 -5.457496 -1.313264
1.991055 -6.773750 0.370015
1.184662 -4.032932 -0.817044
1.154388 -3.932407 0.358559
1.173322 -3.999489 -0.660154
1.987070 -6.777679 0.867222
1.139178 -3.888126 -0.497471
1.981166 -6.761914 1.116004
1.142124 -3.900706 -0.355595
1.982100 -6.773864 1.371917
1.137385 -3.889552 -0.212379
1.981497 -6.780586 1.630895
1.143701 -3.913690 -0.071171
1.983190 -6.790778 1.895591
1.158753 -3.988452 0.072497
1.582249 -5.449685 -1.310115
1.967397 -6.780659 0.370015
1.172764 -4.044585 -0.818571
1.960795 -6.766726 0.616365
1.156755 -3.991974 -0.658276
1.966240 -6.789952 0.867954
1.152214 -3.981504 -0.508926
1.955355 -6.761198 1.114752
1.136246 -3.931466 -0.358036
1.952540 -6.755881 1.366956
1.132239 -3.920166 -0.213845
1.954678 -6.772141 1.627296
1.142780 -3.961849 -0.071974
1.948237 -6.758678 1.884720
1.153091 -4.021307 0.073021
1.561605 -5.449555 -1.308765
1.942067 -6.781725 0.369701
1.162589 -4.059776 -0.820860
1.146071 -4.007383 -0.660154
1.934344 -6.768144 0.864297
1.204819 -4.218371 -0.538663
1.930116 -6.762284 1.113814
1.135233 -3.977361 -0.361871
1.927868 -6.758879 1.366192
1.126213 -3.950985 -0.215310
1.928358 -6.769553 1.625046
1.140441 -4.006203 -0.072707
1.922518 -6.758005 1.882650
1.922006 -6.792225 0.123214
1.541513 -5.451222 -1.307865
1.918926 -6.790385 0.369806
1.152148 -4.077034 -0.823532
1.908733 -6.758824 0.614448
1.135296 -4.022766 -0.662031
1.909090 -6.769124 0.863566
1.189010 -4.218730 -0.538175
1.907035 -6.770881 1.114126
1.122423 -3.985135 -0.362219
1.900008 -6.750449 1.363140
1.904717 -6.776242 1.625046
1.914911 -6.817079 -0.123598
1.897351 -6.759095 1.881097
1.904738 -6.822005 0.123633
1.520381 -5.449061 -1.306066
1.898430 -6.808585 0.370434
1.137909 -4.081031 -0.823532
1.893150 -6.794234 0.617063
1.123896 -4.036219 -0.663595
1.812544 -6.513742 0.830174
1.180659 -4.245804 -0.541100
1.884975 -6.783206 1.115065
1.902809 -6.847385 -0.621769
1.879060 -6.766498 1.365048
1.902928 -6.857088 -0.372946
1.877405 -6.769705 1.621897
1.897512 -6.846847 -0.124017
1.874777 -6.769400 1.882132
1.883569 -6.838251 0.123807
1.504453 -5.465609 -1.308765
1.877830 -6.826725 0.371062
1.130426 -4.109587 -0.828493
1.873119 -6.814249 0.618283
1.114509 -4.057261 -0.666411
1.865465 -6.795686 0.865272
1.168457 -4.259472 -0.542319
1.867553 -6.812606 1.118819
2.377723 -8.673645 -0.786842
1.855429 -6.773016 1.365048
2.570349 -9.389172 -0.510171
1.855820 -6.783735 1.623697
1.886257 -6.899722 -0.124855
1.849608 -6.770313 1.880579
1.871222 -6.887239 0.124575
1.487408 -5.478349 -1.310565
1.861833 -6.862152 0.372632
1.849842 -6.822669 0.618457
1.100340 -4.061127 -0.666411
1.849514 -6.830898 0.868928
1.106401 -4.089151 -0.520138
1.848402 -6.836246 1.121635
2.560127 -9.468532 -0.858135
1.839969 -6.809776 1.371153
2.537038 -9.396158 -0.510066
1.836697 -6.807106 1.627746
2.533725 -9.396922 -0.169882
1.828980 -6.787919 1.883685
2.521549 -9.410548 0.170056
1.465251 -5.472214 -1.307865
2.518293 -9.411537 0.510590
1.457442 -5.446850 -1.096007
1.731319 -6.474927 0.586384
1.092786 -4.089753 -0.670478
1.763182 -6.603328 0.839192
2.041969 -7.652776 -0.972517
1.832161 -6.871286 1.126328
2.281179 -8.555274 -0.774640
1.822758 -6.840819 1.376115
2.496002 -9.374077 -0.508392
2.494228 -9.380587 -0.169428
1.813212 -6.824136 1.891967
2.483576 -9.399960 0.169707
1.450121 -5.492369 -1.311465
2.477273 -9.389373 0.508915
1.440423 -5.459497 -1.097533
2.477218 -9.395808 0.850117
1.990929 -7.556721 -1.237710
2.470942 -9.385294 1.191639
2.050598 -7.794241 -0.989579
2.470154 -9.395619 1.538690
2.207229 -8.395543 -0.759475
2.466336 -9.387760 1.886719
2.458699 -9.365346 -0.507449
1.805945 -6.883851 1.643043
2.459440 -9.381498 -0.169288
1.797703 -6.862193 1.900767
2.444700 -9.385350 0.169288
1.432904 -5.504941 -1.313264
2.442975 -9.392163 0.508601
1.416415 -5.445491 -1.093717
2.448915 -9.421753 0.851686
1.970499 -7.586567 -1.241464
1.746463 -6.728841 0.853573
2.031352 -7.832095 -0.993479
2.429908 -9.375504 1.533997
2.159914 -8.333765 -0.753200
2.431583 -9.388709 1.885193
2.426495 -9.375805 -0.507554
2.412791 -9.329575 2.224766
2.421175 -9.368730 -0.168904
2.405078 -9.313151 2.577320
2.407449 -9.376394 0.168974
1.626573 -6.339678 0.343010
1.394473 -5.438992 -1.091428
2.406618 -9.393573 0.848374
1.947923 -7.608709 -1.243967
2.402408 -9.390777 1.190176
2.023668 -7.916068 -1.003229
2.397827 -9.379681 1.533371
2.126866 -8.325810 -0.751805
2.391996 -9.370508 1.879850
2.391284 -9.374542 -0.507031
2.373473 -9.311502 2.218467
2.388117 -9.368956 -0.168765
2.369412 -9.302355 2.572144
2.372906 -9.370756 0.168730
2.373113 -9.385338 0.507345
1.376440 -5.447634 -1.092191
1.605628 -6.359382 0.573833
1.923165 -7.617043 -1.244280
2.367856 -9.385218 1.188470
2.000318 -7.934284 -1.004691
2.360244 -9.368838 1.530242
2.111410 -8.387282 -0.756686
2.358514 -9.368870 1.877942
2.357260 -9.370799 -0.506403
1.575340 -6.267060 1.491875
2.354912 -9.375295 -0.168730
1.627242 -6.483109 1.791028
2.337277 -9.367341 0.168520
2.341011 -9.389280 0.507135
1.361216 -5.463598 -1.094480
1.676946 -6.735879 0.607301
1.892273 -7.606456 -1.241464
2.329811 -9.372235 1.185789
1.976438 -7.956631 -1.006641
1.535315 -6.180782 1.008690
2.087425 -8.409707 -0.758081
2.323432 -9.367517 1.876034
2.320210 -9.361522 -0.505461
2.310037 -9.327442 2.218467
2.321887 -9.375288 -0.168590
2.299077 -9.290138 2.564379
2.304768 -9.369215 0.168416
1.582645 -6.443374 0.347720
1.348687 -5.495009 -1.099823
2.297898 -9.369481 0.844016
1.868450 -7.618445 -1.242403
2.292106 -9.352917 1.182377
1.946736 -7.949644 -1.004935
2.289376 -9.355906 1.525549
2.050012 -8.384042 -0.755117
2.285828 -9.348473 1.870692
2.284414 -9.349764 -0.504414
2.272161 -9.306655 2.211719
2.285354 -9.367794 -0.168311
1.538237 -6.310100 1.740299
2.265014 -9.362448 0.168136
2.262743 -9.367359 0.505042
1.318397 -5.457932 -1.091428
2.264476 -9.381714 0.844365
1.841037 -7.633244 -1.243654
2.255245 -9.357790 1.181889
1.953843 -8.113384 -1.024678
2.247427 -9.339661 1.521482
2.011810 -8.360505 -0.752328
2.248538 -9.351453 1.869547
2.247097 -9.352640 -0.504100
2.232314 -9.298256 2.207669
2.243304 -9.351221 -0.167857
2.230015 -9.302984 2.563344
2.230466 -9.362515 0.167997
2.228182 -9.367429 0.504623
1.306606 -5.493060 -1.097533
2.226186 -9.366300 0.842273
1.811641 -7.628093 -1.241777
1.644580 -6.930045 0.874534
1.916350 -8.081524 -1.019803
1.645965 -6.946675 1.130708
1.980318 -8.357784 -0.751457
1.422072 -6.006423 1.199807
2.212598 -9.352653 -0.503681
2.197154 -9.294613 2.204970
2.208810 -9.351211 -0.167718
2.189983 -9.278749 2.554544
2.192292 -9.346881 0.167578
2.192282 -9.361537 0.503891
1.607884 -6.871432 0.617411
1.551590 -6.636073 -1.079398
2.191216 -9.379105 1.182620
1.888128 -8.088164 -1.019803
2.178580 -9.339732 1.518979
1.906778 -8.174496 -0.734374
1.464379 -6.282856 1.253997
2.177671 -9.350592 -0.503158
1.502611 -6.457085 1.530567
2.175250 -9.354969 -0.167648
2.158456 -9.290100 2.555579
2.157402 -9.344734 0.167403
1.552626 -6.735888 0.362270
2.156718 -9.364140 0.840704
1.534619 -6.668400 -1.083778
2.152236 -9.359612 1.179208
1.855883 -8.077293 -1.017609
2.144197 -9.339580 1.517727
1.593881 -6.948105 1.385655
2.139665 -9.334776 -0.501902
1.471361 -6.424300 1.521569
2.140350 -9.352758 -0.167473
2.123001 -9.284395 2.551956
1.611299 -7.092156 0.126949
1.535289 -6.768537 0.363735
1.706085 -7.527601 0.675283
1.506969 -6.654450 -1.080649
2.113856 -9.341898 1.176039
1.791781 -7.924953 -0.997623
2.109406 -9.337373 1.516163
2.142500 -9.483866 -0.850640
2.109107 -9.343635 1.861914
2.106626 -9.340239 -0.501797
2.089420 -9.271486 2.194173
2.103736 -9.342614 -0.167159
1.449411 -6.442029 1.769287
1.631026 -7.296795 0.130509
1.528184 -6.847928 0.367712
2.083487 -9.343966 0.837567
1.482873 -6.655814 -1.080024
2.079940 -9.343406 1.175308
1.776605 -7.987353 -1.004691
1.387676 -6.243927 1.013070
1.882451 -8.470195 -0.759126
2.072649 -9.333692 1.858480
2.071415 -9.335837 -0.501169
1.450517 -6.542860 1.547213
2.069814 -9.344044 -0.167054
2.055627 -9.287673 2.548850
2.056422 -9.353143 0.167159
2.052715 -9.344056 0.501379
2.049151 -9.343396 0.836869
1.471470 -6.714978 -1.088784
2.044765 -9.338976 1.173846
1.734714 -7.929511 -0.996648
2.044112 -9.343796 1.514911
1.890313 -8.648002 -0.774466
1.418404 -6.494493 1.292159
2.035834 -9.329350 -0.500436
2.021736 -9.272519 2.191023
1.523787 -6.988720 -0.124855
2.020293 -9.273675 2.543156
2.020742 -9.338412 0.166775
2.019663 -9.349212 0.501274
2.013164 -9.334911 0.835475
1.449194 -6.719821 -1.088784
2.011276 -9.334062 1.172383
1.709244 -7.939101 -0.997135
2.006082 -9.325768 1.510844
1.811131 -8.426641 -0.754071
2.004118 -9.324550 1.853900
2.003208 -9.328240 -0.500018
1.986888 -9.260119 2.186524
2.000714 -9.332499 -0.166601
1.985887 -9.271226 2.540568
1.985221 -9.331717 0.166531
1.463397 -6.890653 0.369178
1.981371 -9.337638 0.835126
1.421632 -6.705515 -1.085655
1.973334 -9.315780 1.169215
1.711527 -8.086791 -1.014928
1.972700 -9.328849 1.510219
1.829482 -8.659039 -0.774292
1.969122 -9.319963 1.851611
1.968983 -9.327359 -0.499599
1.956965 -9.278438 2.189224
1.542173 -7.318133 -0.130544
1.951123 -9.266759 2.537462
1.949770 -9.324888 0.166287
1.945776 -9.322026 0.499076
1.946727 -9.342887 0.834952
1.399462 -6.722283 -1.087533
1.940804 -9.322610 1.169215
1.667926 -8.018864 -1.005666
1.335620 -6.426861 1.039664
1.851901 -8.918972 -0.796952
1.930562 -9.305972 1.847413
1.929920 -9.311044 -0.498343
1.329780 -6.421264 1.513921
1.930242 -9.320782 -0.166147
1.917982 -9.269730 2.536427
1.412961 -6.883406 0.122656
1.910794 -9.325183 0.498866
1.392614 -6.808410 -1.100673
1.321161 -6.464830 0.810187
1.637333 -8.019088 -1.004935
1.284810 -6.298162 1.018076
1.774561 -8.698930 -0.776732
1.895323 -9.299189 1.844741
1.897406 -9.317724 -0.498343
1.880419 -9.242555 2.177526
1.890889 -9.302319 -0.165693
1.881302 -9.263445 2.532803
1.880621 -9.326840 0.166077
1.877050 -9.325921 0.498552
1.590791 -7.910816 0.705962
1.360279 -6.770623 -1.093790
1.274364 -6.348734 0.795076
1.596841 -7.962471 -0.997135
1.865897 -9.312521 1.504274
1.738706 -8.677721 -0.774292
1.290199 -6.445107 1.277657
1.862129 -9.310581 -0.497610
1.850437 -9.260528 2.180226
1.857230 -9.302980 -0.165588
1.845932 -9.254799 2.528662
1.842227 -9.303923 0.165554
1.845338 -9.328176 0.498343
1.262112 -6.391696 0.569999
1.325549 -6.719127 -1.084717
1.271774 -6.452473 0.807506
1.587063 -8.059538 -1.008591
1.833097 -9.308968 1.502710
1.838400 -9.344499 -0.833209
1.826570 -9.292930 1.840925
1.827693 -9.307226 -0.497087
1.812847 -9.240159 2.173927
1.827140 -9.313012 -0.165658
1.810774 -9.238120 2.522450
1.810982 -9.308019 0.165519
1.810861 -9.324758 0.497820
1.806989 -9.322212 0.830769
1.304012 -6.727365 -1.085342
1.803279 -9.311770 1.164584
1.549016 -8.006288 -1.001279
1.801716 -9.321128 1.503648
1.820503 -9.427153 -0.840007
1.794998 -9.295080 1.840162
1.793413 -9.295586 -0.496145
1.780721 -9.238465 2.172127
1.793109 -9.311479 -0.165519
1.777054 -9.236796 2.520380
1.776981 -9.306427 0.165379
1.774187 -9.309441 0.496668
1.775693 -9.326197 0.830594
1.285320 -6.757103 -1.089410
1.257102 -6.615045 0.826762
1.600666 -8.430952 -1.053682
1.765856 -9.309893 1.500832
1.787747 -9.425307 -0.839310
1.765101 -9.314793 1.842833
