# This PCD file was generated using the MATLAB® pcwrite function
# from Computer Vision Toolbox®.
# .PCD v.7 - Point Cloud Data file format
VERSION .7
FIELDS x y z
SIZE 4 4 4
TYPE F F F
COUNT 1 1 1
WIDTH 1596
HEIGHT 1
VIEWPOINT 0 0 0 1 0 0 0
POINTS 1596
DATA ascii
-12.484449 -3.138195 -1.126227
-11.570721 -2.904216 -0.625205
-12.452896 -3.121022 -0.224089
-7.711894 -1.921363 -2.129563
-8.912759 -2.217244 -2.120389
-11.705206 -2.909757 0.632114
-10.520893 -2.615353 -2.107295
-11.922744 -2.961625 1.074805
-11.744761 -2.915238 -1.916635
-12.400317 -3.075660 1.568702
-18.680279 -4.629823 -2.363047
-12.547779 -3.107586 2.047415
-12.211035 -3.024188 -1.100603
-16.140976 -3.991499 -0.871394
-24.540916 -6.064175 5.836130
-15.956275 -3.939915 -0.286883
-7.705421 -1.891209 -2.125940
-12.742376 -3.125111 0.229010
-9.041579 -2.215805 -2.149183
-12.025681 -2.944893 0.648861
-10.566189 -2.587487 -2.114545
-11.859468 -2.901993 1.068181
-11.869996 -2.902374 -1.935407
-12.476542 -3.048378 1.576989
-18.727182 -4.572121 -2.366947
-12.297554 -3.000095 2.004864
-12.225389 -2.982489 -1.100951
-11.691620 -2.847948 -0.630648
-15.806712 -3.844495 -0.283951
-7.728876 -1.868383 -2.130599
-12.072881 -2.916276 0.216794
-9.176179 -2.214868 -2.179326
-12.497985 -3.014346 0.673773
-10.605693 -2.557950 -2.120651
-12.086462 -2.912860 1.087704
-13.370344 -3.219812 -2.178194
-12.379027 -2.978797 1.563340
-18.777769 -4.515077 -2.371334
-12.419352 -2.983918 2.023011
-25.397455 -6.102084 -2.285223
-12.095485 -2.903869 2.417932
-15.970348 -3.831194 -0.860717
-12.327376 -2.952716 -0.221262
-7.729713 -1.840051 -2.129046
-9.257795 -2.200397 -2.196872
-12.185859 -2.894091 0.656398
-10.629838 -2.524543 -2.123704
-12.844836 -3.048231 1.154988
-13.404568 -3.178587 -2.181948
-12.327538 -2.920922 1.555540
-18.866819 -4.466886 -2.380596
-12.452760 -2.946002 2.026765
-25.666780 -6.072099 -2.307535
-12.254575 -2.896858 2.447698
-18.491089 -4.367705 -0.995744
-12.812507 -3.021666 -0.229778
-7.751136 -1.816586 -2.133187
-11.602295 -2.717023 0.207998
-9.297678 -2.175614 -2.204520
-12.153100 -2.841536 0.654095
-10.695936 -2.500834 -2.135153
-12.001735 -2.803936 1.078291
-13.421351 -3.133124 -2.182887
-12.459451 -2.906285 1.570896
-18.971228 -4.421728 -2.391808
-12.285970 -2.861295 1.997981
-25.967245 -6.047544 -2.332636
-12.184299 -2.835378 2.431670
-17.875925 -4.156569 -0.961830
-12.519104 -2.906381 -0.224333
-7.757429 -1.789518 -2.133187
-14.807414 -3.413118 0.265242
-9.312811 -2.144897 -2.206320
-11.189754 -2.575132 0.601759
-10.695034 -2.461281 -2.133245
-11.980382 -2.754878 1.075502
-13.412954 -3.081835 -2.179758
-12.583670 -2.888982 1.585276
-12.559021 -2.881013 -1.582108
-12.299734 -2.819277 1.998607
-26.287268 -6.025421 -2.359480
-12.167331 -2.786693 2.426327
-11.995027 -2.745024 -0.644884
-12.638342 -2.887606 -0.226288
-7.763629 -1.762429 -2.133187
-12.822278 -2.908444 0.229499
-9.324041 -2.113237 -2.207220
-11.174858 -2.532714 0.600503
-10.682500 -2.419164 -2.129047
-11.710095 -2.649725 1.050401
-13.489140 -3.049807 -2.190396
-11.761070 -2.656945 1.480469
-12.661948 -2.858139 -1.593807
-26.599674 -5.999378 -2.385627
-12.195485 -2.746137 -0.655142
-15.660078 -3.523410 -0.280181
-7.756536 -1.732370 -2.129563
-12.535208 -2.799654 0.224194
-9.350019 -2.086550 -2.211719
-12.407845 -2.766662 0.666237
-10.627642 -2.367771 -2.116454
-11.999323 -2.671175 1.075502
-13.406627 -2.984455 -2.175378
-11.738812 -2.611032 1.476569
-12.841884 -2.854033 -1.615256
-26.908329 -5.970363 -2.411425
-26.926394 -5.969440 -1.445415
-18.526756 -4.100501 -0.331212
-7.758463 -1.705811 -2.128528
-12.212873 -2.682940 0.218260
-9.351534 -2.052646 -2.210369
-13.031459 -2.860384 0.699208
-10.639270 -2.333359 -2.117217
-11.976975 -2.624545 1.072713
-13.534672 -2.963411 -2.194463
-12.038739 -2.633676 1.513130
-19.107964 -4.176692 -2.401557
-27.235527 -5.948267 -2.438966
-12.486935 -2.724876 2.484333
-12.551489 -2.736668 -0.673250
-11.666545 -2.541586 -0.208417
-7.766260 -1.679124 -2.129046
-12.403474 -2.681725 0.221506
-9.360194 -2.022035 -2.210819
-12.020309 -2.594494 0.644465
-10.651189 -2.297031 -2.117980
-11.861411 -2.555861 1.061557
-13.602356 -2.930995 -2.203849
-12.478226 -2.686495 1.567240
-15.977776 -3.437007 -2.006701
-16.039660 -3.444466 -1.435281
-12.399927 -2.662845 2.465252
-12.113343 -2.594662 -0.216235
-7.775853 -1.652808 -2.130081
-12.747707 -2.707286 0.227475
-9.382793 -1.990953 -2.214418
-12.117662 -2.569057 0.649175
-10.643777 -2.256580 -2.114927
-12.790255 -2.709324 1.143832
-13.709635 -2.901570 -2.219492
-11.365429 -2.403359 1.426359
-16.029108 -3.386633 -2.011575
-16.012598 -3.380222 -1.431795
-12.951324 -2.731633 2.572869
-16.035326 -3.379178 -0.858833
-12.118857 -2.549427 -0.216166
-7.758882 -1.620916 -2.123869
-11.997567 -2.504239 0.213932
-9.389687 -1.958186 -2.214418
-12.808943 -2.668931 0.685706
-10.720779 -2.233832 -2.128665
-11.812646 -2.459187 1.055630
-13.812512 -2.873006 -2.234510
-13.545203 -2.812477 -1.698615
-16.090052 -3.332089 -0.861136
-12.198180 -2.521685 -0.217422
-7.790987 -1.599261 -2.131116
-11.986648 -2.458323 0.213583
-9.409828 -1.928139 -2.217567
-12.704695 -2.600969 0.679635
-10.928541 -2.237346 -2.168354
-16.217007 -3.317075 1.448180
-13.876647 -2.835851 -2.243271
-16.263790 -3.320734 2.038143
-13.679421 -2.790569 -1.714214
-28.752779 -5.860277 -2.567260
-20.563919 -4.183776 -1.099788
-16.226234 -3.295371 -0.289012
-7.792734 -1.571291 -2.130081
-13.386976 -2.696858 0.238365
-9.406948 -1.893358 -2.215318
-11.910891 -2.395169 0.636719
-11.155704 -2.243308 -2.211858
-11.942822 -2.399421 1.065740
-13.983297 -2.806833 -2.258914
-12.005017 -2.407555 1.503380
-13.513902 -2.707705 -1.692278
-16.312977 -3.265579 2.634982
-29.152065 -5.835745 -2.601076
-20.116180 -4.019608 -1.075085
-12.270400 -2.447413 -0.218399
-7.790591 -1.542579 -2.128010
-12.144757 -2.402525 0.216096
-9.419234 -1.861643 -2.216668
-12.352212 -2.439085 0.659852
-11.394594 -2.249992 -2.257652
-12.072316 -2.381627 1.076548
-13.646093 -2.689627 -2.202910
-12.648295 -2.490669 1.582839
-19.269152 -3.790938 -2.411307
-19.807890 -3.893337 -1.766124
-20.063452 -3.936296 -1.071527
-29.630594 -5.802549 -0.527028
-7.799721 -1.516112 -2.129046
-12.045103 -2.339149 0.214176
-9.433328 -1.830239 -2.218467
-12.472415 -2.417616 0.665818
-11.598971 -2.248310 -2.296577
-13.620489 -2.635219 -2.197279
-12.033226 -2.325948 1.504843
-19.305656 -3.728170 -2.414232
-30.009836 -5.789844 -2.673938
-30.106781 -5.797656 -1.606819
-30.027704 -5.771559 -0.533729
-7.789784 -1.485981 -2.124904
-12.092481 -2.304580 0.214874
-9.439660 -1.797297 -2.218467
-11.672324 -2.220282 -2.309552
-13.643189 -2.590241 -2.199469
-12.080277 -2.291329 1.509718
-19.353657 -3.667414 -2.418619
-30.464455 -5.767335 -2.712635
-19.894190 -3.759043 -1.061059
-12.397537 -2.338059 -0.220214
-7.787329 -1.457361 -2.122834
-12.114212 -2.264925 0.215118
-9.459286 -1.766840 -2.221617
-13.435331 -2.507077 0.716270
-11.703161 -2.183848 -2.314131
-14.343494 -2.671359 -2.310850
-12.927390 -2.405290 1.614525
-19.401474 -3.606360 -2.423007
-30.931030 -5.743898 -2.752378
-12.193259 -2.255486 -0.216445
-7.811369 -1.433656 -2.128010
-12.240060 -2.244262 0.217213
-9.451977 -1.731354 -2.218467
-11.730025 -2.146517 -2.317948
-12.833478 -2.346124 1.141392
-14.360504 -2.622697 -2.312102
-12.904463 -2.354446 1.610625
-19.449097 -3.545021 -2.427394
-20.264111 -3.689921 -1.802032
-31.859734 -5.789896 -1.697046
-12.606383 -2.286423 -0.223635
-7.808722 -1.405010 -2.125940
-13.330302 -2.396100 0.236410
-9.452209 -1.697317 -2.217118
-11.768365 -2.111101 -2.324054
-12.923958 -2.316073 1.148713
-14.383183 -2.574990 -2.314292
-12.955592 -2.317075 1.615988
-19.531704 -3.489678 -2.436168
-20.323940 -3.627570 -1.806216
-32.013458 -5.702466 -1.704164
-12.669414 -2.252204 -0.224612
-7.817383 -1.378417 -2.126975
-20.991581 -3.697607 0.372050
-9.454237 -1.663636 -2.216218
-11.764062 -2.067970 -2.321764
-12.908416 -2.266813 1.146621
-14.421269 -2.529884 -2.318985
-12.951869 -2.269781 1.614525
-18.824194 -3.295509 -2.346473
-20.026390 -3.502367 -1.778674
-19.393829 -3.384769 -1.031751
-13.213049 -2.301294 -0.234107
-7.810725 -1.349147 -2.123869
-9.463829 -1.631284 -2.217118
-12.032172 -2.071831 0.639859
-11.759600 -2.024896 -2.319474
-12.990864 -2.234575 1.153245
-14.406651 -2.475514 -2.315230
-18.855146 -3.233134 -2.348910
-20.282001 -3.474152 -1.800289
-29.536484 -5.048762 -1.570393
-20.636747 -3.520095 -0.365418
-7.815386 -1.321874 -2.123869
-12.321465 -2.081806 0.218120
-9.479073 -1.599862 -2.219367
-11.905057 -2.009316 0.632742
-11.801442 -1.989710 -2.326343
-14.376243 -2.418658 -2.308973
-18.995525 -3.188984 -2.364997
-20.329374 -3.409269 -1.803427
-20.431349 -3.415374 -0.361579
-7.827577 -1.295849 -2.125940
-12.371704 -2.048126 0.218888
-9.453564 -1.563333 -2.212169
-11.816065 -1.949782 -2.327870
-14.384184 -2.370971 -2.308973
-19.088266 -3.139506 -2.375234
-20.321491 -3.335058 -1.801683
-19.427656 -3.184880 -1.031751
-12.644006 -2.068271 -0.223635
-7.835645 -1.270503 -2.126975
-12.319559 -1.995333 0.217841
-9.468582 -1.531880 -2.214418
-20.696707 -3.344722 1.098741
-11.830217 -1.911840 -2.329396
-14.376772 -2.318231 -2.306470
-19.040310 -3.063400 -2.367921
-20.135723 -3.236036 -1.784252
-20.337917 -3.261250 -1.079482
-20.355967 -3.256851 -0.359834
-7.859112 -1.246169 -2.132151
-13.053277 -2.067436 0.230686
-9.483495 -1.500341 -2.216668
-12.304219 -1.944397 0.652839
-11.863968 -1.874826 -2.334739
-14.462828 -2.280338 -2.318985
-19.062654 -2.998769 -2.369384
-19.772932 -3.106967 -1.751133
-12.646283 -1.978095 -0.223426
-7.836688 -1.214583 -2.124904
-11.981433 -1.854823 0.211628
-9.471341 -1.464550 -2.212619
-11.858799 -1.831600 -2.332449
-14.759645 -2.274367 -2.365289
-19.579212 -3.010031 -2.432268
-19.740330 -3.031279 -1.747298
-19.401699 -2.965413 -0.342591
-7.844700 -1.187799 -2.125940
-12.897352 -1.950543 0.227684
-9.493738 -1.434097 -2.216668
-20.663450 -3.117674 1.095182
-11.876768 -1.791951 -2.334739
-15.107380 -2.273989 -2.419729
-19.542486 -2.934598 -2.426419
-29.630129 -4.444114 -2.621296
-19.695410 -2.947018 -1.043684
-20.317757 -3.032885 -0.358577
-7.867908 -1.163236 -2.131116
-12.999037 -1.919533 0.229360
-9.483263 -1.398674 -2.213068
-11.879066 -1.749913 -2.333976
-15.521739 -2.280979 -2.484805
-19.513330 -2.860600 -2.421544
-29.811056 -4.364904 -2.635938
-19.946686 -2.913462 -1.056454
-19.675215 -2.866801 -0.347059
-7.852801 -1.133006 -2.125940
-13.021494 -1.876424 0.229639
-9.495804 -1.366675 -2.214868
-12.144336 -1.745700 0.643000
-11.877329 -1.707319 -2.332449
-15.697769 -2.250900 -2.511712
-20.030191 -2.864985 -2.484429
-29.435581 -4.205035 -2.601424
-20.174234 -2.874811 -1.067968
-19.784090 -2.812170 -0.348804
-7.872012 -1.107741 -2.130081
-20.687511 -2.907442 0.364651
-9.496656 -1.332979 -2.213968
-11.867661 -1.663668 -2.329396
-15.807259 -2.210315 -2.527981
-20.299587 -2.831249 -2.516602
-22.377640 -3.117101 -1.976692
-20.556059 -2.856049 -1.087646
-20.031481 -2.776033 -0.352992
-7.860520 -1.078155 -2.125940
-20.301296 -2.780933 0.357670
-9.501251 -1.299821 -2.213968
-20.475416 -2.797503 1.083040
-11.888959 -1.624358 -2.332449
-15.822708 -2.156190 -2.529233
-20.541454 -2.791920 -2.545363
-21.748718 -2.952142 -1.920215
-21.321234 -2.878953 -0.375541
-7.864235 -1.050710 -2.125940
-20.132486 -2.686248 0.354528
-9.528911 -1.269736 -2.219367
-11.855634 -1.577668 -2.324817
-15.849721 -2.103544 -2.532362
-20.771482 -2.749373 -2.572662
-22.307999 -2.948790 -1.968674
-20.745787 -2.734921 -1.096648
-21.410458 -2.814942 -0.376937
-7.883180 -1.025245 -2.130081
-21.057905 -2.734949 0.370654
-9.517825 -1.234460 -2.215768
-11.888328 -1.539805 -2.330160
-15.900066 -2.053772 -2.539244
-21.001461 -2.705254 -2.599961
-22.330013 -2.872427 -1.969720
-20.814640 -2.670106 -1.099788
-20.479959 -2.619913 -0.360392
-7.879044 -0.996753 -2.128010
-21.027645 -2.656409 0.369956
-9.508542 -1.199522 -2.212619
-11.870255 -1.495355 -2.325580
-15.879700 -1.994811 -2.534864
-21.247139 -2.661536 -2.629210
-32.303894 -4.040842 -2.848249
-20.990313 -2.618203 -1.108580
-21.139866 -2.629359 -0.371841
-7.870971 -0.967830 -2.124904
-9.518473 -1.167037 -2.213968
-11.855915 -1.451525 -2.321764
-15.902251 -1.941286 -2.537367
-21.354830 -2.599346 -2.641397
-32.491852 -3.949217 -2.863589
-20.983461 -2.542994 -1.107743
-20.084818 -2.426974 -0.353132
-7.893484 -0.942637 -2.130081
-31.498028 -3.755917 0.553695
-9.530230 -1.134726 -2.215768
-11.876506 -1.411982 -2.324817
-15.924623 -1.887625 -2.539870
-21.438686 -2.533646 -2.650659
-32.453995 -3.829704 -2.859057
-21.145790 -2.480318 -0.371632
-7.885212 -0.913746 -2.126975
-9.538004 -1.101897 -2.216668
-11.904765 -1.373219 -2.329396
-15.931116 -1.832022 -2.539870
-21.530228 -2.468291 -2.660896
-36.663628 -4.196738 -3.228597
-29.013632 -3.310822 -1.530408
-21.182135 -2.409655 -0.372120
-7.892193 -0.886647 -2.128010
-9.526299 -1.066863 -2.213068
-20.859205 -2.332365 1.099997
-11.886074 -1.329037 -2.324817
-15.929563 -1.775525 -2.538619
-21.495308 -2.388293 -2.655533
-31.521503 -3.496711 -2.774690
-31.704979 -3.505862 -1.671715
-19.997822 -2.204252 -0.351177
-7.899082 -0.859510 -2.129046
-9.533840 -1.034024 -2.213968
-20.815592 -2.253947 1.097276
-11.898448 -1.288384 -2.326343
-15.888526 -1.714826 -2.531110
-21.649570 -2.328957 -2.673570
-27.583406 -2.962428 -2.427113
-20.188330 -2.153945 -0.354389
-7.892427 -0.830922 -2.126457
-9.547082 -1.001755 -2.216218
-11.887252 -1.245209 -2.323290
-15.910134 -1.660994 -2.533613
-22.348618 -2.325277 -2.758878
-27.609436 -2.867772 -2.428508
-7.881826 -0.801997 -2.122834
-9.544704 -0.967835 -2.214868
-11.895432 -1.204099 -2.324054
-15.884389 -1.602279 -2.528607
-18.295713 -1.839057 -2.257752
-29.819778 -2.992182 -2.621993
-29.331285 -2.932825 -1.544853
-7.892268 -0.775234 -2.124904
-9.555782 -0.935269 -2.216668
-11.915195 -1.164096 -2.327107
-15.885951 -1.546435 -2.527981
-18.136055 -1.759084 -2.237278
-29.389059 -2.835024 -1.547365
-7.898773 -0.748046 -2.125940
-9.539431 -0.901743 -2.212169
-11.934823 -1.123970 -2.330160
-15.879192 -1.492641 -2.526104
-18.145741 -1.699302 -2.237765
-18.429270 -1.719365 -1.619354
-19.232288 -1.790897 -1.012282
-21.163893 -1.963316 -0.371003
-7.897362 -0.721497 -2.124904
-9.550282 -0.869143 -2.213968
-11.922843 -1.082965 -2.327107
-15.907916 -1.439335 -2.529859
-18.165400 -1.637203 -2.239471
-18.464634 -1.660919 -1.621968
-19.254339 -1.725183 -1.013120
-30.966185 -2.763659 -0.542665
-7.911379 -0.694940 -2.128010
-20.755228 -1.819500 0.363673
-9.555201 -0.835971 -2.214418
-11.918727 -1.040659 -2.325580
-15.901033 -1.382770 -2.527981
-18.107718 -1.568297 -2.231672
-18.390919 -1.589592 -1.614996
-7.909907 -0.666995 -2.126975
-9.567769 -0.803429 -2.216668
-11.926200 -0.999376 -2.326343
-15.917576 -1.328246 -2.529859
-18.374516 -1.523579 -1.613078
-7.912187 -0.639382 -2.126975
-9.580228 -0.770808 -2.218917
-11.925702 -0.957422 -2.325580
-15.914240 -1.272045 -2.528607
-18.101662 -1.437351 -1.588675
-30.865845 -2.429193 -0.540431
-7.910519 -0.611459 -2.125940
-54.695232 -4.218174 0.957544
-9.571201 -0.736464 -2.216218
-11.940717 -0.916692 -2.327870
-15.926461 -1.217088 -2.529859
-18.076769 -1.371889 -1.586060
-31.798962 -2.396554 -0.556627
-7.931870 -0.585264 -2.131116
-54.844528 -4.046779 0.959917
-9.571649 -0.704578 -2.215768
-11.932096 -0.874145 -2.325580
-15.938289 -1.164842 -2.531110
-18.063562 -1.307490 -1.584491
-7.922205 -0.558143 -2.128010
-9.572106 -0.671028 -2.215318
-11.931012 -0.834298 -2.324817
-15.942258 -1.109203 -2.531110
-18.145973 -1.256161 -2.233378
-18.139574 -1.249356 -1.590767
-7.928053 -0.529362 -2.129046
-9.568556 -0.637220 -2.213968
-11.945743 -0.791344 -2.327107
-15.938333 -1.050241 -2.529859
-18.177979 -1.194639 -2.236790
-55.231548 -3.620068 8.766588
-18.115990 -1.184210 -1.588326
-38.076233 -2.468955 -0.666019
-7.922141 -0.501196 -2.126975
-9.590276 -0.603371 -2.218467
-11.956270 -0.750129 -2.328633
-15.965560 -0.996079 -2.533613
-18.190163 -1.128492 -2.237765
-55.216248 -3.425538 8.762208
-18.139900 -1.122200 -1.590069
-7.931556 -0.473999 -2.129046
-9.578608 -0.570753 -2.215318
-11.947057 -0.707693 -2.326343
-15.960888 -0.942663 -2.532362
-18.189842 -1.067932 -2.237278
-55.275196 -3.235559 8.769717
-18.107903 -1.056779 -1.586932
-7.929226 -0.447478 -2.128010
-9.578596 -0.537205 -2.214868
-11.957178 -0.668509 -2.327870
-16.003527 -0.889135 -2.538619
-17.979393 -0.992616 -2.210954
-18.111307 -0.996729 -1.586932
-7.942315 -0.420410 -2.131116
-9.584305 -0.503970 -2.215768
-11.947676 -0.626152 -2.325580
-16.006535 -0.833266 -2.538619
-17.895521 -0.925340 -2.200229
-18.078861 -0.931652 -1.583794
-7.916720 -0.391348 -2.123869
-9.574327 -0.469938 -2.213068
-11.961555 -0.585018 -2.327870
-16.001451 -0.777004 -2.537367
-17.985886 -0.867072 -2.210954
-18.085983 -0.868734 -1.584143
-7.937337 -0.364597 -2.129046
-9.593431 -0.437313 -2.217118
-11.963524 -0.543261 -2.327870
-16.004066 -0.721143 -2.537367
-18.080025 -0.808358 -2.222166
-18.072985 -0.804887 -1.582748
-7.946281 -0.337218 -2.131116
-9.591003 -0.403659 -2.216218
-11.981039 -0.502157 -2.330923
-15.978856 -0.664126 -2.532987
-18.102571 -0.746064 -2.224603
-18.101562 -0.742858 -1.585014
-7.943549 -0.309327 -2.130081
-9.594236 -0.371927 -2.216668
-11.970948 -0.459877 -2.328633
-15.996761 -0.611737 -2.535490
-18.120813 -0.686630 -2.226553
-18.054272 -0.677802 -1.580657
-7.948393 -0.283121 -2.131116
-9.595475 -0.338437 -2.216668
-11.972407 -0.420180 -2.328633
-15.998799 -0.555898 -2.535490
-18.015968 -0.619687 -2.213391
-18.096243 -0.619290 -1.584143
-83.654266 -2.804334 -1.461011
-7.937747 -0.255002 -2.128010
-9.600495 -0.305064 -2.217567
-11.965952 -0.378135 -2.327107
-16.020386 -0.500665 -2.538619
-18.018635 -0.553671 -1.577170
-83.651550 -2.511947 -1.460801
-7.950176 -0.227624 -2.131116
-9.597605 -0.271439 -2.216668
-11.982900 -0.336807 -2.330160
-16.010189 -0.444411 -2.536742
-17.984138 -0.492922 -2.209004
-18.040375 -0.491308 -1.578913
-83.651810 -2.219718 -1.460662
-7.943197 -0.199677 -2.129046
-9.586805 -0.237646 -2.213968
-11.980076 -0.294880 -2.329396
-16.015591 -0.388614 -2.537367
-18.069868 -0.428994 -1.581354
-83.651062 -1.927539 -1.460522
-7.947708 -0.172032 -2.130081
-9.595370 -0.204346 -2.215768
-11.981032 -0.253060 -2.329396
-16.024752 -0.332874 -2.538619
-17.911724 -0.365812 -2.199742
-18.099142 -0.366484 -1.583794
-83.628998 -1.649576 -1.460033
-7.940534 -0.144150 -2.128010
-9.595995 -0.172525 -2.215768
-11.970065 -0.211031 -2.327107
-16.009966 -0.279456 -2.536116
-18.117271 -0.309913 -2.224847
-18.347332 -0.307443 -1.605409
-83.660240 -1.358066 -1.460487
-7.940968 -0.117817 -2.128010
-9.596539 -0.139027 -2.215768
-11.982477 -0.171504 -2.329396
-16.034546 -0.223899 -2.539870
-18.116261 -0.246643 -2.224603
-83.630470 -1.065594 -1.459894
-7.941347 -0.088709 -2.128010
-9.616452 -0.105745 -2.220267
-11.990878 -0.127666 -2.330923
-16.043161 -0.165213 -2.541122
-18.113039 -0.183363 -2.224116
-18.454622 -0.180379 -1.614647
-83.651688 -0.773826 -1.460208
-7.960926 -0.061136 -2.133187
-9.593390 -0.070324 -2.214868
-11.991251 -0.085809 -2.330923
-16.019934 -0.109046 -2.537367
-18.145353 -0.117184 -2.228016
-18.401346 -0.115621 -1.609941
-83.527901 -0.481095 -1.458009
-7.945637 -0.033284 -2.129046
-9.597468 -0.038528 -2.215768
-11.991477 -0.043953 -2.330923
-16.067619 -0.056086 -2.544876
-18.165489 -0.057072 -2.230453
-18.453440 -0.051532 -1.614473
-19.243525 -0.050384 -1.008514
-83.365097 -0.189151 -1.455147
-7.965022 -0.006952 -2.134222
-9.589749 -0.005020 -2.213968
-11.971925 -0.004181 -2.327107
-16.036108 0.000001 -2.539870
-18.308506 0.006388 -2.248002
-18.557114 0.009718 -1.623537
-20.142349 0.017578 -1.055616
-83.629204 0.102154 -1.459754
-7.961134 0.020842 -2.133187
-9.589708 0.028452 -2.213968
-11.983645 0.037647 -2.329396
-16.067619 0.056085 -2.544876
-83.614449 0.364844 -4.382090
-83.674332 0.394292 -1.460557
-7.937830 0.048490 -2.126975
-9.605141 0.062028 -2.217567
-11.999147 0.079582 -2.332449
-16.043621 0.112006 -2.541122
-24.068600 0.176432 -2.955332
-82.963585 0.651596 -4.348072
-83.656448 0.686259 -1.460278
-7.953067 0.076346 -2.131116
-9.577584 0.095284 -2.211269
-12.006649 0.121546 -2.333976
-16.066835 0.168257 -2.544876
-24.139294 0.261220 -2.964106
-83.667542 0.978417 -1.460522
-7.948889 0.104057 -2.130081
-9.584987 0.128818 -2.213068
-11.994372 0.163296 -2.331686
-16.089853 0.224671 -2.548631
-24.038992 0.344061 -2.951920
-83.663620 1.270467 -1.460522
-7.948477 0.131803 -2.130081
-9.611758 0.162740 -2.219367
-11.985878 0.205029 -2.330160
-16.057367 0.280282 -2.543625
-83.609207 1.532385 -4.382509
-83.666664 1.562651 -1.460662
-7.955694 0.159701 -2.132151
-9.599441 0.196052 -2.216668
-11.985089 0.246864 -2.330160
-16.064192 0.336497 -2.544876
-24.063791 0.512468 -2.955332
-82.924438 1.809415 -4.346920
-83.660698 1.854675 -1.460662
-7.955088 0.187471 -2.132151
-9.610387 0.229836 -2.219367
-11.992005 0.288888 -2.331686
-16.058968 0.392470 -2.544250
-24.133293 0.598235 -2.964106
-83.669716 2.147127 -1.460941
-7.954385 0.215240 -2.132151
-9.586150 0.262741 -2.213968
-11.983074 0.330533 -2.330160
-16.077246 0.449075 -2.547379
-24.079468 0.681008 -2.957769
-83.681694 2.439761 -1.461290
-7.949724 0.242885 -2.131116
-9.589070 0.296322 -2.214868
-12.001470 0.372967 -2.333976
-16.063736 0.504825 -2.545502
-24.057104 0.764427 -2.955332
-83.599609 2.700236 -4.383555
-83.676666 2.731983 -1.461360
-7.956551 0.270897 -2.133187
-9.587977 0.329793 -2.214868
-11.980474 0.414179 -2.330160
-16.089514 0.561856 -2.549882
-23.998739 0.846439 -2.948507
-82.923019 2.968196 -4.348595
-83.674614 3.024323 -1.461499
-7.943973 0.298234 -2.130081
-9.598453 0.363702 -2.217567
-11.975032 0.455847 -2.329396
-16.059820 0.616955 -2.545502
-24.071016 0.933133 -2.957769
-83.663544 3.316386 -1.461499
-7.950604 0.326277 -2.132151
-9.589336 0.396882 -2.215768
-11.973368 0.497643 -2.329396
-16.057570 0.673011 -2.545502
-24.067789 1.012940 -2.957769
-83.696045 3.595698 -1.462267
-7.941760 0.352298 -2.130081
-9.576285 0.428158 -2.213068
-11.975574 0.537522 -2.330160
-16.055250 0.726256 -2.545502
-24.064299 1.092747 -2.957769
-83.626259 3.855945 -4.387323
-83.739586 3.875816 -1.463245
-7.952126 0.379185 -2.133187
-9.582600 0.460286 -2.214868
-11.969804 0.577043 -2.329396
-16.044857 0.779111 -2.544250
-24.111885 1.179268 -2.964106
-83.805443 4.172078 -1.464641
-7.935319 0.406151 -2.129046
-9.580935 0.493730 -2.214868
-11.959874 0.618416 -2.327870
-16.065714 0.836342 -2.548005
-24.107622 1.263428 -2.964106
-7.929995 0.433637 -2.128010
-9.583044 0.527386 -2.215768
-11.969404 0.660810 -2.330160
-16.062696 0.892417 -2.548005
-83.695236 4.737887 -1.463245
-7.932290 0.461540 -2.129046
-9.581244 0.559162 -2.215768
-11.970944 0.702820 -2.330923
-16.055704 0.945447 -2.547379
-24.098465 1.427494 -2.964106
-83.750046 5.034351 -1.464501
-7.921075 0.487247 -2.126457
-9.575343 0.592363 -2.214868
-11.980175 0.745331 -2.333213
-16.064137 1.002224 -2.549257
-24.093336 1.511600 -2.964106
-83.602966 5.303789 -4.390254
-83.747925 5.327680 -1.464780
-7.928875 0.516906 -2.129046
-9.573108 0.627454 -2.214868
-11.969526 0.788717 -2.331686
-16.052471 1.060575 -2.548005
-24.158941 1.604638 -2.972881
-82.937317 5.566838 -4.356341
-83.739807 5.635383 -1.464990
-7.923072 0.545698 -2.128010
-9.582409 0.663343 -2.217567
-11.954949 0.829681 -2.329396
-16.032713 1.118304 -2.545502
-24.081608 1.688172 -2.964106
-83.718590 5.942268 -1.464990
-7.901851 0.571957 -2.122834
-9.564485 0.695657 -2.213968
-11.944148 0.870836 -2.327870
-16.083874 1.178303 -2.554262
-24.075567 1.772223 -2.964106
-83.744934 6.208620 -4.400931
-83.745201 6.238032 -1.465828
-7.905585 0.599975 -2.124387
-9.565885 0.729338 -2.214868
-11.944950 0.912823 -2.328633
-16.044210 1.231718 -2.548631
-24.069235 1.856246 -2.964106
-82.766937 6.426692 -4.350688
-83.775894 6.519744 -1.466735
-7.909221 0.628024 -2.125940
-9.543987 0.759510 -2.210369
-11.937778 0.954198 -2.327870
-16.059727 1.286494 -2.551759
-24.114393 1.940193 -2.970443
-83.752625 6.812139 -1.466735
-7.926347 0.655842 -2.131116
-9.552930 0.793788 -2.213068
-11.926722 0.993128 -2.326343
-16.126005 1.348471 -2.563023
-24.056042 2.020043 -2.964106
-83.784126 7.109166 -1.467713
-7.908493 0.683560 -2.126975
-9.561750 0.828136 -2.215768
-11.923001 1.036838 -2.326343
-16.089468 1.404814 -2.558017
-24.120037 2.110231 -2.972881
-83.685898 7.380424 -4.402815
-7.902211 0.710814 -2.125940
-9.547006 0.862125 -2.213068
-11.907578 1.077387 -2.324054
-16.104139 1.462759 -2.561146
-24.040972 2.192127 -2.964106
-83.295647 7.639120 -4.383660
-7.907374 0.739113 -2.128010
-9.551699 0.896173 -2.214868
-11.903745 1.118946 -2.324054
-16.095001 1.518590 -2.560519
-24.033173 2.276033 -2.964106
-7.908592 0.767083 -2.129046
-9.523298 0.927055 -2.209019
-11.919307 1.162397 -2.327870
-16.093536 1.575148 -2.561146
-24.025494 2.355718 -2.964106
-7.909849 0.793691 -2.130081
-9.527927 0.959412 -2.210819
-11.931013 1.203493 -2.330923
-16.084291 1.628110 -2.560519
-23.966202 2.430171 -2.957769
-7.887958 0.817925 -2.124904
-9.522755 0.990801 -2.210369
-11.903307 1.242684 -2.326343
-16.078804 1.681439 -2.560519
-24.008902 2.519195 -2.964106
-7.888750 0.847241 -2.125940
-9.519060 1.025695 -2.210369
-11.894769 1.285884 -2.325580
-16.072533 1.740356 -2.560519
-7.870230 0.874442 -2.121799
-9.519110 1.061011 -2.211269
-11.905817 1.329137 -2.328633
-16.073898 1.800137 -2.561771
-23.990261 2.690934 -2.964106
-7.882642 0.902294 -2.125940
-9.503923 1.091239 -2.208570
-11.893543 1.367714 -2.327107
-16.063917 1.852978 -2.561146
-23.981205 2.770474 -2.964106
-7.902629 0.931142 -2.132151
-9.500253 1.122747 -2.208570
-11.916237 1.410378 -2.332449
-16.053761 1.905768 -2.560519
-23.873327 2.838267 -2.951920
-61.153683 7.313775 -3.227768
-7.876485 0.954552 -2.125940
-9.496477 1.154245 -2.208570
-11.923188 1.451310 -2.334739
-16.039511 1.958037 -2.559268
-23.891371 2.920792 -2.955332
-61.180630 7.522868 -3.230489
-7.861260 0.983350 -2.122834
-9.493908 1.190943 -2.209019
-11.937006 1.499525 -2.338555
-16.043633 2.021091 -2.561146
-23.851881 3.013191 -2.951920
-7.842452 1.008815 -2.118693
-9.493773 1.222918 -2.209919
-11.927805 1.540684 -2.337792
-16.036842 2.074284 -2.561146
-23.869318 3.095846 -2.955332
-7.858215 1.037343 -2.123869
-9.501038 1.257582 -2.212619
-11.922630 1.580230 -2.337792
-16.029505 2.130247 -2.561146
-23.803268 3.171805 -2.948507
-7.862018 1.067177 -2.125940
-9.486935 1.289427 -2.210369
-11.916759 1.623916 -2.337792
-15.986359 2.184174 -2.555514
-23.819588 3.258642 -2.951920
-53.009689 7.289700 -2.804265
-7.842937 1.092482 -2.121799
-9.493724 1.325809 -2.213068
-11.883798 1.661697 -2.332449
-16.002111 2.243255 -2.559268
-23.855247 3.348385 -2.957769
-52.936455 7.468000 -2.801754
-7.827797 1.116847 -2.118693
-9.485418 1.356733 -2.212169
-11.889882 1.702767 -2.334739
-15.963300 2.291816 -2.554262
-52.974655 7.652642 -2.805103
-7.839342 1.145033 -2.122834
-9.498219 1.390721 -2.216218
-11.891635 1.745400 -2.336265
-15.955611 2.344741 -2.554262
-23.882963 3.518207 -2.964106
-52.959476 7.839269 -2.805731
-7.838914 1.174329 -2.123869
-9.491133 1.425233 -2.215768
-11.881276 1.788389 -2.335502
-15.962537 2.405556 -2.556765
-23.771769 3.590895 -2.951920
-7.825009 1.201588 -2.121281
-9.491624 1.460900 -2.217118
-11.867199 1.828656 -2.333976
-15.918473 2.458619 -2.551134
-23.711367 3.670717 -2.946070
-7.834126 1.230994 -2.124904
-9.488651 1.492671 -2.217567
-11.833592 1.865789 -2.328633
-15.929746 2.514474 -2.554262
-23.648087 3.741256 -2.939733
-7.824279 1.256048 -2.123352
-9.493002 1.527331 -2.219817
-11.846725 1.908143 -2.332449
-15.913072 2.568805 -2.553011
-23.732862 3.839633 -2.951920
-7.814128 1.282412 -2.121799
-44.906345 7.369784 0.794329
-9.485963 1.558487 -2.219367
-11.851615 1.951395 -2.334739
-45.065437 7.428215 3.995917
-15.877179 2.617063 -2.548631
-23.719999 3.918308 -2.951920
-45.132812 7.463595 7.245420
-45.316265 7.518310 10.605092
-7.809832 1.308318 -2.121799
-9.472778 1.590299 -2.217567
-11.848950 1.991337 -2.335502
-15.867948 2.672469 -2.548631
-23.608307 3.984570 -2.939733
-44.652321 7.560391 -2.373436
-7.825930 1.340523 -2.127493
-44.853798 7.683121 0.794329
-9.459486 1.622036 -2.215768
-11.829963 2.032760 -2.333213
-15.873617 2.733288 -2.551134
-45.231445 7.804688 7.269824
-43.090118 7.450702 8.500159
-44.734520 7.743064 -2.379297
-7.823105 1.368164 -2.128010
-9.457315 1.657371 -2.216668
-11.826662 2.074718 -2.333976
-15.840632 2.784581 -2.547379
-23.579189 4.153400 -2.939733
-44.746559 7.906122 -2.381391
-41.830307 7.398398 -0.741483
-7.803068 1.392748 -2.123869
-9.447932 1.688036 -2.215768
-11.815483 2.115297 -2.333213
-15.835202 2.837789 -2.548005
-23.467596 4.214027 -2.927546
-40.918671 7.384543 -0.725776
-7.806010 1.420000 -2.125940
-40.545029 7.382900 0.719353
-9.453485 1.723103 -2.218467
-11.823854 2.157286 -2.336265
-15.801880 2.888784 -2.544250
-40.890877 7.504875 8.081142
-40.850464 7.512198 9.589213
-7.804804 1.447944 -2.126975
-9.432085 1.753242 -2.214868
-11.804671 2.196391 -2.333976
-15.803352 2.946098 -2.546128
-40.620522 7.579909 5.073665
-23.437603 4.377759 -2.927546
-40.864433 7.647566 8.081142
-40.057850 7.511091 9.409253
-7.799703 1.475177 -2.126975
-9.422078 1.785430 -2.213968
-39.390011 7.464183 2.101080
-11.793075 2.236850 -2.333213
-15.761924 2.995344 -2.541122
-23.449478 4.464743 -2.930958
-38.528728 7.342777 -3.431496
-39.265751 7.504545 9.229292
-38.542408 7.366298 -0.684937
-7.809681 1.505320 -2.131116
-9.400798 1.813712 -2.210369
-11.800615 2.280986 -2.336265
-15.751904 3.047597 -2.541122
-23.360489 4.528126 -2.921696
-38.276226 7.426279 6.175408
-38.666782 7.523063 9.094321
-37.833401 7.367763 -0.672790
-7.804646 1.531209 -2.131116
-9.398234 1.847266 -2.211269
-11.781428 2.317829 -2.333976
-15.756673 3.105615 -2.543625
-40.598736 8.009307 5.080977
-23.391281 4.618872 -2.927546
-37.707462 7.452592 6.087804
-37.211288 7.354527 -3.318542
-37.125294 7.351005 -1.983428
-37.803028 7.492048 8.897264
-37.105244 7.360496 -0.660294
-7.787887 1.556174 -2.128010
-36.983822 7.396805 0.658340
-9.391729 1.880061 -2.211269
-37.159431 7.445426 1.986150
-11.738616 2.352000 -2.327107
-15.707002 3.152822 -2.537367
-37.086834 7.451079 4.644685
-23.277710 4.680923 -2.915359
-36.995682 7.446192 5.977048
-36.572079 7.360933 -3.263808
-37.040649 7.461978 7.344620
-36.512047 7.362120 -1.952027
-37.394596 7.546856 8.807283
-36.616737 7.396531 -0.652057
-7.771049 1.581037 -2.124904
-36.369934 7.406154 0.647868
-9.381289 1.912054 -2.210369
-36.671375 7.480868 1.961447
-11.761113 2.399238 -2.333213
-15.703642 3.209217 -2.538619
-36.792210 7.525586 4.611049
-23.261229 4.762149 -2.915359
-36.381172 7.454751 5.881937
-35.964516 7.369375 -3.211863
-36.787434 7.544687 7.299589
-35.899189 7.369038 -1.920625
-36.489944 7.496948 8.600328
-35.881638 7.378497 -0.639421
-7.773050 1.609721 -2.126975
-35.854343 7.431601 0.639142
-9.387915 1.947561 -2.213518
-36.637215 7.607207 1.961028
-11.748822 2.439479 -2.332449
-15.700079 3.265623 -2.539870
-36.765717 7.653970 4.611049
-23.244463 4.843318 -2.915359
-35.948833 7.497011 5.816234
-35.349541 7.372030 -3.159221
-35.799957 7.472474 7.108780
-35.337563 7.382404 -1.891945
-35.891304 7.504624 8.465358
-35.288052 7.384908 -0.629299
-7.774660 1.639793 -2.129046
-35.239891 7.439056 0.628671
-9.378807 1.981553 -2.213068
-36.657337 7.744958 1.963541
-11.747484 2.484152 -2.333976
-15.672545 3.319866 -2.537367
-36.795670 7.801032 4.618361
-23.156649 4.913647 -2.906584
-35.342743 7.499434 5.722373
-34.729816 7.375710 -3.106231
-35.211586 7.484457 6.997348
-34.751556 7.393005 -1.862009
-35.714893 7.604460 8.430265
-34.745716 7.398101 -0.620084
-7.742443 1.661249 -2.121799
-34.597187 7.423309 0.617641
-9.360753 2.010189 -2.210369
-36.676949 7.882935 1.966053
-11.723387 2.521838 -2.330923
-34.627281 7.455055 3.098910
-15.649863 3.369326 -2.535490
-36.808418 7.931355 4.623236
-23.074251 4.976183 -2.898297
-34.571018 7.461884 5.601606
-34.119617 7.370694 -3.053937
-34.580173 7.470185 6.876756
-34.145107 7.382429 -1.830817
-34.160721 7.398295 -0.610101
-7.744442 1.688561 -2.123869
-34.113892 7.444269 0.609473
-9.363198 2.044929 -2.212619
-36.729202 8.028409 1.970344
-11.718795 2.561539 -2.331686
-34.018456 7.442103 3.046616
-15.622570 3.420551 -2.532987
-22.835693 5.008218 -2.870511
-33.989082 7.460545 5.511500
-33.546200 7.363333 -3.004781
-34.009308 7.471206 6.768377
-33.608051 7.389206 -1.803393
-33.599594 7.399642 -0.600537
-34.371395 7.575905 9.430849
-7.742272 1.716421 -2.124904
-33.525463 7.438548 0.599420
-9.338882 2.073799 -2.208570
-36.681458 8.152237 1.969298
-11.702117 2.600726 -2.330160
-33.603294 7.474288 3.011754
-15.610535 3.475067 -2.532987
-33.605507 7.487091 4.227405
-22.469318 5.010136 -2.826638
-33.623512 7.503422 5.456435
-33.096375 7.385786 -2.966781
-33.515507 7.485460 6.675262
-33.086967 7.395812 -1.776806
-33.124744 7.416396 -0.592509
-33.779209 7.569117 9.275558
-7.743773 1.745133 -2.126975
-32.992111 7.441138 0.590345
-9.341089 2.108532 -2.210819
-39.006165 8.811884 2.095741
-11.696797 2.642424 -2.330923
-33.122265 7.488719 2.970965
-15.625282 3.535640 -2.537367
-33.044811 7.483340 4.160132
-22.079985 5.004287 -2.779840
-33.570145 7.614627 5.452055
-32.557434 7.384917 -2.920763
-32.953098 7.480712 6.568409
-32.503929 7.384710 -1.746870
-36.499760 8.299240 8.641720
-32.654091 7.430813 -0.584551
-33.225166 7.566867 9.130618
-7.733868 1.771291 -2.125940
-32.420177 7.431162 0.580572
-9.327974 2.139819 -2.209469
-38.990738 8.951553 2.096579
-11.660713 2.677084 -2.325580
-32.777466 7.531131 2.942378
-15.612844 3.590162 -2.537367
-32.596764 7.501583 4.106997
-21.745131 5.008268 -2.739867
-32.069386 7.392012 -2.879277
-32.448532 7.485362 6.473004
-32.034248 7.395689 -1.723004
-32.308434 7.470860 -0.578826
-32.923759 7.619208 9.055043
-7.727638 1.798277 -2.125940
-32.035683 7.460835 0.574149
-9.316653 2.171480 -2.208570
-11.670417 2.722232 -2.329396
-32.238758 7.525927 2.896360
-15.588677 3.641939 -2.535490
-32.017551 7.486064 4.037288
-21.468510 5.023537 -2.707206
-33.543098 7.855103 5.456435
-31.546772 7.387605 -2.834653
-32.009331 7.501828 6.390575
-31.561007 7.402568 -1.698930
-36.471287 8.560970 8.648918
-32.212074 7.567138 -0.577570
-32.197392 7.569618 8.862482
-7.717553 1.824353 -2.124904
-31.491814 7.450150 0.564865
-9.316602 2.205784 -2.210369
-38.954502 9.229998 2.098044
-11.672305 2.765671 -2.331686
-31.754776 7.529919 2.855222
-15.587401 3.699069 -2.537367
-31.616539 7.508803 3.990003
-21.134113 5.023160 -2.667233
-33.611561 7.995000 5.472078
-31.113745 7.400858 -2.798048
-31.497837 7.498036 6.293644
-31.076454 7.403450 -1.674227
-31.596006 7.533051 7.498969
-31.701017 7.569783 8.733072
-7.707380 1.850378 -2.123869
-31.037855 7.457257 0.557186
-9.293687 2.234648 -2.206770
-39.007488 9.386470 2.102650
-11.662580 2.806396 -2.331686
-31.077459 7.483985 2.796654
-15.547508 3.746981 -2.532987
-31.107697 7.502755 3.929068
-21.012249 5.071751 -2.654071
-33.598804 8.115996 5.474581
-30.665522 7.407444 -2.760048
-31.009670 7.496295 6.201293
-30.642757 7.413259 -1.652246
-31.152834 7.542421 7.399990
-31.464128 7.629408 8.675097
-7.697122 1.876356 -2.122834
-30.588123 7.462236 0.549576
-9.297189 2.269848 -2.209469
-39.024925 9.534900 2.105371
-11.637456 2.843361 -2.328633
-30.609882 7.484526 2.756910
-15.549685 3.804982 -2.535490
-30.641706 7.503643 3.873496
-20.905727 5.123332 -2.642859
-33.650852 8.252984 5.487722
-30.198290 7.406232 -2.720305
-30.674435 7.528684 6.139471
-30.221012 7.422996 -1.630893
-30.702415 7.546914 7.299212
-33.373825 8.209746 -0.599909
-7.698025 1.905069 -2.124904
-30.165913 7.470888 0.542456
-9.279751 2.299944 -2.207220
-11.623650 2.883022 -2.327870
-30.204563 7.497254 2.722745
-15.513303 3.853523 -2.531736
-30.237740 7.516695 3.825723
-20.779837 5.169438 -2.629210
-33.618000 8.369443 5.487096
-30.324116 7.555027 6.074595
-29.198820 7.280081 -1.577092
-30.214537 7.538928 7.189435
-33.368248 8.332007 -0.600328
-7.680087 1.929103 -2.121799
-29.782808 7.486451 0.536033
-9.271667 2.332323 -2.207220
-38.984528 9.813930 2.106836
-11.605900 2.921659 -2.326343
-29.791803 7.505298 2.687883
-15.511250 3.910550 -2.533613
-29.787868 7.515357 3.772100
-20.626940 5.207927 -2.612148
-33.615395 8.493517 5.491476
-29.033199 7.335745 -2.619902
-29.791262 7.532815 5.973085
-29.099653 7.363342 -1.573114
-29.806437 7.547720 7.098556
-32.199165 8.159598 -0.579804
-7.662075 1.953039 -2.118693
-29.341837 7.484596 0.528564
-9.269135 2.366117 -2.208570
-39.036922 9.964891 2.111442
-11.595630 2.962156 -2.326343
-29.421827 7.521409 2.656856
-15.493678 3.963688 -2.532987
-29.361452 7.516893 3.721403
-20.621094 5.279254 -2.613610
-33.678898 8.628476 5.506494
-28.949518 7.422194 -2.614672
-29.304588 7.518686 5.880733
-28.988657 7.443020 -1.568509
-29.362213 7.538934 6.998677
-28.991732 7.449196 -0.522490
-32.448601 8.343457 8.977398
-7.663038 1.980368 -2.120763
-28.887062 7.470705 0.520815
-9.246143 2.392936 -2.204970
-39.022999 10.099293 2.112489
-11.589545 3.001574 -2.327107
-28.933844 7.498968 2.615021
-15.476624 4.014054 -2.532362
-28.959763 7.516473 3.673630
-20.618845 5.351598 -2.615560
-28.919964 7.511531 4.732456
-28.620073 7.438964 -2.587131
-28.914684 7.520934 5.807463
-28.592709 7.442513 -1.548412
-28.982504 7.543975 6.914096
-28.626287 7.456582 -0.516347
-29.096987 7.584619 8.057037
-7.671379 2.009686 -2.124904
-28.560373 7.487350 0.515370
-9.234387 2.422595 -2.204070
-28.629215 7.516071 1.551238
-11.587123 3.041985 -2.328633
-28.596645 7.512862 2.586782
-15.467049 4.066359 -2.532987
-28.562244 7.514476 3.626344
-20.580841 5.418485 -2.613123
-28.584120 7.530900 4.681771
-28.229185 7.437387 -2.554012
-28.585846 7.536690 5.746404
-28.177773 7.434368 -1.527268
-28.560320 7.540623 6.819616
-28.337145 7.486997 -0.511600
-28.681858 7.583429 7.949368
-7.668051 2.037444 -2.125940
-28.163017 7.488334 0.508668
-9.225875 2.454815 -2.204070
-28.232243 7.517292 1.531141
-11.549874 3.075341 -2.323290
-28.450882 7.580826 2.575975
-15.437491 4.116253 -2.530484
-28.194437 7.523044 3.582959
-20.538788 5.484143 -2.610198
-28.137804 7.518446 4.612940
-27.864275 7.445359 -2.523333
-28.547983 7.633393 5.744114
-27.761915 7.428392 -1.506124
-28.149807 7.537446 6.727836
-28.299250 7.582762 -0.511390
-28.644018 7.680494 7.946263
-7.631046 2.056156 -2.117657
-27.746696 7.481437 0.501617
-9.228539 2.490050 -2.206770
-27.874178 7.526247 1.513137
-11.539068 3.115639 -2.323290
-28.443481 7.685290 2.577718
-15.403959 4.164959 -2.527355
-27.769438 7.513568 3.532261
-20.534849 5.559954 -2.612148
-27.749128 7.518469 4.553495
-27.499660 7.450877 -2.492654
-28.578012 7.748404 5.755563
-27.419693 7.439484 -1.488958
-27.792328 7.545802 6.648654
-28.299625 7.688839 -0.511879
-7.631278 2.084818 -2.119728
-27.303768 7.464343 0.494078
-9.204753 2.518135 -2.203171
-27.450903 7.514865 1.491575
-11.520548 3.153826 -2.321764
-28.451069 7.794005 2.580856
-15.389326 4.218704 -2.527355
-27.406115 7.518031 3.489363
-20.515316 5.631601 -2.612148
-27.379847 7.521102 4.497179
-27.119978 7.449718 -2.460581
-28.486425 7.830420 5.742588
-27.054630 7.441924 -1.470536
-27.363743 7.532095 6.552374
-28.303461 7.796068 -0.512438
-27.520683 7.585623 7.649138
-7.620230 2.110413 -2.118693
-26.946093 7.467741 0.488074
-9.186518 2.547647 -2.200921
-27.105032 7.521984 1.474199
-11.517036 3.196121 -2.323290
-28.442888 7.898595 2.582599
-15.355475 4.267109 -2.524227
-27.008673 7.510476 3.442078
-20.461107 5.693604 -2.607760
-27.018503 7.523370 4.442114
-26.732967 7.443862 -2.427810
-28.489178 7.938241 5.748694
-26.682188 7.439766 -1.451695
-26.995665 7.532243 6.470492
-28.299189 7.901272 -0.512856
-27.114473 7.575602 7.543540
-7.610957 2.136475 -2.118175
-26.607979 7.474156 0.482419
-9.164436 2.576007 -2.197772
-26.724844 7.517041 1.454940
-11.505811 3.236301 -2.323290
-28.422813 7.999998 2.583296
-15.340487 4.320684 -2.524227
-26.657482 7.513157 3.400642
-20.433468 5.762833 -2.606786
-26.661283 7.524282 4.387674
-26.396187 7.449467 -2.399572
-28.559546 8.065379 5.768538
-26.325476 7.439433 -1.433691
-26.695427 7.549009 6.404807
-28.302217 8.008725 -0.513415
-26.760721 7.577563 7.452435
-7.620176 2.167787 -2.122834
-26.250921 7.472820 0.476416
-9.177880 2.614386 -2.203171
-26.394962 7.523777 1.438402
-11.486891 3.274292 -2.321764
-28.456026 8.116653 2.588874
-15.317713 4.372034 -2.522975
-26.314236 7.515673 3.360182
-20.420860 5.836307 -2.607760
-26.281599 7.516267 4.329481
-26.021385 7.441848 -2.367847
-28.625586 8.192036 5.787619
-25.992132 7.443305 -1.416944
-26.440363 7.576657 6.349918
-27.005421 7.743678 -0.490378
-26.411003 7.578220 7.362367
-7.595855 2.189560 -2.118175
-25.894203 7.469078 0.470412
-9.176187 2.648568 -2.204970
-26.096064 7.537178 1.423538
-11.467846 3.312193 -2.320238
-15.321334 4.430964 -2.526104
-26.093344 7.551196 3.335320
-20.381296 5.902026 -2.605323
-25.970602 7.525494 4.282550
-25.704374 7.448349 -2.341352
-28.694866 8.320339 5.807463
-25.678272 7.450508 -1.401243
-26.106836 7.579795 6.276134
-26.072742 7.579765 7.275403
-7.582603 2.214435 -2.116622
-25.591578 7.478649 0.465386
-9.174367 2.682774 -2.206770
-25.751394 7.535110 1.406163
-11.456215 3.352201 -2.320238
-29.454155 8.624154 2.685094
-15.260277 4.471093 -2.518595
-25.788710 7.560695 3.299735
-20.356760 5.972018 -2.604836
-25.591629 7.512618 4.224357
-25.341753 7.439264 -2.310673
-29.554741 8.681621 5.987586
-25.330187 7.445466 -1.383658
-25.597874 7.529009 6.160059
-25.701437 7.569212 7.179123
-7.571123 2.239794 -2.115587
-25.258524 7.477118 0.459801
-9.133182 2.705371 -2.199121
-25.368761 7.519383 1.386694
-11.451973 3.394402 -2.321764
-29.454433 8.735981 2.687883
-15.248363 4.525458 -2.519221
-25.472912 7.564764 3.262686
-20.335789 6.043045 -2.604836
-25.307741 7.525332 4.181807
-25.044443 7.447040 -2.285921
-29.580709 8.801525 5.999035
-25.028395 7.451777 -1.368585
-25.295031 7.535970 6.093474
-25.371256 7.568322 7.094231
-7.572511 2.268981 -2.118175
-24.956444 7.482543 0.454775
-9.119949 2.736115 -2.198222
-25.051596 7.520602 1.370783
-11.436294 3.433227 -2.321001
-29.465734 8.851360 2.691718
-15.236260 4.579792 -2.519847
-25.142197 7.562153 3.223688
-20.318371 6.115138 -2.605323
-24.974901 7.521342 4.131122
-24.720688 7.444784 -2.258728
-29.579884 8.913791 6.005141
-24.703924 7.449149 -1.352257
-24.947678 7.527392 6.016091
-32.101692 9.692074 -0.585319
-25.070986 7.574152 7.017620
-7.555302 2.292594 -2.115587
-24.650812 7.484789 0.449679
-9.114072 2.769066 -2.199121
-24.734734 7.519694 1.354873
-11.416727 3.470840 -2.319474
-29.488033 8.970392 2.696599
-15.231519 4.636400 -2.521724
-24.667490 7.513375 3.166166
-20.277918 6.180234 -2.602886
-24.653740 7.518585 4.082314
-24.439182 7.453152 -2.235370
-29.582384 9.027311 6.012010
-24.433268 7.460671 -1.338858
-24.746063 7.560905 5.973800
-32.071487 9.805241 -0.585389
-24.719263 7.562150 6.926516
-7.536173 2.315550 -2.112481
-24.353115 7.487344 0.444722
-9.111802 2.803154 -2.200921
-24.469133 7.527681 1.341685
-11.393284 3.507208 -2.317185
-29.433693 9.066233 2.694507
-15.245446 4.698846 -2.526730
-24.398306 7.524546 3.134967
-20.241045 6.246297 -2.600936
-24.349316 7.514091 4.036010
-24.135077 7.452591 -2.209921
-24.109406 7.453884 -1.322530
-24.700899 7.641485 5.969301
-32.069363 9.920998 -0.585947
-24.465214 7.573245 6.862329
-7.524355 2.340695 -2.111446
-24.045557 7.480151 0.439556
-9.104317 2.833934 -2.201371
-24.171925 7.528716 1.326821
-11.380971 3.546957 -2.317185
-15.207150 4.742323 -2.522975
-24.088974 7.516718 3.098407
-20.258118 6.325219 -2.605811
-24.081593 7.523640 3.995962
-23.842688 7.453568 -2.185518
-28.261044 8.834809 5.755563
-23.840565 7.457472 -1.309132
-24.723782 7.738484 5.980999
-32.076523 10.046021 -0.586715
-24.125244 7.560390 6.774330
-7.523922 2.367954 -2.113516
-23.782789 7.489554 0.435228
-9.077642 2.860426 -2.197322
-23.875011 7.527763 1.311958
-11.380380 3.588220 -2.319474
-29.470102 9.297544 2.703571
-15.179201 4.791806 -2.521098
-23.801367 7.518246 3.064770
-23.772671 7.518308 3.949032
-23.574684 7.455693 -2.163206
-23.797682 7.530787 4.851892
-23.559238 7.459855 -1.295106
-24.670610 7.816500 5.974700
-32.102257 10.177267 -0.587832
-23.851954 7.566283 6.704967
-7.524815 2.397135 -2.116105
-23.550735 7.506938 0.431458
-9.065743 2.891505 -2.196872
-23.589821 7.528473 1.297722
-11.375267 3.630311 -2.321001
-29.475430 9.412471 2.707057
-15.166144 4.845968 -2.521724
-23.502703 7.514231 3.029672
-6.390564 2.044405 -0.823837
-23.512995 7.526568 3.910236
-23.271473 7.449257 -2.137756
-23.543146 7.540751 4.805334
-23.285803 7.462800 -1.281498
-24.613483 7.893048 5.967502
-32.100811 10.300261 -0.588460
-23.549490 7.560913 6.627321
-7.531110 2.428128 -2.120246
-23.311239 7.520336 0.427549
-9.051887 2.921936 -2.195972
-23.339132 7.538330 1.285371
-11.340108 3.662753 -2.316421
-29.484102 9.528784 2.710892
-15.081472 4.876998 -2.510461
-23.272354 7.530220 3.003348
-6.438157 2.084433 -0.830905
-23.231003 7.525804 3.867686
-23.044415 7.465358 -2.119279
-23.251486 7.536917 4.751144
-23.031628 7.470099 -1.268938
-25.364281 8.231567 6.156461
-32.076073 10.415951 -0.588670
-23.364948 7.591731 6.582804
-7.504222 2.448409 -2.115069
-23.102352 7.542091 0.424198
-9.039781 2.952908 -2.195522
-23.043098 7.531642 1.270508
-11.319789 3.699876 -2.314895
-29.473383 9.639084 2.712984
-6.060287 1.983148 -1.009941
-23.166691 7.585466 2.993111
-6.430842 2.106894 -0.830905
-22.968081 7.529313 3.828265
-22.802385 7.474995 -2.099407
-22.997448 7.543385 4.704587
-22.766308 7.471975 -1.255749
-25.368723 8.330995 6.164559
-32.081314 10.541595 -0.589438
-23.132759 7.605665 6.524828
-7.491962 2.473376 -2.114034
-22.827145 7.540515 0.419626
-9.033118 2.985668 -2.196422
-22.777740 7.533020 1.257319
-11.310532 3.740602 -2.315658
-29.450907 9.745656 2.714030
-23.140070 7.666293 2.993111
-6.412142 2.125580 -0.829443
-22.682919 7.523620 3.785089
-6.172482 2.047329 -0.568953
-22.758556 7.553123 4.661082
-22.524002 7.479637 -1.243816
-25.391266 8.436703 6.177156
-32.108837 10.674966 -0.590624
-22.860439 7.604651 6.455465
-7.472288 2.495842 -2.110928
-22.550335 7.536484 0.415018
-9.015248 3.014710 -2.194623
-22.561901 7.549105 1.246852
-5.978242 2.000291 -1.225375
-29.503618 9.877496 2.722048
-5.962006 1.997173 -0.995862
-6.487495 2.175722 -0.840167
-22.446768 7.532374 3.750048
-6.199296 2.080274 -0.572090
-22.464048 7.542530 4.606130
-22.240273 7.471714 -1.229581
-25.413382 8.542675 6.189753
-32.082748 10.790799 -0.590834
-22.456577 7.557469 6.348831
-7.470852 2.524384 -2.112999
-22.315512 7.544703 0.411179
-8.997286 3.043663 -2.192823
-22.253531 7.532403 1.231256
-6.002837 2.031848 -1.231863
-5.947515 2.015436 -0.994610
-23.074707 7.823823 2.991649
-6.259918 2.123737 -0.811650
-22.192131 7.533211 3.711877
-6.356136 2.157617 -0.587255
-22.203354 7.541343 4.558045
-21.990911 7.473467 -1.217230
-25.357578 8.622544 6.183455
-32.090324 10.918183 -0.591671
-22.232552 7.568580 6.292926
-7.471135 2.553571 -2.115587
-22.077126 7.550075 0.407269
-8.979232 3.072527 -2.191023
-22.004131 7.533697 1.218904
-5.952988 2.038163 -1.223086
-29.445251 10.087096 2.723094
-5.927363 2.031702 -0.992420
-23.039745 7.901747 2.990674
-6.346347 2.177791 -0.823837
-21.922819 7.527238 3.671204
-6.284497 2.157793 -0.581329
-21.957798 7.543531 4.513014
-21.768257 7.482663 -1.206344
-25.371553 8.726218 6.194252
-32.089836 11.043148 -0.592370
-21.990458 7.571924 6.231845
-5.870050 2.029244 -1.664207
-21.838972 7.553887 0.403360
-8.985025 3.109588 -2.195072
-21.778961 7.537385 1.207809
-5.930995 2.053790 -1.220033
-29.477634 10.213308 2.729369
-5.918369 2.051733 -0.992108
-23.964766 8.312593 3.114493
-6.368712 2.210345 -0.827737
-21.673798 7.522174 3.633660
-6.107533 2.120893 -0.565641
-21.719923 7.546672 4.469510
-21.538261 7.487772 -1.195039
-25.377750 8.827534 6.203250
-32.090813 11.162641 -0.593068
-21.760883 7.573687 6.173870
-5.855637 2.047172 -1.662136
-21.583511 7.545749 0.399102
-5.959810 2.084761 -1.457683
-21.552696 7.543419 1.196714
-5.929348 2.076428 -1.221178
-29.513254 10.341179 2.735993
-5.896618 2.066122 -0.989605
-23.970785 8.403839 3.118881
-6.346362 2.226196 -0.825787
-21.502022 7.546758 3.609256
-6.071897 2.132297 -0.563026
