# This PCD file was generated using the MATLAB® pcwrite function
# from Computer Vision Toolbox®.
# .PCD v.7 - Point Cloud Data file format
VERSION .7
FIELDS x y z
SIZE 4 4 4
TYPE F F F
COUNT 1 1 1
WIDTH 1699
HEIGHT 1
VIEWPOINT 0 0 0 1 0 0 0
POINTS 1699
DATA ascii
-0.945289 5.921491 -1.606749
-1.614753 10.126504 0.178992
-1.097686 6.891567 -1.611099
-3.283784 20.639727 1.095287
-1.223409 7.689553 -1.513497
-1.257089 7.910139 0.700732
-1.212781 7.639915 -1.225195
-1.383412 8.724663 1.084637
-1.235006 7.797515 -0.969349
-1.211559 7.658108 1.228011
-1.206958 7.637686 -0.676503
-1.214744 7.686952 1.512734
-1.206081 7.640781 -0.405394
-1.209166 7.669043 1.792410
-1.203637 7.642622 -0.135047
-1.207745 7.677424 2.082458
-0.923283 5.923007 -1.606231
-1.071223 6.879952 -1.607500
-3.279237 21.085241 1.118315
-1.195219 7.693985 -1.513497
-1.230229 7.928476 0.701952
-1.182346 7.628693 -1.222692
-1.352643 8.727477 1.084394
-1.207781 7.801778 -0.969349
-1.186629 7.674004 1.229888
-1.179984 7.639884 -0.676329
-1.187461 7.697173 1.513879
-1.176853 7.637255 -0.404976
-1.181644 7.677275 1.793310
-1.176646 7.644801 -0.135012
-1.182702 7.693049 2.085564
-0.900856 5.914734 -1.603125
-1.045123 6.878052 -1.606151
-3.286041 21.625750 1.146367
-1.167763 7.694229 -1.512734
-1.201946 7.928782 0.701604
-1.155715 7.632772 -1.222692
-1.318273 8.716673 1.082444
-1.175618 7.782599 -0.966424
-1.159243 7.674193 1.229262
-1.154206 7.649866 -0.676851
-1.161754 7.709037 1.515405
-1.150779 7.645267 -0.405185
-1.151946 7.662081 1.788811
-1.149364 7.644906 -0.134942
-1.156412 7.700952 2.086599
-0.880771 5.921666 -1.604161
-1.022593 6.883408 -1.606600
-3.286159 22.146803 1.173372
-1.140321 7.694374 -1.511971
-1.173972 7.930958 0.701429
-1.130973 7.640471 -1.223318
-1.291685 8.736708 1.084394
-1.150961 7.794310 -0.967399
-1.130143 7.662559 1.226759
-1.127204 7.651877 -0.676677
-1.133896 7.697309 1.512352
-1.125418 7.649041 -0.405185
-1.127096 7.669715 1.789711
-1.122089 7.644914 -0.134872
-1.126159 7.682005 2.080388
-0.859466 5.913082 -1.601055
-0.997439 6.879221 -1.604801
-3.284979 22.683922 1.201215
-1.114804 7.698112 -1.511971
-1.145101 7.917061 0.699861
-1.104012 7.642418 -1.223005
-1.259760 8.731339 1.083175
-1.123186 7.794351 -0.966911
-1.102824 7.662547 1.226133
-1.099834 7.641769 -0.675457
-1.105901 7.693447 1.510826
-1.098716 7.652922 -0.405185
-1.099209 7.665887 1.787911
-1.094544 7.642847 -0.134767
-1.097701 7.674414 2.077282
-0.839361 5.919871 -1.602090
-0.972875 6.878802 -1.603901
-2.725296 19.293734 1.021179
-1.086826 7.694182 -1.510444
-1.117734 7.922982 0.700035
-1.074849 7.628620 -1.220189
-1.229000 8.733718 1.082931
-1.099285 7.821813 -0.969836
-1.076072 7.666350 1.226133
-1.090325 7.767890 -0.686264
-1.077133 7.683650 1.508154
-1.073102 7.664623 -0.405604
-1.072711 7.671607 1.788361
-1.068137 7.648601 -0.134802
-1.069570 7.668633 2.074694
-0.817632 5.915112 -1.600019
-0.947529 6.872503 -1.601652
-2.664579 19.326406 1.022435
-1.060227 7.699873 -1.510826
-1.089259 7.920914 0.699512
-1.049022 7.638196 -1.221128
-1.198234 8.735988 1.082687
-1.075749 7.853137 -0.973249
-1.050109 7.665962 1.225508
-1.058614 7.738091 -0.683301
-1.049772 7.683473 1.507391
-1.043102 7.644575 -0.404348
-1.046457 7.679166 1.789261
-1.043309 7.656063 -0.134872
-1.044653 7.675966 2.075729
-0.796723 5.916015 -1.599502
-0.925251 6.879471 -1.602551
-3.284656 24.454535 1.293117
-1.032562 7.697690 -1.509681
-1.061865 7.926644 0.699686
-1.023423 7.639676 -1.220815
-1.169523 8.741881 1.082931
-1.040761 7.789762 -0.964962
-1.023864 7.673497 1.226133
-1.019489 7.650892 -0.675283
-1.024807 7.690804 1.508154
-1.016690 7.640073 -0.403929
-1.018674 7.665208 1.785212
-1.015523 7.651730 -0.134733
-1.018108 7.681481 2.076247
-0.777353 5.920539 -1.600019
-1.038600 7.920983 0.139445
-0.900724 6.878795 -1.601652
-1.005504 7.689392 -1.507391
-1.036349 7.936047 0.700209
-0.995725 7.635366 -1.219563
-1.140284 8.755752 1.084150
-1.008956 7.757915 -0.960574
-0.994526 7.657435 1.223005
-0.993340 7.648304 -0.674760
-0.997956 7.694334 1.508154
-0.992322 7.661402 -0.404871
-0.991159 7.662920 1.783862
-0.987785 7.647295 -0.134593
-0.990792 7.681157 2.075211
-0.755945 5.917469 -1.598466
-1.012211 7.934478 0.139619
-0.876708 6.881897 -1.601652
-1.008964 7.931108 0.419002
-0.978159 7.688959 -1.506628
-1.005378 7.913922 0.697943
-0.968322 7.632916 -1.218625
-1.112955 8.785281 1.087318
-0.982366 7.765327 -0.961062
-0.968782 7.668699 1.224256
-0.966638 7.651725 -0.674760
-0.973793 7.719197 1.512352
-0.963827 7.650948 -0.404138
-0.964406 7.666333 1.783862
-0.959836 7.640776 -0.134418
-0.963494 7.680734 2.074176
-0.733381 5.904734 -1.594325
-0.852921 6.886848 -1.602101
-0.951556 7.694275 -1.507010
-0.978722 7.925293 0.698640
-0.939978 7.622527 -1.216435
-1.087136 8.828517 1.092193
-0.957678 7.788412 -0.963499
-0.942866 7.667948 1.223631
-0.939192 7.649120 -0.674237
-0.942543 7.687472 1.505483
-0.936630 7.650300 -0.403929
-0.937401 7.667719 1.783412
-0.934734 7.645903 -0.134453
-0.936144 7.668546 2.070035
-0.713690 5.914929 -1.596396
-0.828679 6.878031 -1.599402
-2.077865 17.271585 0.911692
-0.925393 7.703398 -1.508154
-0.950812 7.926682 0.698466
-0.914933 7.627563 -1.216747
-1.058091 8.834044 1.092437
-0.933022 7.801400 -0.964718
-0.915858 7.669231 1.223318
-0.912491 7.652351 -0.674237
-0.917744 7.696404 1.506628
-0.910073 7.643447 -0.403406
-0.911970 7.670785 1.783412
-0.908751 7.655076 -0.134558
-0.909826 7.675604 2.071070
-0.693397 5.911508 -1.594843
-1.458948 12.456946 0.218923
-0.802856 6.865397 -1.595803
-2.018949 17.290640 0.912320
-0.899616 7.704474 -1.507773
-0.925442 7.937708 0.699163
-0.888760 7.634634 -1.217373
-1.028392 8.847542 1.093655
-0.898002 7.737567 -0.956431
-0.888856 7.670419 1.223005
-0.886420 7.649397 -0.673714
-0.890646 7.697611 1.506246
-0.883156 7.644594 -0.403301
-0.884297 7.666178 1.781612
-0.882251 7.660187 -0.134593
-0.882584 7.674894 2.070035
-0.671667 5.904294 -1.592255
-0.778445 6.864285 -1.594903
-1.977901 17.468254 0.921322
-0.870948 7.691961 -1.504720
-0.896615 7.930991 0.698292
-0.862546 7.641616 -1.217999
-0.996833 8.845161 1.092924
-0.874322 7.770243 -0.960087
-0.861192 7.665624 1.221753
-0.860156 7.656405 -0.674062
-0.863331 7.696771 1.505483
-0.857360 7.655569 -0.403720
-0.857530 7.669218 1.781612
-0.853508 7.645334 -0.134279
-0.856222 7.681768 2.071070
-0.650205 5.898922 -1.590184
-0.754484 6.866960 -1.594903
-1.978768 18.038891 0.951049
-0.844094 7.694954 -1.504720
-0.868272 7.928132 0.697769
-0.835228 7.638689 -1.217060
-0.966599 8.854506 1.093655
-0.846761 7.769302 -0.959599
-0.833999 7.664655 1.221128
-0.832345 7.649458 -0.673191
-0.836884 7.703641 1.506246
-0.830630 7.658515 -0.403720
-0.830332 7.668290 1.780712
-0.827032 7.650255 -0.134314
-0.827742 7.669345 2.066929
-0.629609 5.901156 -1.590184
-0.730095 6.865676 -1.594003
-1.980303 18.653433 0.983079
-0.817227 7.697854 -1.504720
-0.840594 7.931114 0.697769
-0.806894 7.625843 -1.214557
-0.935683 8.857826 1.093655
-0.821928 7.793925 -0.962280
-0.807038 7.665555 1.220815
-0.805227 7.648353 -0.672842
-0.808960 7.696754 1.504338
-0.803476 7.657396 -0.403510
-0.803768 7.673079 1.781162
-0.800529 7.655084 -0.134349
-0.801365 7.676031 2.067964
-0.608812 5.901396 -1.589667
-0.704130 6.848798 -1.589504
-1.981668 19.307938 1.017202
-0.789555 7.692847 -1.503193
-0.813105 7.935982 0.697943
-0.780670 7.632544 -1.215183
-0.903151 8.845240 1.091706
-0.792098 7.771074 -0.959112
-0.780473 7.670290 1.221128
-0.778118 7.647153 -0.672494
-0.782884 7.707342 1.505865
-0.775128 7.644257 -0.402673
-0.776781 7.673900 1.780712
-0.774206 7.661811 -0.134418
-0.774180 7.674937 2.066929
-0.588781 5.909252 -1.591220
-0.679451 6.843457 -1.587705
-1.980045 19.978569 1.052162
-0.763469 7.703371 -1.504720
-0.785789 7.942737 0.698292
-0.754024 7.635222 -1.215183
-0.871488 8.840437 1.090731
-0.766132 7.785645 -0.960574
-0.753695 7.672968 1.221128
-0.752785 7.663703 -0.673714
-0.755211 7.702213 1.504338
-0.749216 7.654867 -0.403092
-0.748475 7.661048 1.777113
-0.747070 7.660486 -0.134349
-0.747382 7.677592 2.066929
-0.567413 5.903580 -1.589149
-1.016333 10.593739 0.185763
-0.656300 6.853547 -1.589504
-1.988790 20.768360 1.093403
-0.736199 7.702082 -1.503957
-0.757307 7.937498 0.697595
-0.727927 7.643707 -1.216122
-0.841185 8.849353 1.091462
-0.735201 7.748748 -0.955700
-0.727125 7.663626 1.219250
-0.725652 7.662316 -0.673365
-0.728319 7.704803 1.504338
-0.722117 7.653459 -0.402882
-0.722092 7.667494 1.778013
-0.720911 7.654958 -0.134209
-0.722824 7.689645 2.069517
-0.545019 5.886288 -1.583973
-0.632494 6.844043 -1.586805
-1.993702 21.614458 1.137575
-0.708231 7.692874 -1.501667
-0.728864 7.932157 0.696897
-0.702035 7.640177 -1.215183
-0.811656 8.850118 1.091218
-0.704075 7.691838 -0.948387
-0.700191 7.664150 1.218938
-0.696908 7.642977 -0.671448
-0.702762 7.707175 1.504338
-0.696735 7.655812 -0.402882
-0.696134 7.664024 1.776663
-0.693823 7.653445 -0.134139
-0.694238 7.672882 2.064341
-0.525669 5.889987 -1.584490
-0.608947 6.850091 -1.587705
-1.994882 22.440588 1.180699
-0.683062 7.699092 -1.502430
-0.703257 7.942469 0.697595
-0.673798 7.624872 -1.212367
-0.688184 7.818828 -0.963743
-0.674944 7.668398 1.219250
-0.671739 7.647231 -0.671622
-0.674142 7.690023 1.500522
-0.670005 7.658197 -0.402882
-0.669718 7.670290 1.777563
-0.668444 7.655703 -0.134139
-0.668956 7.677066 2.064858
-0.505600 5.897561 -1.586043
-0.584897 6.836539 -1.584105
-2.006581 23.502125 1.236175
-0.656518 7.705341 -1.503193
-0.675868 7.948845 0.697943
-0.648675 7.629033 -1.212680
-0.672514 7.925784 0.976661
-0.660579 7.801287 -0.961305
-0.648672 7.676612 1.220189
-0.644872 7.647544 -0.671448
-0.649629 7.703955 1.502812
-0.643770 7.650425 -0.402359
-0.644114 7.670528 1.777113
-0.642216 7.663968 -0.134244
-0.642799 7.687055 2.066929
-0.484537 5.893514 -1.584490
-0.559675 6.836696 -1.583655
-2.000113 24.484730 1.287465
-0.629619 7.707586 -1.503193
-0.649086 7.963072 0.698989
-0.620867 7.633328 -1.212993
-0.642498 7.916325 0.975199
-0.627172 7.744298 -0.953993
-0.620371 7.676970 1.219876
-0.618010 7.647762 -0.671273
-0.621074 7.702370 1.502048
-0.615564 7.650743 -0.402254
-0.615214 7.663124 1.774864
-0.613804 7.662284 -0.134174
-0.614311 7.685508 2.065894
-0.463808 5.893243 -1.583973
-0.535961 6.840550 -1.584105
-1.915872 24.507492 1.288302
-0.602096 7.701908 -1.501667
-0.622527 7.981179 0.700384
-0.594832 7.643327 -1.214244
-0.616088 7.934353 0.977149
-0.604430 7.801856 -0.960818
-0.592657 7.667271 1.217999
-0.592080 7.659805 -0.672145
-0.594182 7.704491 1.502048
-0.589621 7.662802 -0.402778
-0.588313 7.663282 1.774414
-0.586136 7.652417 -0.133965
-0.587478 7.687605 2.065894
-0.442511 5.885194 -1.581384
-0.511351 6.832663 -1.581856
-1.830169 24.512037 1.288197
-0.575209 7.703962 -1.501667
-1.386763 18.617113 1.633299
-0.567561 7.637476 -1.212993
-0.588537 7.938434 0.977392
-0.572216 7.736609 -0.952531
-0.565597 7.665353 1.217373
-0.564311 7.647917 -0.670925
-0.567571 7.710435 1.502812
-0.562432 7.658838 -0.402464
-0.562697 7.680838 1.778013
-0.560001 7.662394 -0.134104
-0.560223 7.683829 2.064341
-0.421273 5.877069 -1.578796
-0.486947 6.826631 -1.580056
-1.744022 24.510309 1.287779
-0.548033 7.702006 -1.500904
-1.315557 18.534395 1.625629
-0.540624 7.635470 -1.212367
-0.561100 7.944400 0.977880
-0.549111 7.794004 -0.959356
-0.539119 7.671221 1.217999
-0.537058 7.641890 -0.670228
-0.540380 7.708452 1.502048
-0.536111 7.666732 -0.402778
-0.535074 7.671090 1.775314
-0.532975 7.660312 -0.134034
-0.533396 7.685738 2.064341
-0.400623 5.876576 -1.578279
-0.462717 6.822456 -1.578707
-1.662468 24.511974 1.287569
-0.521673 7.711708 -1.502430
-1.251929 18.554777 1.627023
-0.514364 7.643224 -1.213306
-0.532832 7.938389 0.976905
-0.520734 7.758151 -0.954725
-0.513543 7.670996 1.217686
-0.511041 7.653657 -0.671099
-0.513206 7.706374 1.501285
-0.508023 7.648627 -0.401731
-0.510018 7.678656 1.776663
-0.507703 7.664032 -0.134069
-0.507777 7.685537 2.063823
-0.381010 5.875944 -1.577761
-0.439085 6.808395 -1.575107
-1.580524 24.507385 1.287046
-0.496351 7.717314 -1.503193
-1.191926 18.582685 1.629115
-0.488509 7.637002 -1.212054
-0.505874 7.930206 0.975686
-0.495891 7.773702 -0.956431
-0.488229 7.674628 1.217999
-0.486160 7.663263 -0.671796
-0.487897 7.711951 1.502048
-0.482784 7.652263 -0.401836
-0.483940 7.670580 1.774414
-0.482032 7.661683 -0.134000
-0.482531 7.691034 2.064858
-0.361407 5.875247 -1.577243
-0.416269 6.805923 -1.574207
-1.494608 24.506771 1.286732
-0.469802 7.703240 -1.500140
-1.132469 18.622332 1.632253
-0.463302 7.640552 -1.212367
-0.480051 7.939765 0.976661
-0.470426 7.803126 -0.959843
-0.460724 7.664454 1.216122
-0.460747 7.664833 -0.671796
-0.461614 7.701768 1.499759
-0.457761 7.659804 -0.402150
-0.457044 7.670278 1.773964
-0.455283 7.663319 -0.134000
-0.456026 7.698457 2.066411
-0.340112 5.862973 -1.573620
-0.392511 6.807335 -1.574207
-1.408716 24.505859 1.286418
-0.442799 7.702873 -1.499759
-1.069505 18.661978 1.635390
-0.436630 7.642122 -1.212367
-0.452113 7.937429 0.976174
-0.442508 7.792830 -0.958381
-0.434192 7.669960 1.216747
-0.433089 7.650482 -0.670402
-0.435064 7.709213 1.500904
-0.431018 7.661355 -0.402150
-0.430374 7.673773 1.774414
-0.427754 7.650885 -0.133755
-0.428611 7.690358 2.063823
-0.319117 5.854479 -1.571032
-0.368534 6.804772 -1.573308
-1.323052 24.508631 1.286313
-0.416012 7.706332 -1.500140
-1.005216 18.681513 1.636785
-0.409526 7.635709 -1.211116
-0.424719 7.944907 0.976905
-0.415516 7.798291 -0.958868
-0.407414 7.671430 1.216747
-0.406802 7.659905 -0.671099
-0.407838 7.704803 1.499759
-0.404380 7.664807 -0.402254
-0.403484 7.673282 1.773964
-0.401566 7.662316 -0.133930
-0.401867 7.693736 2.064341
-0.299074 5.863275 -1.573102
-0.343988 6.790447 -1.569708
-1.237498 24.513102 1.286313
-0.389111 7.707737 -1.500140
-0.629672 12.516301 1.096419
-0.382670 7.633147 -1.210490
-0.396193 7.930479 0.974955
-0.384642 7.726336 -0.949850
-0.380436 7.668859 1.216122
-0.382626 7.713017 -0.675631
-0.380749 7.702258 1.498996
-0.377034 7.654203 -0.401626
-0.376695 7.674643 1.773964
-0.374917 7.665668 -0.133965
-0.375288 7.700881 2.065894
-0.278696 5.866213 -1.573620
-0.320101 6.787714 -1.568809
-1.155820 24.509090 1.285895
-0.362201 7.709049 -1.500140
-0.585230 12.502501 1.095025
-0.356209 7.638382 -1.211116
-0.368598 7.933797 0.975199
-0.360146 7.781172 -0.956431
-0.355461 7.679945 1.217686
-0.353316 7.662559 -0.671099
-0.353948 7.705502 1.499377
-0.350403 7.657467 -0.401731
-0.349727 7.672018 1.773064
-0.349674 7.670865 -0.134034
-0.349838 7.704013 2.066411
-0.257794 5.857500 -1.571032
-0.297762 6.792631 -1.569708
-1.069916 24.504992 1.285476
-0.334950 7.702421 -1.498614
-0.543139 12.540297 1.098162
-0.331050 7.643468 -1.211741
-0.341775 7.923076 0.973736
-0.335872 7.818023 -0.960818
-0.328146 7.669298 1.215809
-0.326398 7.659764 -0.670751
-0.328229 7.702710 1.498614
-0.325260 7.664574 -0.402045
-0.324038 7.667295 1.771715
-0.322389 7.660051 -0.133825
-0.323104 7.709048 2.067447
-0.237505 5.837090 -1.565338
-0.273576 6.781946 -1.567009
-0.984457 24.510574 1.285581
-0.309407 7.703489 -1.498614
-0.505050 12.629624 1.105832
-0.304365 7.644578 -1.211741
-0.314589 7.936122 0.975199
-0.307956 7.803279 -0.958868
-0.300905 7.658553 1.213932
-0.300603 7.650850 -0.669879
-0.301341 7.703809 1.498614
-0.298194 7.657679 -0.401626
-0.297572 7.676168 1.773514
-0.295882 7.667124 -0.133930
-0.295452 7.690825 2.062270
-0.217343 5.843675 -1.566891
-0.399238 10.784969 0.188381
-0.249974 6.784808 -1.567459
-0.899179 24.521843 1.285999
-0.282657 7.708446 -1.499377
-0.277537 7.641645 -1.211116
-0.287026 7.941139 0.975686
-0.280356 7.794388 -0.957649
-0.274525 7.669427 1.215496
-0.273682 7.645879 -0.669356
-0.274096 7.695004 1.496706
-0.271460 7.658674 -0.401626
-0.270571 7.671317 1.772164
-0.269048 7.666112 -0.133895
-0.268805 7.697601 2.063823
-0.197006 5.846329 -1.567408
-1.389551 41.450401 0.723926
-0.225638 6.766162 -1.562960
-0.614553 18.428452 0.966331
-0.255876 7.713310 -1.500140
-0.511759 15.508289 1.357538
-0.250600 7.634670 -1.209864
-0.259108 7.936141 0.974955
-0.253539 7.807222 -0.959112
-0.249221 7.674243 1.216122
-0.247247 7.654753 -0.670053
-0.247421 7.701800 1.497851
-0.244730 7.659575 -0.401626
-0.243913 7.676111 1.773064
-0.243559 7.664963 -0.133860
-0.243767 7.713897 2.067964
-0.176424 5.841188 -1.565855
-1.240969 41.087009 0.717503
-0.203084 6.762978 -1.562060
-0.552005 18.490376 0.969471
-0.228835 7.710231 -1.499377
-0.225515 7.643357 -1.211116
-0.232671 7.932988 0.974467
-0.226547 7.770320 -0.954481
-0.222658 7.682966 1.217373
-0.220638 7.659553 -0.670402
-0.221877 7.702579 1.497851
-0.219383 7.662341 -0.401731
-0.218292 7.671034 1.771715
-0.216857 7.667766 -0.133895
-0.216569 7.705046 2.065376
-0.157158 5.845603 -1.566891
-1.097370 41.085091 0.717399
-0.179580 6.767541 -1.562960
-0.203060 7.703098 -1.497851
-0.496718 18.969015 1.660143
-0.198887 7.646073 -1.211429
-0.204881 7.929783 0.973980
-0.197994 7.715500 -0.947656
-0.195333 7.663949 1.214244
-0.196964 7.727962 -0.676329
-0.195143 7.709194 1.498996
-0.192483 7.657070 -0.401417
-0.191561 7.673697 1.772164
-0.189798 7.656482 -0.133685
-0.189765 7.709617 2.066411
-0.136299 5.826803 -1.561714
-0.952585 41.028694 0.716351
-0.155864 6.764231 -1.562060
-0.560763 24.521927 1.285476
-0.176168 7.703760 -1.497851
-0.431237 19.002504 1.662932
-0.172149 7.644746 -1.211116
-0.177331 7.936403 0.974711
-0.173178 7.811404 -0.959356
-0.168537 7.662609 1.213932
-0.168061 7.640958 -0.668659
-0.168016 7.700014 1.497087
-0.165932 7.665682 -0.401836
-0.164817 7.676268 1.772614
-0.163154 7.661096 -0.133755
-0.162768 7.706370 2.065376
-0.115921 5.825311 -1.561196
-0.809036 41.015774 0.716072
-0.132250 6.764733 -1.562060
-0.475168 24.523735 1.285476
-0.149354 7.708253 -1.498614
-0.365281 19.023811 1.664675
-0.145235 7.633450 -1.209239
-0.149703 7.940944 0.975199
-0.145426 7.786159 -0.956187
-0.141970 7.673026 1.215496
-0.141534 7.649467 -0.669356
-0.140994 7.692702 1.495561
-0.139098 7.662220 -0.401626
-0.138089 7.680693 1.773514
-0.136448 7.663618 -0.133790
-0.135736 7.699165 2.063306
-0.095585 5.825680 -1.561196
-0.666433 41.054340 0.716701
-0.108328 6.745669 -1.557561
-0.389650 24.531237 1.285790
-0.122506 7.712654 -1.499377
-0.299306 19.052860 1.667115
-0.118717 7.641811 -1.210490
-0.121859 7.933478 0.974224
-0.117641 7.746922 -0.951312
-0.115131 7.669524 1.214870
-0.114926 7.655890 -0.669879
-0.114051 7.687258 1.494416
-0.112320 7.660663 -0.401522
-0.111222 7.677231 1.772614
-0.109694 7.664048 -0.133790
-0.108968 7.707318 2.065376
-0.075150 5.818252 -1.559126
-0.523590 41.092403 0.717329
-0.084730 6.742109 -1.556661
-0.303763 24.512474 1.284743
-0.095630 7.716960 -1.500140
-0.233337 19.097622 1.670950
-0.092039 7.642179 -1.210490
-0.094093 7.927901 0.973492
-0.090693 7.755226 -0.952287
-0.088447 7.677780 1.216122
-0.088222 7.658237 -0.670053
-0.087327 7.697425 1.496324
-0.085535 7.657013 -0.401312
-0.084382 7.673675 1.771715
-0.083003 7.670383 -0.133895
-0.082147 7.715378 2.067447
-0.054860 5.820411 -1.559644
-0.061249 6.748209 -1.558011
-0.218232 24.515385 1.284848
-0.068628 7.709394 -1.498614
-0.167085 19.146135 1.675133
-0.065364 7.642453 -1.210490
-0.066420 7.928181 0.973492
-0.063962 7.797181 -0.957406
-0.061565 7.668165 1.214557
-0.061472 7.656506 -0.669879
-0.060443 7.695720 1.495943
-0.058851 7.663257 -0.401626
-0.057593 7.673923 1.771715
-0.056171 7.662627 -0.133755
-0.055185 7.711754 2.066411
-0.034472 5.808976 -1.556538
-0.037670 6.744484 -1.557111
-0.132681 24.521988 1.285162
-0.041736 7.713513 -1.499377
-0.100359 19.166525 1.676877
-0.038714 7.648561 -1.211429
-0.038776 7.934320 0.974224
-0.036690 7.785446 -0.955943
-0.034791 7.666358 1.214244
-0.034692 7.644720 -0.668833
-0.033573 7.693921 1.495561
-0.032086 7.659421 -0.401417
-0.030808 7.674077 1.771715
-0.029448 7.668776 -0.133860
-0.028207 7.696445 2.062270
-0.014187 5.805197 -1.555503
-0.014121 6.742627 -1.556661
-0.047096 24.526297 1.285371
-0.014804 7.709686 -1.498614
-0.033534 19.214573 1.681060
-0.012004 7.642724 -1.210490
-0.011079 7.932422 0.973980
-0.009402 7.696197 -0.944975
-0.008034 7.672359 1.215183
-0.008013 7.652764 -0.669530
-0.006721 7.697918 1.496324
-0.005347 7.659487 -0.401417
-0.004020 7.678036 1.772614
-0.002677 7.658834 -0.133685
-0.001343 7.696497 2.062270
0.005073 5.812940 -1.557573
0.008221 6.728994 -1.553512
0.034243 24.526320 1.285371
0.010764 7.709693 -1.498614
0.030206 19.230518 1.682454
0.013335 7.640746 -1.210177
0.015225 7.930429 0.973736
0.016209 7.739858 -0.950337
0.017416 7.676295 1.215809
0.017381 7.660718 -0.670228
0.018785 7.688081 1.494416
0.020036 7.653471 -0.401103
0.021440 7.678007 1.772614
0.022753 7.668798 -0.133860
0.024196 7.702255 2.063823
0.025357 5.810955 -1.557055
0.031653 6.717233 -1.550813
0.119833 24.520058 1.285057
0.037764 7.727277 -1.502048
0.097539 19.270147 1.685941
0.039994 7.638677 -1.209864
0.042855 7.920403 0.972517
0.043528 7.793351 -0.956918
0.044278 7.688039 1.217686
0.044235 7.680534 -0.671971
0.045588 7.682079 1.493271
0.048215 7.673987 1.771715
0.049524 7.668672 -0.133860
0.051122 7.707919 2.065376
0.045606 5.806967 -1.556020
0.055134 6.720979 -1.551712
0.205390 24.517494 1.284953
0.064584 7.709429 -1.498614
0.165345 19.333441 1.691519
0.066729 7.646392 -1.211116
0.070638 7.936085 0.974467
0.070424 7.759407 -0.952775
0.070970 7.672035 1.215183
0.072568 7.699542 1.496706
0.075004 7.673773 1.771715
0.076214 7.660454 -0.133720
0.078046 7.709625 2.065894
0.065702 5.791318 -1.551879
0.078547 6.716848 -1.550813
0.291025 24.520620 1.285162
0.091450 7.705231 -1.497851
0.233076 19.352669 1.693262
0.093442 7.648088 -1.211429
0.098416 7.941745 0.975199
0.096213 7.655897 -0.940100
0.097723 7.669765 1.214870
0.099341 7.691390 1.495179
0.101762 7.671515 1.771265
0.103002 7.664141 -0.133790
0.104775 7.695784 2.062270
0.085947 5.792985 -1.552397
0.101876 6.708739 -1.549013
0.376592 24.517458 1.285057
0.118408 7.708791 -1.498614
0.301171 19.387596 1.696399
0.120078 7.643765 -1.210803
0.126202 7.945323 0.975686
0.124940 7.780559 -0.955456
0.124753 7.685179 1.217373
0.124017 7.639807 -0.668485
0.126158 7.689033 1.494798
0.126956 7.656439 -0.401312
0.128640 7.676959 1.772614
0.129790 7.665734 -0.133825
0.131863 7.708892 2.065894
0.106167 5.792650 -1.552397
0.125004 6.692755 -1.545414
0.462467 24.531971 1.285895
0.145537 7.720108 -1.500904
0.369456 19.418297 1.699188
0.146723 7.641325 -1.210490
0.153703 7.932926 0.974224
0.152799 7.815800 -0.959843
0.151542 7.682721 1.217060
0.150765 7.643312 -0.668833
0.152878 7.682657 1.493653
0.153603 7.651956 -0.401103
0.155518 7.680360 1.773514
0.156710 7.673231 -0.133965
0.158774 7.708385 2.065894
0.126262 5.786450 -1.550844
0.148188 6.684485 -1.543614
0.546364 24.452333 1.281812
0.172442 7.717590 -1.500522
0.437960 19.448761 1.701977
0.173390 7.640766 -1.210490
0.181441 7.934325 0.974467
0.179533 7.791405 -0.956918
0.178308 7.680171 1.216747
0.177531 7.646723 -0.669182
0.179835 7.687965 1.494798
0.180362 7.653369 -0.401207
0.182229 7.675874 1.772614
0.183448 7.670638 -0.133930
0.185682 7.707784 2.065894
0.146605 5.791768 -1.552397
0.171422 6.680031 -1.542714
0.571562 22.122248 1.159765
0.199125 7.707128 -1.498614
0.502215 19.307693 1.689775
0.200166 7.644063 -1.211116
0.209291 7.939597 0.975199
0.206833 7.794699 -0.957406
0.205170 7.681476 1.217060
0.204330 7.650040 -0.669530
0.206672 7.687290 1.494798
0.207128 7.654689 -0.401312
0.208917 7.671295 1.771715
0.210005 7.661956 -0.133790
0.212797 7.714813 2.067964
0.166263 5.771911 -1.547220
0.194624 6.675496 -1.541814
0.596371 20.455225 1.072469
0.226025 7.706387 -1.498614
0.534946 18.130823 1.586932
0.226963 7.647267 -1.211741
0.237003 7.938818 0.975199
0.232678 7.793971 -0.957406
0.230407 7.672856 1.215809
0.230791 7.641315 -0.668833
0.233439 7.684559 1.494416
0.233849 7.653920 -0.401312
0.234536 7.676403 1.773064
0.235468 7.663216 -0.133825
0.237781 7.694756 2.062788
0.185218 5.765534 -1.545667
0.216698 6.672866 -1.541365
0.630237 19.407122 1.017620
0.251710 7.709518 -1.499377
0.558329 17.009830 1.488969
0.252193 7.642524 -1.211116
0.263527 7.943940 0.975930
0.257143 7.751493 -0.952287
0.256111 7.679946 1.217060
0.255997 7.636524 -0.668485
0.258923 7.683743 1.494416
0.259498 7.661087 -0.401731
0.260121 7.679478 1.773964
0.261357 7.676383 -0.134069
0.263167 7.690064 2.061753
0.204335 5.764889 -1.545667
0.238266 6.656531 -1.537765
0.698977 19.432749 1.019086
0.277555 7.716489 -1.500904
0.581345 16.084021 1.408088
0.277677 7.645594 -1.211741
0.289722 7.939055 0.975442
0.287329 7.835849 -0.962768
0.283352 7.690850 1.218938
0.281685 7.645589 -0.669356
0.284182 7.676956 1.493271
0.284607 7.652200 -0.401312
0.286997 7.680471 1.774414
0.288000 7.671427 -0.134000
0.290447 7.700681 2.064858
0.224606 5.768002 -1.546703
0.261196 6.647870 -1.535966
0.968111 24.531214 1.286627
0.304719 7.721359 -1.502048
0.604495 15.249727 1.335226
0.304680 7.652473 -1.212993
0.317752 7.945929 0.976417
0.313483 7.805046 -0.959112
0.310040 7.685867 1.218312
0.308695 7.652522 -0.670053
0.310901 7.673956 1.492890
0.311315 7.651160 -0.401312
0.313568 7.673581 1.773064
0.315106 7.678367 -0.134139
0.317324 7.699620 2.064858
0.244249 5.755601 -1.543597
0.284398 6.646918 -1.535966
1.053827 24.529678 1.286732
0.331082 7.706518 -1.499377
0.623717 14.459271 1.266199
0.331559 7.655310 -1.213619
0.346003 7.956671 0.977880
0.340118 7.790021 -0.957406
0.336865 7.684738 1.218312
0.335491 7.653389 -0.670228
0.337943 7.678709 1.494035
0.337581 7.640051 -0.400789
0.340268 7.670493 1.772614
0.341371 7.665234 -0.133930
0.344374 7.702325 2.065894
0.263808 5.743135 -1.540491
0.307600 6.645885 -1.535966
1.139730 24.531837 1.287046
0.358256 7.711199 -1.500522
0.641699 13.760427 1.205190
0.358558 7.660026 -1.214557
0.374149 7.963346 0.978855
0.368709 7.818530 -0.961062
0.363783 7.685488 1.218625
0.361829 7.644209 -0.669530
0.364747 7.677482 1.494035
0.367412 7.677044 1.774414
0.368320 7.667990 -0.134000
0.370880 7.693358 2.063823
0.283567 5.736391 -1.538938
0.330408 6.636985 -1.534166
1.225051 24.521725 1.286732
0.385365 7.713823 -1.501285
0.659804 13.161137 1.152896
0.384999 7.652808 -1.213619
0.402343 7.969922 0.979830
0.395900 7.815213 -0.960818
0.390610 7.684171 1.218625
0.391842 7.682044 1.495179
0.392745 7.673411 -0.402673
0.394309 7.677661 1.774864
0.395082 7.666658 -0.134000
0.397536 7.688159 2.062788
0.303692 5.737295 -1.539456
2.663774 50.157665 0.876739
0.353261 6.629953 -1.532816
1.311287 24.529266 1.287360
0.412501 7.716352 -1.502048
0.703183 13.111003 1.148713
0.411492 7.647473 -1.212993
0.634972 11.762411 1.446346
0.422643 7.803873 -0.959599
0.418390 7.700513 1.221440
0.415724 7.651445 -0.670402
0.418016 7.668867 1.492890
0.418875 7.660028 -0.402045
0.421529 7.684021 1.776663
0.422503 7.677212 -0.134209
0.424585 7.690581 2.063823
0.324040 5.741987 -1.541009
2.836569 50.108135 0.876041
0.375298 6.609223 -1.528317
1.397112 24.528528 1.287569
0.439652 7.718785 -1.502812
0.751215 13.148252 1.152199
0.438526 7.651906 -1.213932
0.648915 11.288450 1.388336
0.449423 7.794422 -0.958624
0.445383 7.700978 1.221753
0.444232 7.657825 -0.671099
0.445467 7.679121 1.495179
0.445610 7.658519 -0.402045
0.448350 7.682503 1.776663
0.449301 7.675691 -0.134209
0.451879 7.696766 2.065894
0.344392 5.729190 -1.537903
3.024194 50.309513 0.879741
0.398131 6.603983 -1.527418
1.482610 24.521505 1.287465
0.467113 7.703404 -1.500140
1.183496 19.461573 1.705812
0.466807 7.654191 -1.214557
0.660273 10.826429 1.331788
0.476387 7.788843 -0.958137
0.471776 7.691490 1.220502
0.471566 7.666172 -0.671971
0.473850 7.681355 1.495943
0.473679 7.656835 -0.402045
0.476262 7.676919 1.775764
0.475343 7.662100 -0.134000
0.478745 7.695142 2.065894
0.364384 5.727953 -1.537903
0.422459 6.604424 -1.527868
1.572854 24.521889 1.287779
0.494498 7.709564 -1.501667
1.252962 19.481182 1.707904
0.493779 7.656458 -1.215183
0.675095 10.439631 1.284503
0.506214 7.806855 -0.960574
0.500479 7.697594 1.221753
0.497679 7.654538 -0.671099
0.501165 7.687492 1.497469
0.500662 7.659120 -0.402254
0.503441 7.681043 1.777113
0.503687 7.664298 -0.134069
0.507198 7.697191 2.066929
0.383602 5.715081 -1.534797
0.445115 6.597076 -1.526518
1.657505 24.502300 1.287046
0.521408 7.707790 -1.501667
1.336870 19.711252 1.728473
0.519696 7.642863 -1.213306
0.688312 10.096566 1.242580
0.533058 7.799098 -0.959843
0.527073 7.691858 1.221128
0.524394 7.652754 -0.671099
0.527326 7.675902 1.495561
0.528357 7.671274 -0.402987
0.530383 7.681183 1.777563
0.530436 7.662493 -0.134069
0.534065 7.695374 2.066929
0.403550 5.713707 -1.534797
0.467728 6.589651 -1.525168
1.736775 24.468777 1.285581
0.549009 7.715715 -1.503575
1.428051 20.020464 1.756014
0.547219 7.652824 -1.215183
0.703116 9.808980 1.207482
0.559200 7.801248 -0.960331
0.553429 7.701890 1.223005
0.551678 7.658825 -0.671796
0.553553 7.666182 1.494035
0.554697 7.663406 -0.402673
0.556979 7.694931 1.781162
0.556713 7.672658 -0.134279
0.559860 7.697414 2.067964
0.422637 5.714264 -1.535315
0.488566 6.574460 -1.522019
1.811981 24.383211 1.281394
0.574445 7.711894 -1.503193
1.497109 20.051382 1.759151
0.573182 7.658847 -1.216435
0.735940 9.810553 1.207969
0.583733 7.781534 -0.958137
0.578521 7.694103 1.222066
0.577820 7.666888 -0.672668
0.580009 7.678008 1.496706
0.579804 7.657543 -0.402464
0.581462 7.679440 1.778013
0.582303 7.672764 -0.134314
0.585384 7.695515 2.067964
0.440987 5.705127 -1.533244
0.510970 6.580575 -1.523818
1.889434 24.333261 1.279091
0.599861 7.707990 -1.502812
1.570417 20.133707 1.766821
0.598886 7.660842 -1.217060
0.770323 9.831808 1.210894
0.611700 7.807263 -0.961549
0.604034 7.692142 1.222066
0.603087 7.662943 -0.672494
0.606234 7.685828 1.498614
0.606455 7.671505 -0.403301
0.606927 7.677469 1.778013
0.607904 7.672784 -0.134349
0.611205 7.697383 2.069000
0.458973 5.692080 -1.530138
0.531844 6.567190 -1.521119
1.966564 24.283068 1.276788
0.625103 7.702044 -1.502048
1.637170 20.128389 1.766821
0.624286 7.658814 -1.217060
0.803733 9.839091 1.212113
0.637427 7.803213 -0.961305
0.630343 7.699941 1.223631
0.628493 7.660902 -0.672494
0.631720 7.683775 1.498614
0.632218 7.673434 -0.403510
0.633821 7.692894 1.782062
0.633178 7.668733 -0.134314
0.636088 7.687613 2.066929
0.479997 5.692284 -1.530656
0.556405 6.571022 -1.522469
1.992871 23.535362 1.237850
0.654160 7.709482 -1.503957
1.713967 20.157988 1.769959
0.652354 7.656475 -1.217060
1.280375 14.996410 1.848027
0.668905 7.818508 -0.963499
0.659064 7.703484 1.224569
0.656059 7.652591 -0.671971
0.659376 7.675540 1.497469
0.660337 7.671065 -0.403510
0.663525 7.692345 1.782512
0.661455 7.668353 -0.134349
0.663929 7.681381 2.065894
0.499186 5.682876 -1.528585
3.629091 41.314602 0.723926
0.576483 6.549728 -1.517970
2.009034 22.780199 1.198493
0.680202 7.697373 -1.502048
1.791004 20.227299 1.776583
0.677042 7.646399 -1.215809
1.330095 14.992083 1.848027
0.693776 7.804384 -0.962037
0.686653 7.709006 1.225821
0.684360 7.668115 -0.673540
0.684824 7.673312 1.497469
0.685773 7.668833 -0.403510
0.690072 7.701748 1.785212
0.688217 7.665998 -0.134349
0.691602 7.688637 2.068482
0.517676 5.677341 -1.527550
3.775114 41.321598 0.724275
0.598985 6.543796 -1.517070
2.025423 22.084883 1.162277
0.705184 7.689210 -1.500904
1.861357 20.256958 1.779720
0.704814 7.655792 -1.217686
1.392990 15.101997 1.862164
0.723026 7.823658 -0.964718
0.714471 7.716396 1.227385
0.710522 7.673739 -0.674237
0.712510 7.680649 1.499377
0.712356 7.664403 -0.403406
0.716231 7.691531 1.783412
0.715714 7.671513 -0.134488
0.718978 7.691946 2.070035
0.537857 5.679347 -1.528585
0.621272 6.535844 -1.515720
2.037750 21.397690 1.126479
0.730533 7.671067 -1.497851
1.923716 20.163071 1.772050
0.731911 7.657218 -1.218312
1.441539 15.053570 1.856802
0.750515 7.823062 -0.964962
0.740645 7.705991 1.226133
0.738065 7.679145 -0.674934
0.739318 7.678114 1.499377
0.739291 7.663858 -0.403510
0.743448 7.692863 1.784312
0.741719 7.661006 -0.134349
0.746571 7.697081 2.072105
0.555977 5.660131 -1.523927
3.911516 39.749928 0.697189
0.644276 6.535575 -1.516170
2.053932 20.798147 1.095287
0.756725 7.662609 -1.496706
1.954861 19.759689 1.737188
0.758637 7.654616 -1.218312
1.495643 15.064250 1.858751
0.779196 7.834222 -0.966668
0.767541 7.703358 1.226133
0.764027 7.654581 -0.673017
0.766698 7.681348 1.500522
0.767034 7.671168 -0.404034
0.771464 7.701855 1.787011
0.769054 7.664340 -0.134453
0.773236 7.692506 2.071588
0.575741 5.648446 -1.521338
3.950288 38.755268 0.679981
0.666289 6.525532 -1.514371
2.105796 20.588186 1.084610
0.784006 7.651972 -1.495179
1.972344 19.217260 1.690124
0.787090 7.655714 -1.218938
1.549846 15.074734 1.860701
0.807760 7.843302 -0.968130
0.796448 7.720282 1.229262
0.791153 7.655830 -0.673365
0.794242 7.672627 1.499377
0.795762 7.674265 -0.404348
0.799686 7.698976 1.787011
0.796011 7.663597 -0.134488
0.799485 7.683995 2.070035
0.596263 5.654087 -1.523409
3.969829 37.581154 0.659631
0.689591 6.517232 -1.513021
2.577375 24.358410 1.283697
0.810090 7.643332 -1.494035
1.982206 18.671356 1.642711
0.813393 7.648991 -1.218312
1.606766 15.084743 1.862651
0.839237 7.865950 -0.971299
0.823813 7.721384 1.229888
0.818933 7.662928 -0.674237
0.821227 7.671761 1.499759
0.822334 7.669455 -0.404243
0.827390 7.703888 1.788811
0.824041 7.672701 -0.134698
0.828161 7.698445 2.074694
0.617253 5.663493 -1.526515
4.101375 37.631397 0.660748
0.710772 6.511035 -1.512121
2.661718 24.343309 1.283382
0.836339 7.636554 -1.493271
1.997832 18.212767 1.602968
0.839610 7.654107 -1.219563
1.659812 15.106957 1.866063
0.862931 7.841418 -0.968618
0.852927 7.738096 1.233017
0.846983 7.671905 -0.675283
0.847308 7.674849 1.500904
0.847984 7.668671 -0.404348
0.852073 7.693355 1.787011
0.850152 7.663816 -0.134593
0.855457 7.699347 2.075729
0.635598 5.657576 -1.525479
4.242538 37.704285 0.662284
0.731751 6.493022 -1.508522
2.743330 24.342285 1.283801
0.859896 7.618132 -1.490218
2.008087 17.762571 1.563923
0.866769 7.655055 -1.220189
1.716565 15.136576 1.870451
0.892088 7.854138 -0.970568
0.877467 7.725410 1.231452
0.872872 7.673013 -0.675631
0.875206 7.681598 1.502812
0.874520 7.663679 -0.404243
0.879585 7.696142 1.788361
0.875563 7.660954 -0.134593
0.881202 7.698388 2.076247
0.653118 5.636132 -1.520303
4.356951 37.598637 0.660678
0.753727 6.494432 -1.509422
2.829904 24.346447 1.284534
0.884892 7.601434 -1.487547
2.015623 17.288412 1.522785
0.893521 7.663911 -1.222066
1.771359 15.170234 1.875326
0.919510 7.862967 -0.972030
0.905575 7.732111 1.233017
0.900117 7.673877 -0.675980
0.901363 7.684504 1.503957
0.902490 7.682557 -0.405394
0.905555 7.697053 1.789261
0.902770 7.661824 -0.134663
0.908068 7.695265 2.076247
0.670663 5.624345 -1.517715
4.487703 37.579227 0.660608
0.775931 6.487891 -1.508522
2.916292 24.348322 1.285162
0.908929 7.588710 -1.485639
2.024065 16.874123 1.486877
0.920034 7.658784 -1.221753
1.825722 15.175785 1.876788
0.947428 7.863651 -0.972517
0.933035 7.732824 1.233642
0.925558 7.670850 -0.675980
0.927709 7.677412 1.503193
0.928584 7.673411 -0.405080
0.934061 7.707388 1.792410
0.929989 7.662596 -0.134733
0.934693 7.690130 2.075729
0.690525 5.623887 -1.518233
4.621284 37.583179 0.660958
0.797143 6.473538 -1.505822
3.002238 24.345922 1.285581
0.934450 7.577698 -1.484113
2.036074 16.487297 1.453409
0.946276 7.651605 -1.221128
1.879657 15.177199 1.877763
0.976829 7.876055 -0.974467
0.961238 7.739323 1.235207
0.952572 7.669550 -0.676154
0.953289 7.664386 1.501285
0.954378 7.662195 -0.404662
0.960475 7.700213 1.791510
0.958220 7.671208 -0.134942
0.962971 7.698322 2.078835
0.709182 5.613776 -1.516162
4.755468 37.590622 0.661376
0.818267 6.459116 -1.503123
3.088957 24.349165 1.286313
0.962624 7.588023 -1.486784
2.044898 16.096649 1.419593
0.973978 7.656093 -1.222379
1.937136 15.205993 1.882150
1.001801 7.852906 -0.972030
0.991253 7.759433 1.238961
0.984894 7.709657 -0.679989
0.983028 7.684380 1.505865
0.980356 7.652874 -0.404348
0.986854 7.692947 1.790610
0.984735 7.665833 -0.134907
0.990822 7.702578 2.080905
0.730019 5.620845 -1.518750
4.890773 37.605526 0.661935
0.841562 6.462018 -1.504473
3.172907 24.330313 1.285895
0.985553 7.557362 -1.481441
2.054632 15.733803 1.388217
1.001720 7.660482 -1.223631
1.980413 15.124342 1.872888
1.029725 7.853298 -0.972517
1.017303 7.748091 1.237710
1.012836 7.714074 -0.680686
1.009844 7.680902 1.505865
1.009933 7.671187 -0.405499
1.014463 7.695252 1.791960
1.011487 7.662350 -0.134907
1.017199 7.695241 2.079870
0.747082 5.599113 -1.513574
5.024386 37.606068 0.662249
0.862307 6.445520 -1.501323
3.256491 24.341431 1.287046
1.010886 7.546092 -1.479915
2.060269 15.359241 1.355795
1.029508 7.664769 -1.224882
2.001182 14.879282 1.843396
1.059246 7.865395 -0.974467
1.044044 7.752507 1.238961
1.034168 7.669026 -0.677026
1.035601 7.669548 1.504338
1.037502 7.673553 -0.405813
1.042889 7.703250 1.794659
1.037697 7.664898 -0.135012
1.043489 7.697570 2.081423
0.765572 5.588816 -1.511503
5.149890 37.595142 0.662354
0.883410 6.440695 -1.500873
3.290900 23.961880 1.267577
1.037486 7.544462 -1.480296
2.070933 15.040099 1.328254
1.053571 7.651528 -1.223318
2.011475 14.589389 1.808297
1.085868 7.865771 -0.974955
1.072453 7.758598 1.240525
1.076503 7.777864 -0.686962
1.061569 7.669960 1.505101
1.063493 7.674027 -0.406022
1.069231 7.705541 1.796009
1.065274 7.667171 -0.135117
1.070350 7.693881 2.081423
0.784100 5.586246 -1.511503
5.286109 37.612576 0.662982
0.903713 6.422134 -1.497274
3.303728 23.447906 1.240990
1.060580 7.527372 -1.477625
2.079609 14.741167 1.302455
1.081656 7.657584 -1.224882
2.017901 14.267796 1.769299
1.115547 7.877657 -0.976905
1.101195 7.766542 1.242403
1.086838 7.655703 -0.676503
1.088330 7.666209 1.505101
1.090276 7.670269 -0.406022
1.098320 7.717196 1.799608
1.093436 7.673305 -0.135291
1.098294 7.697747 2.083493
0.804017 5.579511 -1.510468
1.107769 7.687412 0.135570
0.925848 6.417012 -1.496824
3.310746 22.918325 1.213566
1.087599 7.519549 -1.476862
2.091931 14.445560 1.277006
1.111131 7.663342 -1.226446
2.026679 13.977769 1.734201
1.140181 7.854071 -0.974467
1.129433 7.770471 1.243654
1.117861 7.681436 -0.679118
1.118974 7.679652 1.508536
1.118956 7.670174 -0.406232
1.123779 7.693836 1.795109
1.121372 7.677356 -0.135431
1.125439 7.695777 2.084011
0.823207 5.574759 -1.509950
1.139452 7.707037 0.135989
0.948790 6.409720 -1.495924
3.324041 22.456161 1.189701
1.111827 7.502112 -1.474190
2.097312 14.134665 1.250162
1.138744 7.665279 -1.227385
2.039344 13.711067 1.702027
1.169551 7.853765 -0.974955
1.156262 7.764527 1.243341
1.144372 7.675517 -0.678943
1.146059 7.677642 1.508918
1.147201 7.676096 -0.406755
1.150339 7.687939 1.794659
1.146683 7.663507 -0.135256
1.154866 7.708998 2.088670
0.840641 5.558480 -1.506327
1.165002 7.703217 0.135989
0.970622 6.410392 -1.496824
3.332964 21.986292 1.165417
1.137421 7.494303 -1.473427
2.105923 13.859368 1.226456
1.165045 7.667320 -1.228324
2.044499 13.439289 1.669123
1.194391 7.841994 -0.973980
1.183948 7.764349 1.243967
1.171160 7.671475 -0.678943
1.171811 7.675739 1.509299
1.173855 7.680148 -0.407174
1.178482 7.701419 1.798709
1.174338 7.665387 -0.135361
1.180013 7.693462 2.085564
0.858480 5.551844 -1.505292
1.189741 7.685271 0.135745
0.991800 6.399261 -1.495025
3.352736 21.607426 1.145948
1.160763 7.480789 -1.471519
2.131690 13.722369 1.214951
1.189679 7.649544 -1.226133
2.052005 13.179041 1.637680
1.225425 7.861314 -0.976905
1.214701 7.783591 1.247721
1.196898 7.669518 -0.679118
1.197993 7.667723 1.508536
1.201273 7.679951 -0.407383
1.205356 7.697258 1.798709
1.202638 7.671118 -0.135535
1.207458 7.693114 2.086599
0.878153 5.550722 -1.505809
1.217814 7.688970 0.135884
1.011994 6.382288 -1.491875
3.429377 21.603483 1.146367
1.187788 7.482510 -1.472664
2.187085 13.762069 1.219135
1.218548 7.658999 -1.228324
2.059586 12.930672 1.607700
1.252235 7.853067 -0.976417
1.242488 7.783204 1.248347
1.224607 7.671196 -0.679640
1.226298 7.673188 1.510444
1.225867 7.661905 -0.406650
1.232836 7.696852 1.799608
1.230356 7.672797 -0.135640
1.236757 7.704111 2.090740
0.896907 5.543808 -1.504774
1.247841 7.704413 0.136233
1.032709 6.369098 -1.489626
3.402368 20.960514 1.112872
1.213586 7.476380 -1.472282
3.247522 19.984518 1.771353
1.246860 7.664448 -1.229888
2.076628 12.750988 1.586251
1.277722 7.836893 -0.974955
1.269965 7.780769 1.248660
1.252338 7.672773 -0.680163
1.253707 7.672736 1.511207
1.254218 7.667434 -0.407174
1.260953 7.700194 1.801408
1.259718 7.684243 -0.135919
1.265208 7.709279 2.093328
0.916883 5.544456 -1.505809
1.275383 7.703956 0.136303
1.056530 6.375067 -1.491875
3.410131 20.554445 1.091937
1.237747 7.460478 -1.469993
1.321422 7.956204 0.705613
1.275229 7.669792 -1.231452
1.307682 7.848051 -0.976905
1.296795 7.774340 1.248347
1.281738 7.684076 -0.681558
1.281451 7.674122 1.512352
1.283279 7.676799 -0.407906
1.288148 7.697668 1.801858
1.285210 7.671910 -0.135780
1.292428 7.706720 2.093846
0.933336 5.524077 -1.501150
1.305266 7.717202 0.136617
1.078124 6.367498 -1.490976
1.262471 7.448369 -1.468466
1.347185 7.939758 0.704567
1.302322 7.667242 -1.231765
1.354995 7.968918 0.992504
1.334401 7.839523 -0.976417
1.324887 7.783629 1.250537
1.306208 7.665807 -0.680338
1.311204 7.687020 1.515787
1.311747 7.682117 -0.408430
1.316978 7.704650 1.804557
1.311320 7.671548 -0.135850
1.317650 7.700489 2.093328
0.952614 5.520786 -1.501150
1.332553 7.722684 0.136792
1.098569 6.360047 -1.490076
1.376158 7.958816 0.423293
1.287795 7.440047 -1.467703
1.326390 7.655096 -1.230514
2.084336 12.016984 1.497531
1.360393 7.835054 -0.976417
1.354077 7.790634 1.252414
1.334327 7.669053 -0.681035
1.335007 7.672958 1.513879
1.337902 7.681660 -0.408639
1.344527 7.711759 1.807257
1.340156 7.678743 -0.136059
1.345522 7.701551 2.094882
0.972587 5.527111 -1.503739
1.354990 7.692384 0.136338
1.117719 6.338901 -1.486027
4.334673 24.558163 1.306934
1.313820 7.443470 -1.469229
3.282867 18.580139 1.650730
1.355858 7.665980 -1.233017
2.089584 11.802438 1.471694
1.389118 7.838078 -0.977392
1.384025 7.801420 1.254917
1.360794 7.670471 -0.681558
1.362124 7.670185 1.514260
1.363658 7.671044 -0.408325
1.373147 7.716612 1.809506
1.370457 7.693706 -0.136408
1.374091 7.706316 2.097470
0.991193 5.519878 -1.502703
1.383605 7.697448 0.136513
1.139493 6.333043 -1.485577
4.424626 24.566467 1.308190
1.336317 7.419517 -1.465413
3.291854 18.258762 1.623188
1.384010 7.668977 -1.234268
2.096889 11.607539 1.448295
1.417178 7.837088 -0.977880
1.411247 7.796541 1.254917
1.389688 7.677438 -0.682604
1.389588 7.669247 1.515024
1.390785 7.668201 -0.408430
1.398685 7.704102 1.807707
1.396945 7.686908 -0.136373
1.402713 7.710977 2.100058
1.009760 5.512584 -1.501668
1.412624 7.704373 0.136722
1.160539 6.323277 -1.484227
4.473908 24.352470 1.297618
1.360791 7.407083 -1.463887
3.301504 17.953232 1.597042
1.411847 7.669927 -1.235207
2.102865 11.412734 1.424896
1.446681 7.843806 -0.979342
1.438097 7.789625 1.254605
1.418652 7.684296 -0.683650
1.420634 7.687516 1.519603
1.421897 7.686869 -0.409686
1.427696 7.710670 1.810406
1.423407 7.680018 -0.136338
1.430673 7.711733 2.101611
1.026867 5.497632 -1.498562
1.439878 7.701361 0.136757
1.184039 6.326849 -1.486027
4.562192 24.354372 1.298560
1.385190 7.394569 -1.462360
3.309814 17.651775 1.571244
1.439342 7.668835 -1.235832
2.108968 11.225836 1.402472
1.474787 7.842610 -0.979830
1.468204 7.800087 1.257107
1.457999 7.745868 -0.689576
1.446731 7.678652 1.518840
1.449834 7.687746 -0.410000
1.456412 7.715213 1.812656
1.453175 7.690722 -0.136617
1.456867 7.702894 2.100575
1.046775 5.497809 -1.499598
1.465257 7.688430 0.136617
1.203922 6.311193 -1.483327
4.644421 24.346960 1.298979
1.410259 7.385831 -1.461597
3.315312 17.346569 1.545097
1.463870 7.652123 -1.233955
2.114171 11.040985 1.380292
1.504398 7.849112 -0.981292
1.495548 7.802937 1.258359
1.471884 7.672248 -0.683475
1.475379 7.683195 1.520748
1.476662 7.682638 -0.410000
1.483697 7.711997 1.813105
1.480180 7.693716 -0.136757
1.483866 7.705608 2.102646
1.065220 5.490330 -1.498562
1.492262 7.691382 0.136757
1.222617 6.295687 -1.480628
4.728624 24.326677 1.298769
1.435656 7.378937 -1.461215
3.325567 17.076744 1.522088
1.491883 7.660799 -1.236145
2.116209 10.856607 1.358112
1.532702 7.855769 -0.982754
1.526940 7.818995 1.261801
1.500570 7.676840 -0.684347
1.501224 7.680188 1.521129
1.502132 7.677699 -0.410000
1.510014 7.710859 1.814005
1.508567 7.696352 -0.136897
1.512616 7.709860 2.105234
1.082299 5.481081 -1.497009
1.521817 7.699858 0.137001
1.243452 6.285646 -1.479278
4.744934 23.985619 1.281394
1.460497 7.376061 -1.461597
3.329497 16.799829 1.498381
1.522076 7.672984 -1.238961
2.122777 10.691441 1.338369
1.560109 7.850372 -0.982754
1.553243 7.815826 1.262113
1.526410 7.673776 -0.684521
1.529556 7.682603 1.522656
1.528528 7.670451 -0.409895
1.537685 7.709363 1.814905
1.536430 7.703073 -0.137106
1.538930 7.708591 2.106270
1.100284 5.471587 -1.495457
1.548528 7.700650 0.137106
1.266595 6.292951 -1.481978
4.748950 23.573412 1.260250
1.482357 7.351673 -1.457781
3.337672 16.538116 1.476070
1.547511 7.667894 -1.238961
2.127564 10.532571 1.319358
1.586922 7.849048 -0.983242
1.579735 7.806484 1.261488
1.555163 7.678164 -0.685393
1.556585 7.685184 1.524182
1.557926 7.684914 -0.410942
1.563628 7.706131 1.815355
1.562910 7.695704 -0.137071
1.567366 7.710746 2.108340
1.116486 5.458446 -1.492868
1.576203 7.699116 0.137176
1.287379 6.282764 -1.480628
4.759778 23.208427 1.241618
1.505937 7.342871 -1.457018
3.342021 16.281042 1.454106
1.577843 7.679860 -1.241777
2.133127 10.373417 1.300346
1.617514 7.859015 -0.985192
1.609365 7.812531 1.263365
1.581149 7.668787 -0.685044
1.586968 7.697010 1.527617
1.585955 7.685296 -0.411256
1.591304 7.704443 1.816255
1.590572 7.694117 -0.137141
1.593491 7.701443 2.107305
1.135304 5.448643 -1.491315
1.601435 7.685736 0.137036
1.308110 6.272509 -1.479278
4.768128 22.843658 1.222987
1.533645 7.341145 -1.457781
3.350289 16.022959 1.432143
1.604769 7.668224 -1.240838
2.138424 10.218239 1.281822
1.644122 7.849434 -0.984704
1.639465 7.820398 1.265555
1.608728 7.667120 -0.685393
1.614766 7.689220 1.527235
1.616575 7.691160 -0.411884
1.622743 7.713815 1.819854
1.621126 7.706131 -0.137455
1.621955 7.703396 2.109375
1.154716 5.446537 -1.491833
1.630837 7.685684 0.137141
1.329471 6.260047 -1.477479
4.787256 22.541637 1.207705
1.558035 7.329986 -1.456636
3.337375 15.687668 1.403207
1.634816 7.678033 -1.243341
2.160550 10.138497 1.272804
1.676195 7.858887 -0.986654
1.667991 7.820424 1.266494
1.637976 7.673150 -0.686439
1.642830 7.689296 1.528380
1.641744 7.677657 -0.411465
1.650881 7.713821 1.821204
1.649688 7.708246 -0.137595
1.652074 7.712799 2.113516
1.175349 5.450027 -1.493904
1.659686 7.695872 0.137420
1.346935 6.240365 -1.473879
5.267405 24.383308 1.307352
1.581536 7.314909 -1.454728
3.366836 15.559084 1.392749
1.660270 7.672569 -1.243341
2.198784 10.152617 1.275485
1.702242 7.853287 -0.986654
1.697791 7.826137 1.268371
1.668134 7.682961 -0.687833
1.670401 7.693398 1.530288
1.668038 7.676075 -0.411675
1.675626 7.704494 1.820304
1.678288 7.710256 -0.137734
1.678985 7.706985 2.113516
1.192590 5.442325 -1.492868
1.686970 7.691984 0.137455
1.369126 6.237529 -1.474329
5.348624 24.347218 1.306410
1.601574 7.290449 -1.450912
3.366214 15.310432 1.371483
1.691290 7.686019 -1.246470
2.236769 10.156514 1.276947
1.730501 7.851173 -0.987142
1.725101 7.820162 1.268371
1.695322 7.685169 -0.688530
1.700630 7.702858 1.533341
1.697841 7.683857 -0.412407
1.701670 7.694793 1.819404
1.704326 7.700446 -0.137665
1.707547 7.708622 2.115587
1.208640 5.424929 -1.489245
1.715117 7.691904 0.137560
1.392163 6.238418 -1.475679
5.440552 24.359585 1.308085
1.624875 7.275232 -1.449004
3.371832 15.084704 1.352309
1.719828 7.687780 -1.247721
3.302274 14.749335 1.855826
1.760502 7.856707 -0.988604
1.754543 7.823731 1.269935
1.722132 7.679205 -0.688530
1.727080 7.694959 1.532960
1.725968 7.683729 -0.412721
1.731506 7.702116 1.822553
1.732953 7.702253 -0.137804
1.734447 7.702614 2.115587
1.227992 5.422562 -1.489762
1.742397 7.687820 0.137595
1.413070 6.229719 -1.474779
5.530861 24.363817 1.309341
1.652435 7.279088 -1.450912
3.378557 14.870784 1.334180
1.747531 7.685582 -1.248347
3.312339 14.555771 1.832915
1.790560 7.862127 -0.990067
1.784040 7.827188 1.271500
1.751143 7.682859 -0.689402
