# This PCD file was generated using the MATLAB® pcwrite function
# from Computer Vision Toolbox®.
# .PCD v.7 - Point Cloud Data file format
VERSION .7
FIELDS x y z
SIZE 4 4 4
TYPE F F F
COUNT 1 1 1
WIDTH 1603
HEIGHT 1
VIEWPOINT 0 0 0 1 0 0 0
POINTS 1603
DATA ascii
-4.998896 -8.389054 2.616661
-0.474655 -0.794348 -0.247949
-5.062419 -8.468747 0.172220
-0.582102 -0.973392 -0.261843
-5.076636 -8.485800 0.518231
-0.663210 -1.108582 -0.251105
-5.076989 -8.483034 0.864934
-0.657547 -1.098246 -0.202739
-5.077667 -8.477446 1.213331
-4.823046 -8.049155 -1.152153
-5.081150 -8.476548 1.565283
-4.819649 -8.040303 -0.820136
-5.046390 -8.415229 1.907327
-4.828077 -8.047991 -0.491853
-5.059129 -8.429799 2.269756
-5.089992 -8.477871 -0.172604
-5.045058 -8.399707 2.625460
-0.485398 -0.805925 -0.252090
-5.104333 -8.471578 0.172639
-0.579460 -0.961340 -0.259144
-5.105193 -8.466318 0.518126
-0.671131 -1.112986 -0.252631
-5.111715 -8.473789 0.865805
-0.665459 -1.102709 -0.203991
-5.109277 -8.463068 1.213819
-4.844956 -8.022075 -1.150690
-5.122966 -8.479048 1.569038
-4.846655 -8.021725 -0.819961
-5.087919 -8.417727 1.911906
-4.845806 -8.013997 -0.490807
-5.085498 -8.407086 2.268406
-5.131978 -8.480582 -0.173023
-5.099360 -8.423362 2.638402
-0.494223 -0.814134 -0.255196
-5.142179 -8.467384 0.172918
-0.578765 -0.952650 -0.257344
-5.146128 -8.467219 0.519277
-0.668894 -1.100570 -0.250341
-5.156790 -8.481431 0.868420
-0.671357 -1.103755 -0.204616
-5.156332 -8.474010 1.217962
-4.889442 -8.032245 -1.154590
-5.152531 -8.461115 1.569038
-4.877734 -8.009864 -0.820484
-5.125444 -8.413325 1.914959
-4.877909 -8.003857 -0.491225
-5.122927 -8.402596 2.272006
-5.159467 -8.459202 -0.172953
-5.131751 -8.410457 2.639954
-0.482947 -0.789334 -0.247949
-5.181099 -8.464732 0.173233
-0.592263 -0.967243 -0.261843
-5.182953 -8.461128 0.520010
-0.672731 -1.098228 -0.250341
-5.183241 -8.458282 0.867897
-0.679336 -1.108142 -0.205868
-5.196258 -8.472882 1.220400
-5.085621 -8.289236 -1.194076
-5.192369 -8.459912 1.572167
-4.917130 -8.011466 -0.822402
-5.169161 -8.418807 1.920302
-4.930904 -8.027625 -0.493737
-5.165492 -8.406244 2.277854
-5.196293 -8.453067 -0.173198
-5.163101 -8.395782 2.640990
-0.487727 -0.790932 -0.248984
-5.217965 -8.458508 0.173477
-0.599729 -0.971803 -0.263643
-5.225048 -8.463378 0.521266
-0.680686 -1.102556 -0.251868
-5.224252 -8.458785 0.869814
-0.681123 -1.102402 -0.205242
-5.226845 -8.456382 1.220644
-5.338984 -8.634439 -1.246480
-5.232258 -8.458536 1.575295
-5.225962 -8.448358 -0.869117
-5.198517 -8.400712 1.920302
-1.935410 -3.126369 -0.192701
-5.209167 -8.411359 2.284153
-5.238408 -8.455275 -0.173617
-5.200519 -8.390845 2.645131
-0.496603 -0.799069 -0.252090
-5.253794 -8.450433 0.173686
-0.601059 -0.966394 -0.262743
-5.260890 -8.455262 0.521894
-0.684531 -1.100173 -0.251868
-5.262169 -8.454029 0.871209
-0.684967 -1.100018 -0.205242
-5.263679 -8.449879 1.222350
-5.277753 -8.469177 -1.225275
-5.273248 -8.458659 1.578737
-1.938371 -3.109284 -0.320559
-5.229887 -8.385847 1.921065
-1.945254 -3.117899 -0.192596
-5.239528 -8.394776 2.284603
-1.994257 -3.193959 -0.065726
-5.232845 -8.377559 2.646684
-0.495288 -0.790782 -0.250019
-5.292815 -8.447291 0.174000
-0.606499 -0.967593 -0.263643
-5.295264 -8.447923 0.522522
-0.690453 -1.101103 -0.252631
-5.296941 -8.444048 0.872080
-0.690903 -1.100967 -0.205868
-5.305809 -8.451630 1.225275
-2.028107 -3.229322 -0.468222
-5.309674 -8.454510 1.581240
-5.271664 -8.387485 1.925644
-1.948684 -3.099254 -0.191864
-5.277101 -8.389633 2.288202
-2.013355 -3.200870 -0.066005
-5.272944 -8.379781 2.652895
-0.518668 -0.821721 -0.260372
-5.331470 -8.446606 0.174350
-0.609705 -0.965576 -0.263643
-5.336454 -8.447962 0.523674
-0.690097 -1.092048 -0.251105
-5.339160 -8.445716 0.874172
-0.695606 -1.100339 -0.206181
-5.341233 -8.445731 1.226981
-2.127955 -3.363492 -0.488696
-5.341266 -8.439261 1.581866
-1.963229 -3.100726 -0.321082
-5.314153 -8.393180 1.930987
-1.953607 -3.084338 -0.191340
-5.302806 -8.368795 2.287302
-2.012740 -3.175244 -0.065621
-5.303197 -8.362954 2.653413
-0.498586 -0.784132 -0.248984
-5.380242 -8.458312 0.174978
-0.615163 -0.966730 -0.264542
-5.372344 -8.439394 0.524302
-0.697932 -1.096378 -0.252631
-5.377840 -8.444769 0.875915
-0.710056 -1.114565 -0.209309
-5.376014 -8.435407 1.228199
-2.169564 -3.402912 -0.495521
-5.376004 -8.428892 1.583430
-1.956358 -3.067321 -0.318293
-5.345531 -8.377890 1.931750
-1.967585 -3.082551 -0.191654
-5.344572 -8.369943 2.292701
-1.996899 -3.126069 -0.064748
-5.338600 -8.354159 2.656519
-0.507573 -0.792147 -0.252090
-5.404338 -8.431065 0.174803
-0.624846 -0.974420 -0.267242
-5.409321 -8.432355 0.525034
-0.708115 -1.103850 -0.254921
-5.408359 -8.427623 0.876089
-0.715009 -1.113742 -0.209622
-5.417229 -8.434961 1.230880
-2.089150 -3.251689 -0.474559
-5.416072 -8.426694 1.586558
-1.947662 -3.030305 -0.315155
-5.385360 -8.375692 1.935566
-1.967529 -3.058866 -0.190608
-5.399065 -8.390567 2.303499
-1.999140 -3.105627 -0.064469
-5.382371 -8.358212 2.663766
-0.516623 -0.800108 -0.255196
-5.446755 -8.432305 0.175222
-0.615552 -0.952591 -0.261843
-5.451733 -8.433551 0.526290
-0.710898 -1.099723 -0.254539
-5.456138 -8.437135 0.879053
-0.721039 -1.114556 -0.210248
-5.449873 -8.421001 1.231612
-2.182480 -3.371018 -0.493083
-5.455121 -8.422659 1.589374
-1.960395 -3.026832 -0.315504
-5.416698 -8.360140 1.936330
-1.969504 -3.038572 -0.189770
-5.435742 -8.383115 2.306648
-2.012144 -3.101986 -0.064539
-5.423082 -8.357199 2.669460
-0.515198 -0.791822 -0.253125
-5.487065 -8.430000 0.175571
-0.625253 -0.960235 -0.264542
-5.485498 -8.421163 0.526709
-0.717947 -1.102170 -0.255684
-5.490994 -8.426385 0.879924
-0.731397 -1.121961 -0.212125
-5.485743 -8.411901 1.233074
-2.173625 -3.331792 -0.488452
-5.499600 -8.426725 1.593755
-1.975303 -3.026645 -0.316201
-5.465168 -8.370769 1.943199
-1.989928 -3.046729 -0.190712
-5.471365 -8.373878 2.309348
-2.017490 -3.086574 -0.064364
-5.469137 -8.364088 2.677742
-0.522196 -0.796481 -0.255196
-5.525231 -8.424172 0.175850
-0.628601 -0.958047 -0.264542
-5.526916 -8.420331 0.527861
-0.717481 -1.093092 -0.254158
-5.531310 -8.423820 0.881667
-0.737478 -1.122703 -0.212751
-5.532513 -8.419246 1.236974
-2.179789 -3.315890 -0.487234
-5.532238 -8.412428 1.594693
-1.980383 -3.011408 -0.315329
-5.498669 -8.358203 1.944725
-1.999452 -3.038095 -0.190608
-5.501636 -8.356355 2.309798
-2.019452 -3.066153 -0.064085
-5.506801 -8.357852 2.681883
-0.522843 -0.791430 -0.254160
-5.565630 -8.421517 0.176199
-0.636241 -0.962349 -0.266342
-5.560682 -8.407650 0.528279
-0.723458 -1.093856 -0.254921
-5.572775 -8.422738 0.883585
-0.743573 -1.123417 -0.213377
-5.566253 -8.406504 1.237949
-2.159560 -3.260267 -0.480165
-5.572481 -8.409532 1.597822
-1.993084 -3.007798 -0.315678
-5.540828 -8.358595 1.949305
-2.007838 -3.027768 -0.190398
-5.540465 -8.351716 2.313847
-2.030143 -3.059085 -0.064085
-5.534874 -8.336970 2.681365
-0.529885 -0.796033 -0.256231
-5.601643 -8.412024 0.176409
-0.648239 -0.973097 -0.269941
-5.606610 -8.413118 0.529849
-0.730538 -1.096225 -0.256066
-5.610982 -8.416496 0.884979
-0.747490 -1.120814 -0.213377
-5.619800 -8.423350 1.243311
-2.205090 -3.303894 -0.487721
-5.617159 -8.413030 1.602202
-2.010209 -3.010765 -0.316724
-5.572152 -8.342467 1.950068
-2.020614 -3.024063 -0.190608
-5.583663 -8.353387 2.319695
-2.043031 -3.055304 -0.064155
-5.572535 -8.330443 2.685507
-0.534812 -0.797387 -0.257266
-5.639885 -8.405704 0.176688
-0.641857 -0.956266 -0.265892
-5.654871 -8.421685 0.531629
-0.739832 -1.101817 -0.257974
-5.648105 -8.408436 0.886200
-0.746991 -1.111640 -0.212125
-5.652492 -8.408625 1.244042
-2.214393 -3.292882 -0.487234
-5.653108 -8.403204 1.604079
-2.046284 -3.041751 -0.320733
-5.614392 -8.342511 1.954647
-2.031157 -3.016991 -0.190608
-5.623674 -8.350009 2.324194
-2.059271 -3.056446 -0.064330
-5.612377 -8.326961 2.690683
-0.541919 -0.801918 -0.259337
-5.679272 -8.400875 0.177002
-0.639733 -0.945948 -0.263643
-5.686471 -8.405204 0.531838
-0.742574 -1.097602 -0.257592
-5.691939 -8.410119 0.888466
-0.751974 -1.110661 -0.212438
-5.692941 -8.405278 1.246480
-2.133455 -3.148731 -0.467003
-5.697922 -8.406312 1.608459
-2.089308 -3.082418 -0.325788
-5.654498 -8.339112 1.958464
-2.046161 -3.016494 -0.191026
-5.647316 -8.322265 2.321945
-2.073297 -3.054203 -0.064434
-5.652262 -8.323301 2.695859
-0.553413 -0.812796 -0.263478
-0.650712 -0.954983 -0.266792
-5.721403 -8.393553 0.532361
-0.745295 -1.093381 -0.257211
-5.731364 -8.405015 0.890034
-0.759186 -1.112926 -0.213377
-5.726722 -8.391913 1.247455
-2.236209 -3.275703 -0.486990
-5.732800 -8.394528 1.610024
-2.103426 -3.080042 -0.326311
-5.701292 -8.345260 1.964570
-2.058932 -3.012631 -0.191236
-5.688430 -8.320197 2.326894
-2.079430 -3.040345 -0.064295
-5.699827 -8.330625 2.704659
-0.543133 -0.791743 -0.257266
-2.182642 -3.180520 0.067331
-0.656248 -0.955919 -0.267692
-0.747995 -1.089155 -0.256829
-5.760666 -8.384959 0.890034
-0.766423 -1.115152 -0.214315
-5.770599 -8.393139 1.250623
-2.260003 -3.285869 -0.489671
-5.768788 -8.384230 1.611901
-2.104001 -3.057908 -0.324742
-5.734840 -8.331777 1.966096
-2.084161 -3.026810 -0.192596
-5.741758 -8.335596 2.336792
-2.091165 -3.034714 -0.064330
-5.737643 -8.323401 2.708800
-0.541500 -0.783485 -0.255196
-2.172124 -3.141629 0.066668
-0.665123 -0.961636 -0.269941
-2.175118 -3.143614 0.200342
-0.758495 -1.096224 -0.259119
-5.801239 -8.381181 0.891778
-0.769186 -1.110846 -0.214002
-5.810035 -8.387630 1.252817
-2.298595 -3.317119 -0.495521
-5.812647 -8.385148 1.615968
-2.105581 -3.037446 -0.323348
-5.768364 -8.318160 1.967622
-2.095852 -3.021158 -0.192701
-5.788595 -8.341120 2.343990
-2.107447 -3.035609 -0.064504
-5.774376 -8.314430 2.712424
-0.550855 -0.791102 -0.258301
-2.163646 -3.106134 0.066075
-0.669590 -0.960907 -0.270391
-2.139250 -3.068826 0.196051
-0.762317 -1.093570 -0.259119
-5.846415 -8.383759 0.894218
-0.776450 -1.113015 -0.214941
-5.843822 -8.373811 1.253792
-2.231753 -3.196765 -0.478703
-5.862242 -8.393955 1.621600
-2.123016 -3.039878 -0.324394
-5.813104 -8.320507 1.972965
-2.092655 -2.994179 -0.191445
-5.825495 -8.332042 2.347139
-2.123760 -3.036428 -0.064679
-5.814438 -8.310054 2.717600
-0.551394 -0.786012 -0.257266
-2.175624 -3.100199 0.066110
-0.672940 -0.958564 -0.270391
-2.157984 -3.072781 0.196783
-0.775156 -1.103755 -0.262172
-5.891680 -8.386125 0.896658
-0.783738 -1.115146 -0.215880
-5.882152 -8.366352 1.255742
-2.238330 -3.182460 -0.477728
-5.894916 -8.378290 1.622538
-2.127881 -3.024302 -0.323522
-5.853413 -8.316218 1.976781
-2.109993 -2.996655 -0.192073
-5.854542 -8.311658 2.347139
-2.142410 -3.040439 -0.064923
-5.856768 -8.308652 2.723812
-0.558594 -0.790393 -0.259337
-2.181815 -3.086055 0.065970
-0.678533 -0.959391 -0.271291
-2.173928 -3.073761 0.197307
-0.772201 -1.091426 -0.259882
-5.935880 -8.386648 0.898924
-0.784201 -1.107567 -0.214941
-5.933120 -8.376547 1.260373
-2.302799 -3.251156 -0.489184
-5.930661 -8.369978 1.624729
-2.139577 -3.018481 -0.323696
-5.900576 -8.321360 1.982887
-2.129685 -3.002303 -0.192910
-5.896729 -8.312860 2.352988
-2.152480 -3.033318 -0.064923
-5.890996 -8.298637 2.726918
-0.547770 -0.769649 -0.253125
-2.183918 -3.067399 0.065726
-0.683972 -0.960310 -0.272191
-2.187586 -3.071415 0.197621
-0.778094 -1.092057 -0.260645
-5.962503 -8.365295 0.898750
-0.800485 -1.122653 -0.218383
-5.974698 -8.376218 1.263298
-2.287054 -3.206331 -0.483578
-5.969858 -8.366344 1.627857
-2.138000 -2.995153 -0.321953
-5.932703 -8.308138 1.984414
-2.140790 -2.996850 -0.193015
-5.942388 -8.318630 2.360187
-2.166016 -3.031044 -0.065028
-5.919607 -8.280628 2.727435
-0.545818 -0.761548 -0.251054
-2.183592 -3.045514 0.065412
-0.696238 -0.970705 -0.275790
-2.196594 -3.062521 0.197516
-0.788579 -1.099042 -0.262935
-6.011123 -8.374612 0.901888
-0.784617 -1.092714 -0.213064
-6.015179 -8.374095 1.265979
-2.272195 -3.163260 -0.478215
-6.009097 -8.362544 1.630986
-2.149083 -2.989664 -0.322128
-5.978559 -8.313921 1.990520
-2.151883 -2.991355 -0.193120
-5.974493 -8.305207 2.361986
-2.192408 -3.046568 -0.065516
-5.961707 -8.281334 2.734164
-0.561907 -0.778531 -0.257266
-2.197190 -3.043120 0.065516
-0.694889 -0.962072 -0.273990
-2.207907 -3.056839 0.197621
-0.800267 -1.107560 -0.265606
-6.055202 -8.377237 0.904328
-2.076498 -2.871734 -0.561287
-6.046408 -8.358925 1.266710
-2.408325 -3.329416 -0.504539
-6.053008 -8.364975 1.635366
-2.174172 -3.003503 -0.324394
-6.003794 -8.290869 1.989756
-2.154760 -2.974498 -0.192492
-6.008861 -8.294818 2.364685
-2.214232 -3.055473 -0.065865
-6.014082 -8.295929 2.745553
-0.569302 -0.782715 -0.259337
-2.215388 -3.044749 0.065726
-0.698411 -0.959518 -0.273990
-2.210223 -3.035423 0.196783
-0.805477 -1.106207 -0.265988
-6.094077 -8.366261 0.905548
-2.096316 -2.876876 -0.563790
-6.087526 -8.351147 1.268904
-2.423431 -3.323352 -0.505027
-6.095560 -8.356034 1.638182
-2.183340 -2.991914 -0.324045
-6.054971 -8.297356 1.996625
-2.166826 -2.968194 -0.192596
-6.047562 -8.281127 2.367385
-2.242462 -3.069555 -0.066354
-6.057290 -8.288372 2.750729
-0.572167 -0.780624 -0.259337
-2.233096 -3.046674 0.065935
-0.697147 -0.950788 -0.272191
-2.224349 -3.032521 0.197097
-0.811849 -1.106413 -0.266751
-6.167140 -8.401691 0.911823
-2.196873 -2.991774 -0.587881
-6.149540 -8.374646 1.275728
-2.435016 -3.314873 -0.505027
-6.138726 -8.353809 1.641936
-2.202032 -2.995510 -0.325265
-6.101625 -8.297250 2.001968
-2.184791 -2.969885 -0.193224
-6.107904 -8.299714 2.379082
-2.259090 -3.069761 -0.066529
-6.095348 -8.279624 2.754870
-0.568004 -0.769297 -0.256231
-2.246624 -3.041685 0.066005
-0.714524 -0.967035 -0.277590
-2.234921 -3.024738 0.197097
-0.816873 -1.105151 -0.267133
-6.240259 -8.439387 0.918273
-2.215525 -2.995204 -0.590071
-2.421166 -3.270824 -0.499664
-2.207731 -2.981401 -0.324568
-6.142237 -8.291676 2.005784
-2.198712 -2.967054 -0.193538
-6.155406 -8.303392 2.386281
-2.281700 -3.077921 -0.066878
-6.133419 -8.270711 2.759011
-0.572992 -0.770410 -0.257266
-2.256698 -3.034219 0.066005
-0.718890 -0.966223 -0.278040
-2.220424 -2.983272 0.194899
-0.825416 -1.108592 -0.268659
-6.326807 -8.494251 0.926640
-2.217186 -2.976752 -0.587881
-18.407700 -24.704828 3.782825
-2.465217 -3.307342 -0.506489
-16.734457 -22.442823 4.433979
-2.208595 -2.960901 -0.323173
-6.179091 -8.283852 2.008837
-2.218095 -2.972553 -0.194376
-6.193398 -8.296988 2.390330
-2.305592 -3.087562 -0.067262
-6.166873 -8.255443 2.761082
-0.580175 -0.774691 -0.259337
-2.284061 -3.048728 0.066494
-0.718752 -0.959030 -0.276690
-2.265568 -3.021845 0.197935
-0.824377 -1.099565 -0.267133
-2.238233 -2.983215 -0.590697
-18.434242 -24.561037 3.770638
-2.479130 -3.301892 -0.506977
-16.829302 -22.406385 4.438359
-2.235673 -2.975473 -0.325614
-6.219762 -8.277927 2.012653
-2.233257 -2.971179 -0.194794
-6.229350 -8.284664 2.393029
-2.336790 -3.106663 -0.067855
-6.204946 -8.246215 2.765223
-0.587666 -0.778727 -0.261407
-6.342016 -8.403926 0.183774
-0.724444 -0.959626 -0.277590
-2.283325 -3.023481 0.198563
-0.816567 -1.080871 -0.263316
-2.258682 -2.987597 -0.593200
-18.388182 -24.322355 3.743827
-2.490641 -3.293218 -0.506977
-16.916948 -22.360104 4.440862
-2.266486 -2.994659 -0.328577
-6.269022 -8.280120 2.018759
-2.264632 -2.990040 -0.196574
-6.267910 -8.272650 2.396179
-2.364527 -3.120801 -0.068344
-6.252364 -8.249139 2.773505
-0.595057 -0.782823 -0.263478
-6.376407 -8.385400 0.183879
-0.736215 -0.967821 -0.280739
-2.299910 -3.023441 0.199086
-2.356383 -3.096557 -0.756367
-17.115004 -22.482929 2.472085
-2.271491 -2.982837 -0.593825
-18.308790 -24.033722 3.709703
-2.513523 -3.298277 -0.509170
-17.030817 -22.348053 4.450248
-2.281757 -2.993067 -0.329274
-6.309793 -8.273797 2.022575
-2.296861 -3.010699 -0.198458
-6.297932 -8.252269 2.396628
-6.386179 -8.367901 -0.183739
-6.304567 -8.257974 2.783858
-0.588390 -0.768470 -0.259337
-6.400530 -8.359447 0.183774
-0.741790 -0.968469 -0.281639
-7.863063 -10.262169 0.677541
-2.383898 -3.110128 -0.761710
-17.193375 -22.423054 2.472085
-2.294591 -2.992532 -0.597267
-2.538949 -3.308822 -0.512095
-17.125563 -22.310404 4.454628
-2.295831 -2.989824 -0.329797
-6.353935 -8.274627 2.027918
-2.328733 -3.031576 -0.200342
-6.333575 -8.242155 2.399778
-6.400725 -8.326533 -0.183320
-6.345130 -8.251230 2.789034
-0.595653 -0.772634 -0.261407
-6.426007 -8.332303 0.183669
-0.747547 -0.968959 -0.282539
-6.427185 -8.327816 0.551307
-2.403795 -3.114639 -0.764763
-17.267637 -22.365913 2.472085
-2.315891 -2.998575 -0.600083
-2.454582 -3.175858 -0.492840
-17.210587 -22.259863 4.456505
-2.313567 -2.991249 -0.330843
-6.382778 -8.252398 2.027918
-2.353967 -3.042384 -0.201598
-6.387355 -8.252358 2.409226
-6.389351 -8.251962 -0.182168
-6.379809 -8.236667 2.791622
-0.605592 -0.779600 -0.264513
-6.399851 -8.238757 0.182098
-0.750925 -0.966344 -0.282539
-6.440279 -8.284831 0.549946
-2.422425 -3.115106 -0.767052
-2.351129 -3.021245 -0.606340
-2.476627 -3.181369 -0.495033
-2.508886 -3.220486 -0.357164
-6.429880 -8.250627 2.033261
-2.379838 -3.052638 -0.202854
-6.440329 -8.258089 2.417774
-5.827832 -7.472717 -0.165414
-6.428723 -8.240241 2.800422
-0.598786 -0.765309 -0.260372
-5.840867 -7.462533 0.165414
-0.752059 -0.960516 -0.281639
-5.895382 -7.529481 0.501169
-2.440548 -3.115905 -0.769342
-10.184532 -12.998153 1.444694
-2.407967 -3.072099 -0.618229
-10.200743 -13.009492 2.029856
-2.498741 -3.186764 -0.497227
-2.404499 -3.064369 -0.340779
-6.473185 -8.246665 2.037840
-2.405281 -3.063162 -0.204110
-6.478511 -8.250481 2.421823
-5.860056 -7.460193 -0.165588
-6.464609 -8.226864 2.803528
-0.598930 -0.760284 -0.259337
-5.874242 -7.454120 0.165658
-0.764891 -0.970260 -0.285238
-5.869623 -7.445581 0.496878
-2.456946 -3.115503 -0.771250
-5.736967 -7.269477 -1.466730
-2.509295 -3.178460 -0.497227
-6.674870 -8.451848 1.705762
-6.512670 -8.240557 2.041656
-6.523964 -8.251882 2.428571
-7.868266 -9.948668 -0.221401
-6.503840 -8.220532 2.808704
-0.611051 -0.770402 -0.263478
-9.643866 -12.154458 0.270826
-0.763259 -0.961613 -0.283438
-5.912964 -7.446945 0.498343
-2.473368 -3.115025 -0.773158
-5.749983 -7.236493 -1.463914
-20.205509 -25.420017 3.987078
-6.657600 -8.369752 1.693873
-5.747511 -7.225613 -0.807759
-6.549741 -8.231205 2.044709
-5.810111 -7.299077 -0.488923
-6.546658 -8.221438 2.426322
-7.865568 -9.874219 -0.220354
-6.545741 -8.214398 2.814399
-0.620971 -0.777321 -0.266584
-9.617574 -12.034802 0.268907
-0.776345 -0.971120 -0.287038
-9.666184 -12.086977 0.811103
-2.505070 -3.132438 -0.779646
-5.773974 -7.214836 -1.463601
-20.122915 -25.135481 3.953442
-5.781325 -7.218855 -1.135579
-6.718889 -8.386544 1.702007
-5.772699 -7.205506 -0.807759
-6.602989 -8.238931 2.052342
-5.888024 -7.344201 -0.493319
-6.591165 -8.218298 2.432171
-7.912501 -9.862300 -0.220703
-6.597347 -8.220125 2.824234
-0.616415 -0.766118 -0.263478
-9.624420 -11.957537 0.267929
-0.782175 -0.971440 -0.287937
-9.654445 -11.986277 0.806602
-5.398911 -6.700510 -1.672632
-5.816478 -7.216168 -1.467981
-20.118319 -24.950735 3.935405
-5.813966 -7.207901 -1.137041
-6.780374 -8.403010 1.710142
-5.806578 -7.193602 -0.808805
-6.630674 -8.211618 2.051579
-5.914902 -7.322571 -0.493319
-6.641855 -8.222528 2.440269
-7.738247 -9.576427 -0.214909
-6.635716 -8.209065 2.828375
-0.611920 -0.754849 -0.260372
-9.590088 -11.825886 0.265765
-0.780819 -0.962513 -0.286138
-9.646715 -11.887224 0.802310
-5.440755 -6.702017 -1.677974
-5.937529 -7.311340 -1.491759
-5.890422 -7.248167 -1.146791
-6.801159 -8.365840 1.707639
-5.840447 -7.181546 -0.809851
-6.692940 -8.226859 2.061501
-6.679327 -8.207197 2.442968
-7.697544 -9.454956 -0.212815
-6.677959 -8.199669 2.833551
-0.626902 -0.767564 -0.265548
-8.375744 -10.251397 0.231070
-0.786808 -0.962662 -0.287038
-9.621158 -11.771519 0.796763
-5.467845 -6.687542 -1.679119
-6.512179 -7.959165 -1.628796
-7.934121 -9.690149 -1.537748
-6.835326 -8.348163 1.708890
-8.092492 -9.880059 -1.117337
-6.736548 -8.221666 2.066080
-9.248893 -11.283858 -0.764628
-6.732839 -8.211295 2.451517
-7.725427 -9.421845 -0.212675
-6.721242 -8.194232 2.839763
-0.619760 -0.753435 -0.261407
-8.423668 -10.240553 0.231454
-0.799902 -0.972086 -0.290637
-9.617764 -11.683893 0.793099
-5.488660 -6.665384 -1.678356
-6.551096 -7.952772 -1.631925
-8.110156 -9.838405 -1.565534
-6.869450 -8.330348 1.710142
-7.779541 -9.430628 -1.069575
-6.773771 -8.211399 2.069133
-9.316771 -11.290096 -0.767141
-6.776159 -8.208460 2.457365
-7.760817 -9.397902 -0.212745
-6.753497 -8.175189 2.841316
-0.607469 -0.733521 -0.255196
-9.562865 -11.543103 0.261646
-0.808264 -0.975290 -0.292436
-9.612602 -11.594893 0.789331
-5.518252 -6.656215 -1.680646
-6.582602 -7.934418 -1.632863
-8.152056 -9.819201 -1.566996
-6.873245 -8.275927 1.703884
-8.211746 -9.887587 -1.124483
-6.809921 -8.196764 2.071423
-9.476120 -11.401893 -0.776980
-6.834671 -8.220719 2.468163
-7.811477 -9.392279 -0.213234
-6.802995 -8.176812 2.850115
-0.632298 -0.758100 -0.264513
-0.801674 -0.960494 -0.288837
-9.603092 -11.501478 0.785249
-5.552776 -6.650476 -1.684080
-6.620390 -7.923518 -1.635366
-19.885366 -23.791073 3.807199
-8.244855 -9.860738 -1.578208
-6.909698 -8.260974 1.705762
-8.140116 -9.732015 -1.110016
-6.863686 -8.203059 2.079055
-9.487660 -11.335052 -0.774677
-6.858323 -8.190834 2.466363
-7.882734 -9.410946 -0.214281
-6.856311 -8.182631 2.860468
-0.637426 -0.758847 -0.265548
-0.810038 -0.963656 -0.290637
-8.552661 -10.174620 0.696592
-5.577220 -6.632555 -1.684462
-6.659455 -7.913963 -1.638182
-19.822556 -23.548386 3.779412
-7.990251 -9.488729 -1.523123
-6.944687 -8.247082 1.707639
-7.925014 -9.407926 -1.076199
-6.912520 -8.203071 2.085161
-9.471816 -11.236200 -0.770176
-6.898177 -8.180253 2.470412
-7.934524 -9.409212 -0.214839
-6.903338 -8.183475 2.868750
-0.645061 -0.762517 -0.267619
-0.825817 -0.975841 -0.295136
-8.625548 -10.188910 0.699627
-5.600338 -6.613046 -1.684462
-6.690770 -7.897865 -1.639433
-8.013971 -9.453095 -1.521661
-6.988764 -8.240870 1.711393
-7.939762 -9.358934 -1.073759
-6.947305 -8.189084 2.087451
-9.474133 -11.163613 -0.767350
-6.942923 -8.178131 2.476711
-7.972498 -9.387556 -0.214979
-6.949372 -8.179939 2.875997
-0.650092 -0.763315 -0.268654
-8.760149 -10.282233 0.235782
-0.824163 -0.967019 -0.293336
-9.564860 -11.222789 0.772793
-5.624785 -6.597427 -1.685225
-6.733684 -7.892495 -1.643188
-19.742691 -23.132067 3.734077
-7.330262 -8.585672 -1.386142
-7.041705 -8.247696 1.717651
-7.323777 -8.575041 -0.986603
-6.998804 -8.191652 2.094320
-6.982826 -8.167176 2.480760
-8.026977 -9.388424 -0.215607
-6.981483 -8.162722 2.878068
-0.645206 -0.752243 -0.265548
-8.958237 -10.444376 0.240180
-0.834979 -0.973155 -0.296036
-9.546741 -11.122649 0.768187
-5.660568 -6.592648 -1.689041
-6.757245 -7.867125 -1.642562
-19.648525 -22.867725 3.701904
-7.278468 -8.467981 -1.371030
-7.088484 -8.244033 1.722031
-7.330278 -8.522234 -0.983465
-7.028491 -8.171374 2.095083
-7.348380 -8.540270 -0.590454
-7.042925 -8.182377 2.492458
-7.378598 -8.569332 -0.197387
-7.017497 -8.147086 2.881174
-0.655537 -0.758644 -0.268654
-7.387189 -8.546074 0.197177
-0.836160 -0.966993 -0.295136
-9.548874 -11.039083 0.764942
-5.682127 -6.568887 -1.688278
-6.792572 -7.847096 -1.643813
-7.282335 -8.406961 -1.365668
-7.133023 -8.231683 1.725160
-7.283179 -8.404966 -0.973007
-7.067531 -8.153228 2.097373
-7.277749 -8.392783 -0.582185
-7.089613 -8.172937 2.497856
-7.330190 -8.447296 -0.195223
-7.074058 -8.149256 2.891527
-0.668327 -0.768009 -0.272795
-7.346075 -8.438789 0.195292
-0.836971 -0.961129 -0.294236
-7.399102 -8.493715 0.590350
-5.712758 -6.557895 -1.690568
-6.827713 -7.832270 -1.645691
-7.267268 -8.330629 -1.357381
-7.177299 -8.224594 1.728914
-7.283654 -8.346467 -0.969172
-7.116603 -8.152172 2.103478
-7.293863 -8.352284 -0.581138
-7.134767 -8.167219 2.503705
-7.320156 -8.376485 -0.194175
-7.129162 -8.155057 2.902397
-0.655724 -0.748237 -0.266584
-7.330667 -8.361969 0.194106
-0.855739 -0.975784 -0.299635
-7.366651 -8.400057 0.585535
-5.738204 -6.540865 -1.691331
-6.862829 -7.817298 -1.647568
-7.318433 -8.333333 -1.361768
-7.222787 -8.221525 1.733294
-7.320636 -8.329971 -0.970218
-7.170942 -8.156771 2.111111
-7.315063 -8.317773 -0.580510
-7.170820 -8.153758 2.506855
-7.322797 -8.323638 -0.193512
-7.175309 -8.153125 2.910161
-0.642865 -0.728675 -0.260372
-7.339832 -8.316624 0.193617
-0.866709 -0.981706 -0.302334
-7.353488 -8.329166 0.582290
-5.761162 -6.523272 -1.691713
-6.893948 -7.800417 -1.648820
-19.422857 -21.969000 3.600508
-7.393361 -8.362556 -1.370543
-7.278800 -8.230083 1.740177
-7.350859 -8.308634 -0.970566
-7.223974 -8.162349 2.118743
-7.354520 -8.306928 -0.581453
-7.213321 -8.147443 2.512253
-7.356989 -8.306793 -0.193687
-7.211274 -8.139408 2.913785
-0.658107 -0.740983 -0.265548
-7.364714 -8.289248 0.193547
-0.869959 -0.978826 -0.302334
-7.385172 -8.306433 0.582499
-5.787981 -6.510001 -1.693239
-6.930281 -7.789319 -1.651322
-9.325985 -10.474617 -1.722014
-7.331135 -8.231174 1.745809
-17.598633 -19.752275 -2.314508
-7.261451 -8.150075 2.121796
-7.258576 -8.141122 2.518102
-7.428532 -8.328819 -0.194804
-7.247359 -8.122835 2.916891
-0.663394 -0.741445 -0.266584
-7.430938 -8.305219 0.194525
-0.881169 -0.984496 -0.305034
-7.428778 -8.296971 0.583651
-5.822279 -6.500443 -1.696292
-7.434826 -8.297897 0.974750
-6.961421 -7.766808 -1.651948
-7.432888 -8.292821 1.367374
-9.335985 -10.412441 -1.717139
-7.383562 -8.232005 1.751440
-17.686102 -19.711485 -2.316948
-7.317503 -8.152625 2.129429
-19.589642 -21.817690 -1.536688
-7.322221 -8.152159 2.529799
-7.292456 -8.116166 2.923620
-0.671151 -0.744866 -0.268654
-0.876941 -0.972576 -0.302334
-19.701969 -21.842890 1.541608
-5.850196 -6.485910 -1.697819
-6.996429 -7.751260 -1.653825
-7.489840 -8.294990 1.372249
-9.315542 -10.313334 -1.706415
-7.424280 -8.216613 1.753943
-17.781515 -19.679193 -2.320434
-7.361713 -8.144511 2.134008
-19.676397 -21.761028 -1.537526
-7.359784 -8.136667 2.532949
-7.348081 -8.118031 2.933973
-0.673747 -0.742518 -0.268654
-19.911535 -21.936277 0.517115
-0.890811 -0.981051 -0.305933
-19.778097 -21.773983 1.541608
-5.868841 -6.461089 -1.696674
-7.034075 -7.738483 -1.656328
-19.778450 -21.751480 3.609770
-7.455574 -8.193569 1.754569
-17.876921 -19.646481 -2.323921
-7.398027 -8.127476 2.136297
-19.779133 -21.721746 -1.539619
-7.407827 -8.132537 2.539697
-7.405004 -8.123741 2.945361
-0.676335 -0.740162 -0.268654
-0.902121 -0.986564 -0.308633
-19.863670 -21.723017 1.542655
-5.903283 -6.453603 -1.700108
-7.074383 -7.728454 -1.659457
-19.881071 -21.711588 3.614645
-10.057739 -10.979949 -1.828284
-7.498714 -8.186282 1.758324
-17.950775 -19.589832 -2.324618
-7.455538 -8.133441 2.144693
-19.898031 -21.699678 -1.542969
-7.449342 -8.120990 2.544196
-7.441046 -8.109104 2.948984
-0.678914 -0.737797 -0.268654
-0.908027 -0.986435 -0.309533
-19.993496 -21.712317 1.546842
-5.932425 -6.440176 -1.702016
-7.097295 -7.702046 -1.658831
-19.979868 -21.674732 3.619520
-10.158689 -11.016583 -1.839983
-7.516531 -8.148439 1.755821
-18.062284 -19.573908 -2.330196
-7.511759 -8.140414 2.153089
-20.018646 -21.686411 -1.546737
-7.489453 -8.110559 2.548696
-7.481104 -8.095852 2.953643
-0.678732 -0.732707 -0.267619
-20.098309 -21.689013 0.516137
-0.906165 -0.977542 -0.307733
-20.092541 -21.675188 1.548935
-5.965764 -6.433425 -1.705451
-7.129512 -7.683016 -1.660083
-20.085112 -21.636868 3.624882
-9.408224 -10.131547 -1.697640
-7.538133 -8.117680 1.754569
-18.186758 -19.578133 -2.337866
-7.545473 -8.119898 2.154615
-20.143183 -21.669058 -1.550505
-7.533642 -8.101491 2.554094
-7.523701 -8.087973 2.959855
-0.694463 -0.744460 -0.272795
-20.186491 -21.639790 0.516556
-0.912061 -0.977381 -0.308633
-20.208961 -21.648726 1.552075
-5.994884 -6.419735 -1.707359
-7.168436 -7.673767 -1.663211
-20.205547 -21.622358 3.633657
-10.491007 -11.222709 -1.886294
-7.585313 -8.111514 1.758949
-18.265875 -19.526175 -2.339260
-7.593817 -8.117771 2.160721
-20.231300 -21.619646 -1.551761
-7.596426 -8.114876 2.566242
-7.570377 -8.081398 2.967102
-0.696928 -0.742153 -0.272795
-20.283806 -21.592516 0.517115
-0.914133 -0.972772 -0.308183
-6.018829 -6.402681 -1.708122
-7.203297 -7.657331 -1.665089
-20.332596 -21.606630 3.642919
-9.808971 -10.419950 -1.757112
-7.635248 -8.107998 1.763955
-18.338722 -19.474195 -2.340306
-7.632876 -8.102646 2.163774
-20.372398 -21.618658 -1.556786
-7.640744 -8.105328 2.571640
-7.636985 -8.095674 2.982113
-0.696859 -0.736908 -0.271760
-20.386545 -21.550631 0.517813
-0.922881 -0.975237 -0.309983
-20.428257 -21.579634 1.557309
-6.043841 -6.384484 -1.708885
-7.243568 -7.646482 -1.668217
-20.429741 -21.558578 3.646819
-9.853477 -10.394293 -1.758575
-7.682534 -8.101364 1.768335
-8.922246 -9.408662 -1.134419
-7.688137 -8.104440 2.171407
-20.488976 -21.590879 -1.559926
-7.687774 -8.098393 2.577939
-33.996899 -35.800213 -0.861765
-7.681163 -8.085775 2.988325
-0.691434 -0.726077 -0.268654
-20.503025 -21.522774 0.518860
-0.930312 -0.976242 -0.311332
-20.531019 -21.537113 1.559402
-6.079636 -6.377560 -1.712702
-7.275670 -7.626868 -1.669469
-20.543243 -21.527344 3.653643
-9.854061 -10.322501 -1.752238
-7.732594 -8.097356 1.773341
-8.937403 -9.355726 -1.131979
-7.716381 -8.077554 2.171407
-20.578018 -21.533669 -1.560972
-7.738887 -8.095455 2.585588
-7.724031 -8.074270 2.994019
-0.704789 -0.734691 -0.272795
-20.633404 -21.508795 0.520256
-0.928317 -0.967364 -0.309533
-20.630976 -21.491243 1.561286
-6.109770 -6.362312 -1.714610
-7.311788 -7.608696 -1.671346
-20.640270 -21.478403 3.657543
-10.831024 -11.266900 -1.918955
-7.785457 -8.095945 1.778973
-7.770438 -8.074680 2.178276
-20.673428 -21.475368 -1.562228
-7.768507 -8.067037 2.585588
-7.760211 -8.055606 2.997125
-0.712718 -0.737784 -0.274866
-20.748230 -21.470411 0.521164
-0.942692 -0.975164 -0.313132
-20.753067 -21.467918 1.564845
-6.136035 -6.345181 -1.715755
-7.346544 -7.591643 -1.673223
-20.779600 -21.465370 3.668268
-10.654056 -11.001815 -1.880444
-7.838407 -8.094260 1.784605
-18.842312 -19.450550 -2.369242
-7.834097 -8.084166 2.188198
-20.787191 -21.443226 -1.565159
-7.818326 -8.062253 2.592786
-7.809802 -8.050655 3.005407
-0.723372 -0.743600 -0.277972
-20.838827 -21.421560 0.521652
-0.954075 -0.980412 -0.315831
-20.866880 -21.435423 1.567776
-6.159516 -6.325130 -1.716136
-7.381327 -7.577143 -1.675413
-20.864523 -21.410561 3.670705
-10.626740 -10.901036 -1.869232
-7.866614 -8.066849 1.784605
-18.910089 -19.384665 -2.369242
-7.885540 -8.083438 2.195067
-20.927929 -21.445644 -1.570393
-7.892663 -8.085089 2.608532
-7.879707 -8.066183 3.021454
-0.715021 -0.730155 -0.273831
-21.011438 -21.448677 0.524096
-5.243015 -5.350255 -1.729424
-20.969542 -21.390978 1.569870
-6.181831 -6.306072 -1.716518
-7.414647 -7.558384 -1.676978
-20.980843 -21.380104 3.678017
-10.723135 -10.923373 -1.879469
-7.925172 -8.070350 1.791488
-19.002186 -19.350279 -2.372728
-7.932969 -8.075470 2.200409
-21.022263 -21.392406 -1.571858
-7.933130 -8.069998 2.612581
-7.928137 -8.059286 3.029218
-0.722991 -0.733157 -0.275901
-21.086174 -21.375206 0.524096
-5.264398 -5.334695 -1.730324
-21.156334 -21.431358 1.578243
-6.216220 -6.297029 -1.719952
-7.446538 -7.538077 -1.678229
-21.127909 -21.380156 3.690692
-10.811437 -10.936701 -1.888244
-7.978296 -8.067918 1.797119
-19.111645 -19.326330 -2.377957
-7.983203 -8.070059 2.206515
-21.217619 -21.440989 -1.580860
-7.984559 -8.065801 2.620230
-7.972535 -8.048034 3.035430
-0.720101 -0.725146 -0.273831
-5.282987 -5.316286 -1.730324
-6.238163 -6.275292 -1.719952
-7.472807 -7.512038 -1.678229
-21.264015 -21.368191 3.701416
-11.216475 -11.267491 -1.952103
-8.038454 -8.075016 1.804628
-19.249285 -19.330090 -2.386673
-8.025179 -8.056055 2.210331
-21.312071 -21.386600 -1.582325
-8.029177 -8.054440 2.625629
-8.008729 -8.031127 3.039053
-0.725359 -0.725359 -0.274866
-5.295075 -5.293227 -1.728524
-6.273920 -6.267353 -1.723769
-7.513052 -7.502570 -1.681671
-21.362858 -21.325607 3.706291
-11.332464 -11.308756 -1.965753
-8.074984 -8.055278 1.806505
-19.367432 -19.313427 -2.392948
-8.068532 -8.046032 2.214911
-21.430967 -21.363750 -1.585884
-8.062742 -8.034648 2.627878
-8.054509 -8.020844 3.045783
-0.730502 -0.725673 -0.275901
-12.587287 -12.499716 0.309641
-5.324582 -5.285696 -1.732123
-12.734297 -12.641296 0.940373
-6.286307 -6.238216 -1.721479
-12.993380 -12.889478 1.601225
-7.553220 -7.490210 -1.684799
-21.468184 -21.281652 3.711653
-11.391611 -11.288692 -1.969165
-8.126907 -8.053484 1.812137
-19.479498 -19.296770 -2.398875
-8.141209 -8.062024 2.227123
-21.562189 -21.345016 -1.590071
-8.118444 -8.033868 2.636876
-21.762791 -21.536070 -0.534428
-8.120892 -8.033488 3.060794
-0.741282 -0.731259 -0.279007
-12.557488 -12.387688 0.307895
-5.354569 -5.280324 -1.736172
-21.636717 -21.329252 1.592269
-6.317833 -6.225881 -1.724150
-7.586461 -7.473438 -1.686677
-21.572584 -21.243773 3.717503
-11.471423 -11.292631 -1.976477
-8.177496 -8.047236 1.817143
-19.566622 -19.248215 -2.401315
-8.181894 -8.048751 2.230939
-21.647093 -21.287399 -1.591118
-8.181170 -8.042425 2.648574
-21.860649 -21.482403 -0.534986
-8.166800 -8.022692 3.067523
-0.724510 -0.709741 -0.271760
-13.371461 -13.094306 0.326674
-5.375280 -5.262025 -1.736622
-12.735929 -12.463242 0.933883
-6.342332 -6.206537 -1.724913
-7.627926 -7.459391 -1.689805
-21.701401 -21.214521 3.726277
-11.515575 -11.253285 -1.976965
-8.226721 -8.036534 1.821523
-19.716354 -19.260548 -2.411425
-8.225385 -8.032428 2.234755
-21.796429 -21.277672 -1.596352
-8.235699 -8.036881 2.656672
-12.566356 -12.258718 -0.306429
-8.216897 -8.012937 3.075288
-0.740830 -0.720678 -0.276936
-12.648679 -12.300301 0.307965
-5.390820 -5.240515 -1.735722
-13.051500 -12.683171 0.953771
-6.379447 -6.199411 -1.729111
-7.646831 -7.425841 -1.688241
-21.792414 -21.155233 3.729202
-11.591826 -11.248963 -1.983302
-8.277407 -8.029777 1.826529
-19.783463 -19.191612 -2.411425
-8.295653 -8.044668 2.246204
-21.899252 -21.229263 -1.598445
-8.274898 -8.018933 2.660271
-12.522899 -12.131295 -0.304335
-8.264246 -8.003019 3.082535
-0.740563 -0.715403 -0.275901
-12.904428 -12.461664 0.313131
-5.411884 -5.224371 -1.736622
-13.170431 -12.709653 0.959213
-6.399636 -6.175739 -1.728730
-7.691190 -7.416929 -1.692308
-21.894714 -21.106583 3.734077
-11.651031 -11.227717 -1.986714
-8.336684 -8.030984 1.833412
-19.890511 -19.161140 -2.416306
-8.315202 -8.007489 2.243914
-22.002001 -21.180391 -1.600538
-8.319687 -8.006217 2.665670
-12.813041 -12.325958 -0.310339
-8.310234 -7.991531 3.089264
-0.745844 -0.715488 -0.276936
-5.425867 -5.201403 -1.735272
-13.116655 -12.569635 0.952096
-6.421153 -6.153364 -1.728730
-7.727020 -7.399599 -1.694498
-11.710231 -11.206194 -1.990126
-8.384652 -8.020950 1.837792
-19.971676 -19.105362 -2.418049
-8.374318 -8.008265 2.252310
-22.162418 -21.186275 -1.606819
-8.364492 -7.993282 2.671069
-13.414127 -12.814340 -0.323812
-8.378593 -8.001167 3.104276
-0.742742 -0.707551 -0.274866
-13.080896 -12.456770 0.315295
-5.442579 -5.181088 -1.734823
-12.816104 -12.196084 0.927184
-6.455393 -6.143093 -1.732164
-7.768550 -7.387553 -1.697940
-22.237196 -21.139227 3.767225
-11.766544 -11.181659 -1.993051
-8.429786 -8.007958 1.841547
-20.067133 -19.062973 -2.421535
-8.433539 -8.008729 2.260705
-13.046822 -12.385303 -0.942780
-8.434751 -8.004277 2.684566
-12.637639 -11.988484 -0.304056
-8.424698 -7.989151 3.111005
-0.753627 -0.712919 -0.277972
-5.471961 -5.172767 -1.738422
-12.437624 -11.753456 0.896829
-6.473944 -6.117826 -1.731401
-7.800034 -7.365818 -1.699191
-11.819945 -11.154140 -1.995489
-8.489299 -8.008307 1.848430
-20.278481 -19.129532 -2.438966
-8.478584 -7.995404 2.265285
-22.402803 -21.118711 -1.613518
-8.493838 -8.004190 2.694464
-13.124811 -12.363876 -0.314737
-8.469411 -7.975587 3.117217
-0.761743 -0.715575 -0.280042
-5.491405 -5.154969 -1.738872
-12.636712 -11.862512 0.908343
-6.515301 -6.113999 -1.736744
-7.825698 -7.338546 -1.699191
-11.868450 -11.125748 -1.997439
-8.538871 -8.001724 1.853436
-20.417835 -19.126738 -2.447682
-8.543700 -8.000650 2.275207
-13.272946 -12.424952 -0.952829
-8.533138 -7.987965 2.698513
-8.521207 -7.971213 3.126534
-0.758462 -0.707773 -0.277972
-5.507044 -5.135401 -1.738422
-12.985650 -12.109313 0.930533
-6.544157 -6.100392 -1.739033
-27.006704 -25.166540 3.229643
-7.861554 -7.323325 -1.701694
-13.339142 -12.421558 2.238009
-11.908185 -11.089035 -1.997926
-8.591385 -7.997591 1.859067
-13.421702 -12.489689 -1.604014
-8.587435 -7.988320 2.279786
-8.582415 -7.980857 2.705711
-13.080566 -12.159469 -0.311735
-8.581555 -7.974474 3.138958
-0.766472 -0.710507 -0.280042
-5.535480 -5.127705 -1.742021
-6.556767 -6.069509 -1.736744
-7.897395 -7.307948 -1.704197
-22.700693 -20.999002 3.796962
-8.886148 -8.217151 -1.486075
-8.639558 -7.986324 1.863448
-13.500338 -12.475214 -1.608198
-8.635457 -7.976946 2.285129
-13.160591 -12.152753 -0.938803
-8.633128 -7.972003 2.712910
-8.644834 -7.977223 3.151898
-0.771915 -0.710309 -0.281078
-12.481772 -11.481602 0.296028
-5.558539 -5.111341 -1.743371
-13.210187 -12.143133 0.940373
-6.586198 -6.052077 -1.738652
-7.938673 -7.292319 -1.707326
-13.364128 -12.271736 2.227772
-8.895735 -8.165731 -1.482663
-8.697878 -7.981318 1.869705
-8.876971 -8.142800 -1.053887
-8.690681 -7.969125 2.291998
-8.891208 -8.150150 -0.632114
-8.695328 -7.970596 2.723258
-8.930018 -8.182854 -0.211418
-8.691108 -7.961143 3.158110
-0.771660 -0.704870 -0.280042
-8.935425 -8.159165 0.211209
-5.587312 -5.100128 -1.746520
-12.830608 -11.711847 0.910436
-6.617434 -6.038315 -1.741323
-13.336263 -12.164886 1.579262
-7.959511 -7.257847 -1.706074
-13.582129 -12.380473 2.256533
-8.910933 -8.119702 -1.480225
-8.746129 -7.969533 1.874085
-8.924489 -8.129206 -1.056153
-8.747477 -7.965178 2.299630
-8.935852 -8.133850 -0.633265
-8.759077 -7.970147 2.734055
-8.949653 -8.143557 -0.211209
-8.725988 -7.937259 3.160698
-0.776978 -0.704768 -0.281078
-8.950583 -8.118742 0.210930
-5.599864 -5.077644 -1.745170
-8.973584 -8.133897 0.634731
-6.644291 -6.020452 -1.742849
-8.987026 -8.140366 1.060860
-7.996712 -7.243348 -1.708890
-8.982011 -8.132973 1.487781
-9.018752 -8.163378 -1.493631
-8.811978 -7.973414 1.882220
-8.909959 -8.059246 -1.051098
-8.794227 -7.954564 2.304973
-8.927220 -8.072027 -0.630753
-8.808590 -7.961965 2.741254
-8.960218 -8.096182 -0.210790
-8.779449 -7.930057 3.170016
-0.779310 -0.702187 -0.281078
-8.969953 -8.079421 0.210720
-5.629138 -5.068499 -1.748769
-9.001923 -8.102524 0.634731
-6.678811 -6.011518 -1.746666
-9.021377 -8.117181 1.061731
-8.019008 -7.212749 -1.708264
-9.028059 -8.117497 1.490706
-9.076722 -8.158383 -1.498506
-8.845634 -7.947889 1.883471
-8.949974 -8.041640 -1.052667
-8.854073 -7.952679 2.313368
-8.952372 -8.038144 -0.630544
-8.845029 -7.938980 2.743953
-8.963122 -8.042152 -0.210197
-8.854534 -7.941929 3.187098
-0.796154 -0.712344 -0.286254
-8.990650 -8.041393 0.210546
-5.645344 -5.047521 -1.748320
-9.003346 -8.047095 0.632846
-6.699754 -5.988169 -1.746666
-9.022911 -8.061749 1.058594
-8.057397 -7.196557 -1.711080
-9.047456 -8.078001 1.489244
-9.094776 -8.117400 -1.496799
-8.905749 -7.945895 1.890354
-9.010696 -8.039531 -1.056502
-8.905223 -7.942630 2.319474
-9.002735 -8.026786 -0.632114
-8.894509 -7.927505 2.750701
-9.004580 -8.022786 -0.210511
-8.908168 -7.934102 3.196415
-0.789970 -0.701862 -0.283148
-9.024645 -8.015272 0.210685
-5.680416 -5.043309 -1.753718
-9.028394 -8.012966 0.632637
-6.726490 -5.969959 -1.748192
-9.031623 -8.013015 1.056328
-8.103158 -7.186737 -1.715461
-9.048862 -8.022667 1.484856
-9.183966 -8.139585 -1.506793
-8.968918 -7.946199 1.897863
-9.062475 -8.026265 -1.059117
-8.956408 -7.932325 2.325580
-9.059113 -8.020466 -0.634102
-8.973202 -7.941613 2.766448
-9.056491 -8.012508 -0.211069
-8.943046 -7.909358 3.199003
-0.798333 -0.704073 -0.285219
-9.070566 -7.999593 0.211104
-5.706756 -5.031184 -1.756418
-9.077288 -7.999889 0.634102
-6.755692 -5.951754 -1.750100
-9.089338 -8.004879 1.059640
-8.124997 -7.153074 -1.714522
-9.097671 -8.009396 1.488269
-9.254048 -8.144199 -1.513617
-9.032196 -7.946157 1.905372
-9.114376 -8.015635 -1.061906
-9.029655 -7.938333 2.337029
-9.110951 -8.006985 -0.635673
-9.024211 -7.927964 2.773197
-9.105437 -7.999322 -0.211558
-8.995276 -7.899764 3.207803
-0.797879 -0.698737 -0.284183
-9.138946 -8.000541 0.212012
-5.713427 -4.999965 -1.752819
-9.136721 -7.995776 0.636301
-6.788246 -5.938478 -1.753153
-9.144222 -7.996708 1.062777
-8.160327 -7.133770 -1.716712
-9.146396 -7.992980 1.491437
-9.301775 -8.125897 -1.516542
-9.080706 -7.932775 1.909752
-9.166311 -8.004739 -1.064695
-9.072098 -7.919678 2.340845
-9.165933 -7.998770 -0.637557
-9.076794 -7.918192 2.780845
-9.169471 -7.999040 -0.212396
-9.067935 -7.907673 3.223850
-0.809060 -0.703553 -0.287289
-9.197112 -7.997749 0.212745
-5.732918 -4.983548 -1.753718
-9.184173 -7.980868 0.637661
-6.804489 -5.910882 -1.752008
-9.203673 -7.992174 1.066438
-8.313701 -7.219350 -1.743932
-9.201334 -7.987329 1.496068
-9.321175 -8.088503 -1.515324
-9.138185 -7.926917 1.916010
-9.224300 -7.998801 -1.068181
-9.130942 -7.917846 2.349240
-9.224100 -7.995804 -0.639755
-9.122147 -7.904639 2.786694
-9.230587 -7.995790 -0.213164
-9.131990 -7.907589 3.236791
-0.811388 -0.700866 -0.287289
-9.261301 -7.996959 0.213583
-5.759129 -4.971148 -1.756418
-9.233266 -7.969943 0.639231
-6.832970 -5.895982 -1.754298
-9.251247 -7.979828 1.068878
-8.563252 -7.383783 -1.790862
-9.256224 -7.978491 1.500455
-9.371909 -8.075353 -1.518980
-9.188365 -7.917201 1.921016
-9.287005 -7.999375 -1.072364
-9.191258 -7.914106 2.357636
-9.285256 -7.992221 -0.642058
-9.186612 -7.904527 2.797941
-9.281303 -7.986002 -0.213722
-9.185991 -7.901199 3.246626
-0.813830 -0.698030 -0.287289
-9.310534 -7.985734 0.214106
-5.790376 -4.964706 -1.760917
-9.298942 -7.970159 0.641848
-6.859475 -5.877203 -1.755824
-9.307796 -7.972113 1.072190
-8.623698 -7.386185 -1.798371
-9.315804 -7.976155 1.505818
-9.433324 -8.073918 -1.524586
-9.233955 -7.900492 1.924770
-9.333042 -7.982449 -1.074456
-9.232370 -7.896345 2.361452
-9.346624 -7.991238 -0.644465
-9.258698 -7.913269 2.811888
-9.334970 -7.975639 -0.214316
-9.222330 -7.876613 3.249732
-0.814670 -0.694074 -0.286772
-9.355100 -7.967447 0.214490
-5.818058 -4.953307 -1.764066
-9.363210 -7.968717 0.644360
-6.889390 -5.863331 -1.758496
-9.364531 -7.967024 1.075676
-8.658457 -7.363716 -1.800248
-9.372325 -7.968018 1.510449
-9.512877 -8.084650 -1.532873
-9.306641 -7.906579 1.934156
-9.389830 -7.977254 -1.077942
-9.301780 -7.899652 2.372138
-9.397299 -7.977955 -0.646035
-9.314494 -7.904860 2.820436
-9.391728 -7.967582 -0.214979
-9.291022 -7.879358 3.264226
-0.821512 -0.694969 -0.288324
-9.422555 -7.968316 0.215398
-5.821918 -4.921645 -1.760017
-9.424531 -7.964347 0.646663
-6.917313 -5.845583 -1.760404
-9.422724 -7.960001 1.079162
-8.685617 -7.334721 -1.800561
-9.418284 -7.950620 1.513374
-9.571382 -8.076999 -1.537748
-9.364380 -7.899518 1.940413
-9.446553 -7.968837 -1.081254
-9.365316 -7.897511 2.381296
-9.449523 -7.965699 -0.647710
-9.353952 -7.882343 2.824036
-9.450071 -7.960517 -0.215677
-9.350977 -7.874256 3.275614
-0.829850 -0.697068 -0.290395
-9.480941 -7.961095 0.216096
-5.853988 -4.913823 -1.764516
-9.470633 -7.946805 0.647919
-6.945196 -5.827711 -1.762312
-9.468770 -7.942427 1.081254
-8.723278 -7.314512 -1.803064
-9.479450 -7.945749 1.518736
-9.617776 -8.058838 -1.540672
-9.407042 -7.879467 1.943542
-9.504860 -7.961402 -1.084740
-9.422932 -7.889979 2.388929
-9.509434 -7.959587 -0.649908
-9.400842 -7.865898 2.829884
-9.508477 -7.953143 -0.216375
-9.411013 -7.868830 3.287002
-0.848598 -0.707778 -0.296089
-9.542459 -7.956126 0.216864
-5.877093 -4.898347 -1.766316
-9.521333 -7.932875 0.649489
-6.959463 -5.798406 -1.760786
-9.542363 -7.947580 1.086483
-8.738130 -7.275170 -1.800874
-9.543747 -7.943088 1.524586
-9.661107 -8.037915 -1.543110
-9.461826 -7.869319 1.949174
-9.575484 -7.963847 -1.089621
-9.474571 -7.877121 2.395035
-9.572491 -7.955703 -0.652315
-9.477704 -7.874133 2.844731
-9.566948 -7.945455 -0.217073
-9.459233 -7.853204 3.294249
-0.834696 -0.691258 -0.290395
-9.600980 -7.948271 0.217562
-5.900162 -4.882772 -1.768115
-9.588975 -7.932693 0.652211
-6.987223 -5.780335 -1.762694
-9.593081 -7.933266 1.089098
-8.749770 -7.233296 -1.798058
-9.609669 -7.941341 1.530679
-9.716656 -8.026897 -1.547497
-9.544072 -7.881525 1.960437
-9.626269 -7.949403 -1.092236
-9.547428 -7.881497 2.406483
-9.638714 -7.954023 -0.654932
-9.547224 -7.875723 2.857328
-9.625478 -7.937459 -0.217771
-9.525345 -7.852089 3.307708
-0.841581 -0.692021 -0.291948
-9.647206 -7.929945 0.217981
-5.926203 -4.869571 -1.770815
-9.650560 -7.927063 0.654514
-7.016459 -5.763387 -1.764983
-9.662289 -7.933869 1.093804
-8.764276 -7.193938 -1.795868
-9.666489 -7.931674 1.535310
-9.792195 -8.031957 -1.555053
-9.602074 -7.873213 1.966694
-9.686312 -7.942283 -1.095896
-9.587031 -7.858077 2.409536
-9.695773 -7.944379 -0.656921
-9.582195 -7.848523 2.859578
-9.684072 -7.929145 -0.218469
-9.585584 -7.845710 3.319096
-0.839502 -0.685413 -0.290395
-9.704262 -7.920246 0.218644
-5.937125 -4.843928 -1.769015
-9.709130 -7.918572 0.656607
-7.048708 -5.748785 -1.768036
-9.714630 -7.920239 1.096593
-8.775553 -7.152069 -1.793052
-9.717202 -7.916687 1.538966
-9.846337 -8.019040 -1.559196
-9.663200 -7.867085 1.973577
-9.663129 -7.864220 2.421748
-9.752881 -7.934434 -0.658910
-9.644305 -7.843309 2.869925
-9.752035 -7.928090 -0.219377
-9.630903 -7.826822 3.325307
-0.849393 -0.688562 -0.292983
-9.780011 -7.925353 0.219726
-5.966112 -4.832987 -1.772614
-9.763097 -7.906003 0.658386
-7.068731 -5.724147 -1.768036
-9.773190 -7.911352 1.100080
-8.772826 -7.099024 -1.787420
-9.777189 -7.908938 1.544085
-9.906685 -8.010833 -1.564315
-9.724401 -7.860623 1.980461
-9.916615 -8.015997 -1.115593
-9.705792 -7.842780 2.425564
-9.819359 -7.931719 -0.661527
-9.709530 -7.840200 2.881173
-9.813883 -7.921633 -0.220145
-9.697253 -7.824700 3.338766
-0.854801 -0.688015 -0.294018
-9.838777 -7.916237 0.220424
-5.987501 -4.815795 -1.773964
-9.820210 -7.895653 0.660375
-7.097849 -5.706819 -1.770326
-9.850442 -7.917130 1.105658
-8.762136 -7.039901 -1.780224
-9.832594 -7.897137 1.548472
-9.929944 -7.972474 -1.563584
-9.748701 -7.824158 1.979835
-9.851306 -7.906507 -1.105135
-9.772923 -7.840798 2.435486
-9.876592 -7.921134 -0.663515
-9.774850 -7.836734 2.892421
-9.872681 -7.912340 -0.220843
-9.769740 -7.827036 3.354295
-0.857197 -0.685027 -0.294018
-9.897595 -7.906810 0.221122
-6.014934 -4.803379 -1.777113
-9.885172 -7.891230 0.662887
-7.117726 -5.682007 -1.770326
-9.888921 -7.891393 1.106878
-8.811362 -7.028985 -1.785230
-9.891141 -7.887519 1.553347
-10.052402 -8.013241 -1.578452
-9.822297 -7.827014 1.989221
-9.910007 -7.896907 -1.108621
-9.827872 -7.828653 2.442355
-9.935430 -7.911492 -0.665609
-9.825014 -7.820772 2.899169
-9.931535 -7.902732 -0.221541
-9.821192 -7.812127 3.362577
-0.859583 -0.682031 -0.294018
-9.951771 -7.893334 0.221715
-6.036245 -4.785985 -1.778463
-9.947092 -7.883972 0.665190
-7.146748 -5.664445 -1.772616
-9.958570 -7.890236 1.111584
-8.829650 -6.993278 -1.783979
-9.957520 -7.883753 1.559440
-10.136346 -8.022454 -1.587226
-9.905330 -7.836804 2.000484
-9.975013 -7.891935 -1.112805
-9.892099 -7.823526 2.451514
-10.005286 -7.910210 -0.668435
-9.887419 -7.814220 2.909517
-9.984168 -7.887849 -0.222099
-9.860528 -7.787378 3.366718
-0.868029 -0.683808 -0.296089
-10.015398 -7.887003 0.222518
-6.054445 -4.766092 -1.778913
-10.018500 -7.883782 0.668121
-7.178821 -5.649175 -1.775669
-10.014237 -7.877598 1.114722
-8.829163 -6.942877 -1.778973
-10.009952 -7.868573 1.563340
-10.170532 -7.991930 -1.588201
-9.957479 -7.821703 2.005490
-9.962581 -7.822900 2.462199
-10.057975 -7.894969 -0.670110
-9.956030 -7.812139 2.921664
-10.050975 -7.883806 -0.222972
-9.942381 -7.795825 3.385353
-0.881063 -0.689105 -0.299712
-10.083825 -7.884021 0.223426
-6.067975 -4.742528 -1.778013
-10.066619 -7.867737 0.669586
-7.206231 -5.630125 -1.777577
-10.084071 -7.875706 1.119428
-8.850230 -6.909585 -1.778347
-10.073351 -7.861674 1.568946
-10.218713 -7.972251 -1.591370
-10.020741 -7.817801 2.012999
-10.111562 -7.885818 -1.121869
-10.020795 -7.812218 2.469832
-10.123281 -7.889276 -0.672622
-10.020133 -7.806081 2.932462
-10.122811 -7.886071 -0.223984
-10.007808 -7.793672 3.398812
-0.888040 -0.689580 -0.301265
-10.143083 -7.876294 0.224159
-6.095983 -4.731940 -1.781612
-10.135049 -7.864382 0.672308
-7.222738 -5.602529 -1.776813
-10.155585 -7.874644 1.124309
