# This PCD file was generated using the MATLAB® pcwrite function
# from Computer Vision Toolbox®.
# .PCD v.7 - Point Cloud Data file format
VERSION .7
FIELDS x y z
SIZE 4 4 4
TYPE F F F
COUNT 1 1 1
WIDTH 1691
HEIGHT 1
VIEWPOINT 0 0 0 1 0 0 0
POINTS 1691
DATA ascii
8.688079 7.770771 0.203460
4.682177 4.186351 -1.450034
9.317554 8.327932 0.654932
5.398447 4.825075 -1.407407
9.294801 8.304678 1.090493
5.795903 5.176680 -1.230826
9.269568 8.276317 1.525804
7.062853 6.303840 -1.162390
8.724450 7.784138 1.851871
8.750528 7.807405 -1.025997
8.726472 7.783207 2.272917
8.720980 7.775575 -0.612331
8.760669 7.808218 2.709311
8.726870 7.775361 -0.204019
8.762467 7.804327 3.144134
4.130376 3.669698 -1.480445
8.748042 7.769612 0.204228
4.696763 4.169980 -1.450034
9.313706 8.266188 0.652629
5.424068 4.814020 -1.409697
9.149358 8.117477 1.070098
5.825762 5.166901 -1.233329
9.271667 8.220202 1.521417
7.075899 6.271249 -1.160927
8.795928 7.792933 1.861258
8.810539 7.805879 -1.029832
8.793271 7.787840 2.283221
8.774983 7.768920 -0.614215
8.803926 7.791795 2.714259
8.789905 7.776651 -0.204856
8.820039 7.800575 3.155004
4.138814 3.651424 -1.478892
8.812606 7.772093 0.205101
4.702519 4.145829 -1.447335
9.134225 8.050072 0.638080
5.432001 4.787270 -1.407407
9.243419 8.143439 1.077768
5.834867 5.138701 -1.231452
9.274974 8.165492 1.517273
7.076886 6.228149 -1.157515
8.843842 7.780446 1.865638
8.878123 7.810606 -1.034539
8.860205 7.792107 2.293524
8.841050 7.772526 -0.616936
8.870595 7.795747 2.726407
8.851546 7.776277 -0.205659
8.883505 7.801607 3.167945
4.148629 3.634408 -1.477857
8.886315 7.782125 0.206183
4.722826 4.134524 -1.449135
9.318583 8.154928 0.648966
5.427997 4.750177 -1.402065
9.291285 8.128176 1.080034
5.849793 5.115703 -1.230826
9.281005 8.113466 1.513617
7.116522 6.219082 -1.160440
8.914083 7.787222 1.874711
8.935339 7.805790 -1.038025
8.921364 7.790831 2.302302
8.901232 7.770512 -0.619239
8.947669 7.808306 2.741704
8.913299 7.775565 -0.206462
8.938350 7.794672 3.177780
4.149627 3.609764 -1.473716
8.934554 7.769428 0.206671
4.729877 4.111620 -1.446885
9.324373 8.102707 0.647396
5.456396 4.741507 -1.405118
9.298541 8.077403 1.077594
5.864633 5.092660 -1.230201
9.285278 8.060205 1.509718
7.126193 6.183796 -1.158490
8.980011 7.789711 1.882845
9.006179 7.812411 -1.043080
8.981138 7.787936 2.310697
8.970556 7.776025 -0.622170
9.007273 7.805099 2.751601
8.982709 7.781062 -0.207439
9.000552 7.793777 3.190204
4.173899 3.605358 -1.477857
9.007028 7.777398 0.207719
4.748625 4.098905 -1.448235
9.327003 8.050858 0.645721
5.463997 4.714734 -1.402828
9.308578 8.029277 1.075502
5.870405 5.061840 -1.227698
9.280280 7.999228 1.504355
7.138712 6.151106 -1.157028
9.053683 7.801149 1.892857
9.066605 7.809535 -1.046915
9.048432 7.791132 2.321001
9.021868 7.765510 -0.623845
9.074346 7.807930 2.763749
9.044837 7.782539 -0.208277
9.073213 7.804201 3.206768
4.180594 3.585734 -1.475786
9.076786 7.785244 0.208731
4.751835 4.074258 -1.445086
9.320173 7.988355 0.643314
5.477441 4.693077 -1.402065
9.312332 7.976005 1.072713
5.900660 5.053911 -1.230514
9.272076 7.938714 1.498749
7.143988 6.114493 -1.154590
9.119878 7.802895 1.900992
9.116523 7.797261 -1.049529
9.108537 7.790431 2.329778
9.087036 7.769296 -0.626566
9.123888 7.798055 2.770947
9.117560 7.789886 -0.209324
9.135658 7.802591 3.219192
4.201286 3.579367 -1.478892
9.146531 7.789818 0.209708
4.760093 4.052591 -1.443286
9.322145 7.933763 0.641534
5.484004 4.667251 -1.399775
9.308382 7.919256 1.069227
5.934820 5.047359 -1.233955
9.287634 7.896010 1.496799
7.159237 6.084378 -1.153615
9.189215 7.806821 1.909752
9.148401 7.772148 -1.050227
9.183562 7.799253 2.341990
9.156733 7.773725 -0.629497
9.209001 7.815334 2.788493
9.172147 7.781296 -0.209952
9.217351 7.816887 3.238344
4.199004 3.552206 -1.473716
9.214896 7.792705 0.210651
4.781651 4.042242 -1.445535
9.319267 7.875399 0.639441
5.497260 4.645549 -1.399012
9.300964 7.857141 1.065217
5.973532 5.044453 -1.238335
9.290864 7.843061 1.492900
7.183467 6.061909 -1.154103
9.255669 7.807811 1.917887
9.161772 7.728602 -1.048658
9.243745 7.794999 2.350385
9.221991 7.773894 -0.632114
9.263051 7.805742 2.796592
9.239016 7.782731 -0.210860
9.263794 7.800839 3.245074
4.214337 3.540011 -1.474751
9.271136 7.784926 0.211314
4.792747 4.023019 -1.444636
9.328342 7.827412 0.638185
5.510436 4.623806 -1.398248
9.308489 7.807984 1.062951
6.006240 5.036264 -1.241464
9.309059 7.802929 1.491437
7.189367 6.024050 -1.151665
9.337381 7.821122 1.929150
9.173419 7.683784 -1.046915
9.307026 7.792932 2.359544
9.287360 7.773701 -0.634731
9.321626 7.799623 2.806040
9.315207 7.791490 -0.211977
9.348768 7.816780 3.265261
4.225183 3.524043 -1.474233
9.342793 7.789654 0.212326
4.799277 4.000026 -1.442386
9.343331 7.784576 0.637347
5.535592 4.612084 -1.400538
9.354056 7.790747 1.065043
6.045037 5.032961 -1.245844
9.360650 7.790706 1.495337
7.213405 6.001455 -1.152153
9.413228 7.828898 1.939162
9.194059 7.646617 -1.046218
9.379459 7.798052 2.370993
9.345159 7.766769 -0.636824
9.398261 7.808130 2.820886
9.370037 7.781924 -0.212605
9.419101 7.819888 3.280273
4.227045 3.500646 -1.470610
9.416140 7.795248 0.213373
4.807205 3.978280 -1.440587
9.393534 7.771008 0.638917
5.548633 4.590229 -1.399775
9.421116 7.791058 1.069575
6.077793 5.024416 -1.248973
9.424515 7.788331 1.501187
7.228187 5.971183 -1.151178
9.480099 7.828697 1.947297
9.211474 7.606867 -1.045172
9.444475 7.796508 2.380533
9.421506 7.774782 -0.640173
9.461535 7.805039 2.831684
9.432630 7.778429 -0.213408
9.486586 7.820141 3.294249
4.242225 3.488322 -1.471645
9.488090 7.799158 0.214385
4.822569 3.962711 -1.441036
9.462276 7.772398 0.641744
5.558555 4.565847 -1.398248
9.491368 7.793529 1.074456
6.127360 5.029488 -1.255543
9.502287 7.796937 1.509230
7.239776 5.938363 -1.149715
9.544030 7.825615 1.954805
9.227189 7.565821 -1.043952
9.518704 7.802072 2.392363
9.488752 7.774761 -0.642895
9.524907 7.801599 2.842482
9.493765 7.773323 -0.214176
9.548207 7.815124 3.306154
4.239410 3.461276 -1.466469
9.550891 7.795070 0.215188
4.834860 3.944625 -1.440587
9.538876 7.779717 0.645093
5.577500 4.548899 -1.399012
9.552489 7.788045 1.078291
6.163253 5.023046 -1.259298
9.569458 7.796321 1.515567
7.254305 5.908040 -1.148741
9.620307 7.832164 1.964817
9.244269 7.526021 -1.042906
9.579379 7.796063 2.400759
9.559217 7.776882 -0.645826
9.592901 7.801503 2.854629
9.561182 7.772935 -0.215083
9.611412 7.810985 3.318578
4.251467 3.446456 -1.466469
9.629311 7.803233 0.216340
4.854657 3.932629 -1.442386
9.610988 7.782821 0.648129
5.581141 4.519516 -1.395959
9.619878 7.787249 1.082823
6.205318 5.021385 -1.264304
9.635201 7.794079 1.521661
7.277970 5.885180 -1.149228
9.702892 7.843242 1.976080
9.259637 7.484941 -1.041685
9.655401 7.802060 2.412971
9.626703 7.776094 -0.648547
9.679204 7.815719 2.872175
9.638052 7.779703 -0.216200
9.667187 7.800434 3.328413
4.264974 3.432809 -1.466986
9.695442 7.800909 0.217213
4.859245 3.908330 -1.439687
9.683432 7.788462 0.651269
5.593819 4.497550 -1.395195
9.693592 7.791063 1.088052
6.242828 5.015776 -1.268371
9.707227 7.796454 1.528729
7.292279 5.854765 -1.148253
9.778142 7.850595 1.986092
9.276387 7.445088 -1.040640
9.722385 7.800258 2.422893
9.697412 7.777433 -0.651478
9.739878 7.808699 2.882073
9.710601 7.785227 -0.217248
9.738219 7.804585 3.343942
4.275423 3.416693 -1.466469
9.764997 7.803671 0.218190
4.856954 3.880030 -1.435188
9.748014 7.784527 0.653781
5.606418 4.475546 -1.394432
9.764337 7.791974 1.092933
6.279500 5.011063 -1.272438
9.779584 7.801355 1.536041
7.293028 5.815701 -1.145328
9.844103 7.847195 1.993914
9.289851 7.402731 -1.039245
9.786585 7.798559 2.432433
9.763766 7.777590 -0.654200
9.814505 7.815199 2.896470
9.787782 7.791138 -0.218365
9.813779 7.809034 3.360507
4.300348 3.413304 -1.471128
9.839172 7.806822 0.219237
4.873520 3.865478 -1.436087
9.804866 7.774026 0.655770
5.611999 4.449610 -1.392143
9.843209 7.801631 1.098860
6.329465 5.014878 -1.279008
9.854999 7.805375 1.543597
7.310172 5.787741 -1.144841
9.903958 7.838537 2.000484
9.309661 7.368176 -1.038722
9.870717 7.809418 2.446553
9.831588 7.775671 -0.656921
9.864650 7.799029 2.903218
9.822763 7.763120 -0.218539
9.887971 7.811852 3.376553
4.298579 3.387514 -1.466469
9.905632 7.803368 0.220110
4.893108 3.853264 -1.437887
9.902557 7.795353 0.660480
5.621323 4.425140 -1.390616
9.907957 7.796796 1.103043
6.362458 5.004964 -1.282137
9.919637 7.800374 1.549447
7.333452 5.764645 -1.145328
9.321226 7.324553 -1.037153
9.902652 7.775845 -0.659852
9.909586 7.775692 -0.219865
4.296684 3.361773 -1.461810
9.965891 7.794611 0.220843
4.909598 3.838562 -1.438787
9.962757 7.786564 0.662678
5.642924 4.410325 -1.392143
9.985356 7.801413 1.108621
6.404799 5.002181 -1.287143
7.350400 5.736566 -1.144841
9.345163 7.290748 -1.036979
9.976991 7.778067 -0.662992
9.982409 7.776699 -0.220878
4.323650 3.358605 -1.466986
10.051476 7.805158 0.222134
4.906034 3.808255 -1.433838
5.658286 4.390599 -1.392143
9.861393 7.649282 1.091887
6.448760 5.000370 -1.292462
7.357825 5.701148 -1.142891
9.357957 7.248320 -1.035585
10.027771 7.761533 -0.664562
10.074350 7.791965 -0.222309
4.318520 3.330515 -1.461292
4.914669 3.787537 -1.432488
5.667356 4.366030 -1.390616
6.488091 4.994697 -1.296842
9.802550 7.543535 1.518736
7.371387 5.670590 -1.141916
9.380045 7.213178 -1.035236
12.446160 9.564095 -0.822617
4.343925 3.325989 -1.465951
4.930296 3.773588 -1.433388
5.676325 4.341448 -1.389090
6.529725 4.992352 -1.301848
7.380688 5.638881 -1.140453
9.394079 7.171930 -1.034016
12.255531 9.353127 -0.807963
4.341090 3.301043 -1.461292
4.952747 3.763431 -1.436087
5.687563 4.320227 -1.388326
6.573859 4.989833 -1.307166
7.387675 5.603485 -1.138503
9.406696 7.132315 -1.032796
12.281739 9.305463 -0.807544
28.928442 21.902243 -0.633348
4.346418 3.281215 -1.459222
4.959632 3.741423 -1.434288
5.696337 4.295620 -1.386800
6.608593 4.979931 -1.310608
7.407188 5.577664 -1.138503
9.415619 7.087452 -1.031052
13.220747 9.944472 -0.866997
28.924799 21.741049 -0.631603
4.367121 3.272973 -1.462328
4.955503 3.711239 -1.429339
5.708156 4.273355 -1.386037
6.646496 4.972217 -1.314675
7.429791 5.554153 -1.138991
9.435512 7.050966 -1.030529
12.304797 9.188423 -0.804822
28.946020 21.599297 -0.630416
4.378520 3.257708 -1.462328
4.974684 3.698569 -1.431139
48.672462 36.173717 3.178154
5.732493 4.260429 -1.388326
6.682844 4.963118 -1.318430
7.433192 5.516356 -1.136554
9.455269 7.014423 -1.030007
12.327163 9.138288 -0.804194
28.719158 21.274340 -0.623854
4.386757 3.240110 -1.461292
4.992267 3.684654 -1.432488
5.731531 4.228739 -1.384510
6.706489 4.944447 -1.319681
7.449208 5.488019 -1.136066
9.471676 6.975466 -1.029135
13.337026 9.814954 -0.867835
28.667580 21.081558 -0.621131
4.391809 3.220207 -1.459222
4.997238 3.661448 -1.430239
49.126839 35.981743 3.191342
5.739922 4.204064 -1.382984
6.733268 4.928011 -1.321558
7.471526 5.464324 -1.136554
9.473445 6.925905 -1.026695
13.390561 9.782474 -0.869091
28.676397 20.934193 -0.619735
4.403021 3.204860 -1.459222
5.014717 3.647419 -1.431589
5.751383 4.181698 -1.382221
6.737646 4.895187 -1.319056
7.470326 5.425524 -1.133629
9.502401 6.896302 -1.027218
13.447261 9.752090 -0.870556
28.729465 20.827253 -0.619386
4.412059 3.189108 -1.458704
5.020467 3.626204 -1.429789
5.762036 4.160302 -1.381457
6.750639 4.870503 -1.318430
7.494719 5.405365 -1.134604
9.523604 6.863586 -1.027043
13.567042 9.770475 -0.876209
28.752935 20.699146 -0.618409
4.417902 3.171081 -1.457151
5.019795 3.600450 -1.426190
5.785373 4.148036 -1.383747
43.247856 30.996687 4.655162
6.766752 4.848093 -1.318430
7.503858 5.372235 -1.133141
9.542639 6.826829 -1.026520
13.703343 9.799784 -0.882908
15.194260 10.857991 -0.325976
4.434216 3.158228 -1.458704
15.152662 10.792340 0.324719
5.037094 3.586298 -1.427539
15.163999 10.792439 0.975438
5.784544 4.115419 -1.379931
43.465080 30.911877 4.666318
6.787695 4.825549 -1.319056
7.512857 5.339108 -1.131679
9.563164 6.791168 -1.026172
13.683786 9.710196 -0.879349
15.173353 10.763231 -0.324719
4.435748 3.136040 -1.455598
15.185589 10.732111 0.324580
5.058163 3.573435 -1.429789
15.190158 10.731377 0.974705
5.805285 4.099736 -1.381457
6.801269 4.799550 -1.318430
7.531445 5.312855 -1.131679
9.568900 6.745115 -1.024254
13.753526 9.687672 -0.881652
15.230457 10.724012 -0.325138
4.438219 3.115762 -1.453010
15.286567 10.727646 0.325976
5.063604 3.552164 -1.427989
15.222394 10.678647 0.974496
5.815635 4.078207 -1.380694
6.800971 4.765632 -1.315301
7.552276 5.290127 -1.132166
24.883659 17.423733 4.811299
9.579788 6.705351 -1.023034
13.765932 9.628276 -0.880396
15.305265 10.700952 -0.325976
4.462789 3.110971 -1.457669
15.358152 10.702042 0.326744
5.059364 3.524215 -1.423490
15.292356 10.648275 0.976589
5.822681 4.054412 -1.379167
6.813493 4.740798 -1.314675
7.554398 5.252398 -1.129729
24.934593 17.330008 4.809422
9.591683 6.663910 -1.021814
13.742014 9.543835 -0.876837
15.395099 10.683940 -0.327093
4.467807 3.090197 -1.455598
15.457911 10.691596 0.328070
5.087666 3.517615 -1.427989
15.382010 10.631164 0.979939
5.834274 4.030811 -1.378404
6.824322 4.711303 -1.313424
7.553080 5.212468 -1.126804
25.092499 17.310162 4.828194
9.600123 6.620211 -1.020245
13.737429 9.466208 -0.874325
15.504758 10.680052 -0.328629
4.475382 3.072394 -1.454563
15.529967 10.657501 0.328768
5.086061 3.489024 -1.423940
15.499940 10.628928 0.984963
5.854785 4.014861 -1.379931
6.847243 4.691920 -1.314675
7.575411 5.186990 -1.127291
9.635835 6.592853 -1.021465
13.737419 9.395642 -0.872231
15.606535 10.666022 -0.329955
4.483419 3.053797 -1.453528
5.093377 3.467957 -1.422590
5.853229 3.982332 -1.376115
6.861126 4.664573 -1.314050
7.593470 5.160517 -1.127291
9.630768 6.540151 -1.018502
13.801510 9.365419 -0.874115
4.482849 3.030553 -1.449904
17.077110 11.540359 0.359764
5.114127 3.454721 -1.424840
5.867095 3.961875 -1.376115
6.860993 4.629543 -1.310921
7.604855 5.129538 -1.126317
9.658494 6.509836 -1.019025
13.847368 9.326115 -0.874953
4.496081 3.017825 -1.450940
17.180048 11.527122 0.361125
5.106135 3.424716 -1.419441
5.886723 3.946771 -1.377641
6.882874 4.611163 -1.312172
7.608628 5.095456 -1.124367
9.661816 6.465581 -1.017107
49.329769 32.998474 11.536312
13.801845 9.229078 -0.870138
17.294907 11.560454 -0.363115
4.514103 3.008254 -1.453528
17.271437 11.505558 0.362242
5.119085 3.408845 -1.419891
5.900463 3.926200 -1.377641
6.891547 4.583938 -1.310921
7.619754 5.064472 -1.123392
9.669390 6.421892 -1.015539
49.235287 32.687099 11.487465
13.787382 9.149918 -0.867207
17.288498 11.469057 -0.362137
4.518651 2.987428 -1.451457
17.455290 11.535898 0.365209
5.133170 3.391135 -1.420341
5.901707 3.895893 -1.374588
6.908300 4.558650 -1.310921
7.631636 5.032137 -1.122417
9.686207 6.382026 -1.014841
13.870869 9.132274 -0.870347
17.323734 11.401219 -0.361998
4.529570 2.970847 -1.451457
5.142305 3.370161 -1.419441
5.905416 3.868815 -1.372298
49.446678 32.381664 5.171124
6.915047 4.526805 -1.309044
7.663319 5.012827 -1.124367
9.698421 6.341631 -1.013796
13.752184 8.985475 -0.860927
28.610802 18.679632 -0.596418
4.539913 2.955017 -1.451457
5.158939 3.355379 -1.420791
43.449223 28.248602 2.716027
5.918886 3.848176 -1.372298
6.920866 4.496184 -1.307166
7.690759 4.992533 -1.125829
9.703781 6.296900 -1.012052
13.793518 8.943938 -0.861555
28.618778 18.542671 -0.595232
4.546954 2.937056 -1.450422
5.155885 3.327838 -1.416742
43.493984 28.072960 2.712991
5.938880 3.831750 -1.373825
49.340015 31.821857 5.136611
6.936520 4.471996 -1.307166
7.697262 4.960548 -1.124367
9.729054 6.265143 -1.012401
13.965742 8.986516 -0.870347
28.555651 18.367619 -0.592649
4.566426 2.928220 -1.453528
38.396015 24.611982 0.796074
5.166893 3.310721 -1.416742
43.514538 27.882231 2.708491
5.948247 3.809919 -1.373062
49.277470 31.550644 5.119180
6.954640 4.451097 -1.307792
7.710323 4.932858 -1.123879
9.743064 6.228552 -1.011704
14.133483 9.028322 -0.878930
28.562477 18.238379 -0.591532
4.572852 2.910985 -1.452493
38.308720 24.377153 0.792584
5.172908 3.290435 -1.415392
43.635189 27.745176 2.709956
5.940969 3.777530 -1.368482
49.297756 31.333609 5.110464
6.969362 4.428012 -1.307792
7.710739 4.895272 -1.121442
9.761981 6.195143 -1.011530
14.200453 9.004932 -0.881233
28.430023 18.014416 -0.587483
4.573185 2.888815 -1.449387
38.224487 24.136524 0.789093
5.190955 3.276517 -1.417192
5.960759 3.760961 -1.370009
6.984775 4.403659 -1.307792
7.751293 4.883142 -1.124854
9.761628 6.147229 -1.009264
13.322347 8.383034 -0.824919
28.404705 17.859709 -0.585668
4.566872 2.862575 -1.444210
38.196671 23.932863 0.786789
5.202361 3.258376 -1.417192
5.983835 3.746383 -1.372298
49.261971 30.830133 5.084317
6.983358 4.368772 -1.304664
7.768292 4.856053 -1.124854
9.787471 6.113523 -1.009612
13.439622 8.391486 -0.830362
28.456684 17.754118 -0.585458
4.580615 2.847856 -1.445246
28.795321 17.902601 0.591846
5.213703 3.240197 -1.417192
5.984184 3.716139 -1.369245
49.205357 30.544304 5.066886
6.972467 4.326485 -1.299658
7.815562 4.847740 -1.129241
9.795206 6.070921 -1.008218
14.030628 8.689197 -0.864904
28.491282 17.637827 -0.584900
4.593816 2.833879 -1.446281
28.840321 17.784338 0.591427
5.205638 3.208794 -1.411793
5.990433 3.691109 -1.367719
6.997621 4.308332 -1.301535
7.870472 4.841947 -1.134604
9.816339 6.036690 -1.008218
13.958776 8.577423 -0.858624
28.535645 17.527794 -0.584551
4.603681 2.817825 -1.446281
5.222897 3.195586 -1.413592
5.993231 3.664030 -1.365429
49.162399 30.044178 5.040740
7.018612 4.289221 -1.302786
7.920369 4.836513 -1.139478
9.830546 5.998239 -1.007520
14.082628 8.589330 -0.864485
28.487364 17.361483 -0.582317
4.603095 2.796524 -1.443175
5.240684 3.181379 -1.415392
6.005350 3.644135 -1.365429
49.176567 29.829353 5.032024
7.023404 4.258556 -1.300909
7.974553 4.831468 -1.144841
9.833341 5.955287 -1.005777
14.218469 8.604226 -0.870975
28.530687 17.251583 -0.581968
4.622753 2.786426 -1.446281
5.243411 3.158037 -1.413142
6.028122 3.629229 -1.367719
49.109688 29.554762 5.014593
7.044999 4.238085 -1.302161
8.035607 4.830190 -1.151178
9.845531 5.915793 -1.004906
14.282660 8.575107 -0.873069
28.546137 17.125160 -0.581060
4.625821 2.766305 -1.444210
5.241019 3.131720 -1.409543
6.030643 3.602123 -1.365429
49.085976 29.307564 5.001694
7.046178 4.205370 -1.299658
8.086518 4.822443 -1.156053
48.827950 29.118839 9.004369
9.876388 5.887513 -1.005952
14.171804 8.441385 -0.864485
28.430954 16.928093 -0.577570
4.640434 2.753097 -1.445763
5.248022 3.112335 -1.408643
6.046559 3.583050 -1.366192
49.016533 29.034536 4.984262
7.046488 4.173928 -1.297155
8.129798 4.811780 -1.159953
48.810265 28.877842 8.982468
9.871157 5.837786 -1.003337
14.124068 8.349625 -0.859880
28.403788 16.777887 -0.575825
4.642878 2.733774 -1.443693
5.262215 3.095972 -1.409543
6.051637 3.559000 -1.364666
49.067894 28.845564 4.979730
7.050797 4.143300 -1.295278
8.191051 4.809508 -1.166290
48.764271 28.621286 8.955561
9.894913 5.805308 -1.003685
14.077321 8.255818 -0.855274
28.410423 16.648300 -0.574778
4.644526 2.711867 -1.441105
5.272988 3.077586 -1.409543
6.047683 3.526904 -1.360850
49.001156 28.565197 4.962299
7.086418 4.129362 -1.299032
8.245528 4.802866 -1.171652
48.768276 28.395237 8.938041
9.897896 5.760713 -1.001942
14.083317 8.190105 -0.853809
4.655635 2.696607 -1.441622
5.287608 3.060190 -1.410443
6.070152 3.511672 -1.363140
48.928104 28.294228 4.944868
7.076844 4.090762 -1.294652
8.321519 4.806370 -1.179939
48.699471 28.127996 8.907379
9.917943 5.726130 -1.001942
14.087598 8.126926 -0.852343
28.491306 16.429586 -0.574079
4.671721 2.684188 -1.443693
5.284208 3.034873 -1.406844
6.072158 3.484597 -1.360850
48.915970 28.059801 4.933712
7.083519 4.063338 -1.293400
8.358081 4.790592 -1.182864
48.687672 27.894974 8.887356
9.944785 5.695437 -1.002640
14.069405 8.054362 -0.849622
4.672204 2.663898 -1.441105
5.294769 3.016410 -1.406844
6.083679 3.464443 -1.360850
48.842518 27.802824 4.916978
7.121695 4.052266 -1.297781
8.419619 4.786898 -1.189201
48.669998 27.670889 8.867332
9.942832 5.650612 -1.000548
14.073117 7.991398 -0.848157
4.684837 2.649476 -1.442140
5.303046 2.997878 -1.406394
6.095735 3.443187 -1.360850
48.869869 27.592991 4.910006
7.121332 4.020859 -1.295278
8.452737 4.768703 -1.191639
48.632076 27.425158 8.842929
9.960761 5.614890 -1.000374
14.071702 7.928995 -0.846482
4.687777 2.628507 -1.440069
5.323019 2.982254 -1.408643
6.104888 3.418902 -1.360087
48.842018 27.341682 4.897107
7.133270 3.991554 -1.294652
8.498704 4.751719 -1.195538
48.592182 27.157257 8.816648
9.963881 5.568625 -0.998630
14.081118 7.863224 -0.845226
4.696923 2.612128 -1.440069
5.324880 2.958921 -1.406394
6.120217 3.399479 -1.360850
48.825684 27.109112 4.885951
7.143708 3.964711 -1.294026
8.525657 4.727797 -1.197001
48.579575 26.928085 8.797250
9.972804 5.528013 -0.997585
14.052567 7.783060 -0.841876
4.699246 2.591983 -1.437999
5.331761 2.938438 -1.405494
6.132048 3.378093 -1.360850
48.811813 26.878914 4.875144
7.136734 3.928325 -1.290272
8.524714 4.688439 -1.194563
48.545155 26.687958 8.774097
10.000766 5.497974 -0.998456
14.069147 7.728186 -0.841248
4.721825 2.582980 -1.442140
5.331726 2.914200 -1.402795
6.126574 3.347253 -1.357034
48.730480 26.612881 4.857712
7.153872 3.905280 -1.290897
8.561940 4.670063 -1.197488
48.506214 26.446461 8.750319
10.012901 5.459214 -0.997759
14.046928 7.652279 -0.838317
4.710434 2.555431 -1.435928
28.340321 15.368326 0.562735
5.338439 2.893715 -1.401895
6.134766 3.323981 -1.356270
48.721470 26.387569 4.847602
7.181359 3.887807 -1.293400
8.550255 4.625034 -1.193588
48.506783 26.238459 8.734675
10.019629 5.417593 -0.996539
14.070042 7.601296 -0.838108
4.719326 2.538971 -1.435928
5.344573 2.874149 -1.400995
6.149791 3.304403 -1.357034
48.693920 26.153246 4.835749
7.190730 3.862103 -1.292775
8.562046 4.594779 -1.193101
48.469257 25.999891 8.711524
10.027944 5.376938 -0.995493
14.063483 7.537617 -0.836224
4.727721 2.523306 -1.435928
5.354573 2.855476 -1.400995
6.153786 3.280296 -1.355507
48.650261 25.922306 4.822850
7.197193 3.833266 -1.291523
8.560507 4.555540 -1.190664
48.419182 25.766644 8.687119
10.038681 5.339914 -0.994796
14.068543 7.477235 -0.834968
4.734792 2.505886 -1.435410
5.357124 2.834058 -1.399196
6.158255 3.255126 -1.353981
48.652374 25.705774 4.814135
7.192400 3.800148 -1.288394
8.596634 4.538246 -1.193588
48.397026 25.538460 8.667096
10.074883 5.314133 -0.996539
14.064996 7.415634 -0.833293
4.749917 2.493764 -1.437481
5.363533 2.813528 -1.398296
6.169015 3.234688 -1.353981
48.603226 25.474014 4.800887
7.216121 3.780517 -1.290272
8.598353 4.500848 -1.191639
48.370369 25.308910 8.646447
10.080094 5.274225 -0.995319
14.041235 7.340586 -0.830362
4.753453 2.474491 -1.435928
5.380237 2.798387 -1.400095
6.166335 3.205888 -1.350928
48.561020 25.236225 4.787988
7.236285 3.758949 -1.291523
8.589345 4.458002 -1.188226
48.346188 25.081703 8.626423
10.100211 5.239927 -0.995493
14.063228 7.289686 -0.830153
4.753477 2.453454 -1.433340
5.386507 2.777804 -1.399196
6.170506 3.180747 -1.349401
48.521301 25.000843 4.775437
7.244092 3.730955 -1.290584
8.622504 4.437077 -1.190664
48.317516 24.853142 8.605774
10.088322 5.189143 -0.992530
14.056611 7.224122 -0.828269
4.748255 2.429805 -1.429199
5.399641 2.760761 -1.400095
6.181573 3.159187 -1.349401
48.452145 24.751543 4.760098
7.244756 3.699359 -1.288394
8.645015 4.410558 -1.191639
48.291336 24.626930 8.585751
10.109920 5.155714 -0.992878
14.063949 7.165940 -0.827222
4.760153 2.414964 -1.430234
5.384910 2.729559 -1.393797
6.206574 3.144687 -1.352454
48.506248 24.566071 4.756960
7.299924 3.695458 -1.295903
8.656814 4.378564 -1.191151
48.278294 24.408289 8.568230
10.108298 5.110501 -0.990961
14.046089 7.095195 -0.824710
4.777183 2.402674 -1.432822
5.404854 2.715994 -1.396496
50.444553 25.337906 2.958447
6.221020 3.124770 -1.353217
48.431461 24.316130 4.741272
7.298656 3.662864 -1.293400
8.664948 4.344759 -1.190176
48.274902 24.195347 8.552586
10.115390 5.069826 -0.989915
14.063629 7.042541 -0.824291
4.790728 2.388569 -1.434375
5.424767 2.702326 -1.399196
50.604214 25.197264 2.962634
6.207286 3.090782 -1.347875
48.405437 24.091919 4.730465
7.272487 3.618009 -1.286517
8.665841 4.307415 -1.188226
48.214001 23.954628 8.526931
10.134809 5.035375 -0.990089
14.048771 6.973865 -0.821989
4.792108 2.368409 -1.432305
5.428925 2.680783 -1.397846
6.225078 3.072573 -1.349401
48.421352 23.889296 4.723841
7.277987 3.589104 -1.285266
8.680821 4.277145 -1.188226
48.191006 23.733805 8.508159
10.139813 4.993803 -0.988869
14.047936 6.912448 -0.820523
4.796877 2.349966 -1.431269
5.443499 2.664390 -1.399196
6.228712 3.047372 -1.347875
48.339787 23.639587 4.707805
7.272720 3.555007 -1.282137
8.709228 4.255304 -1.190176
48.159386 23.520130 8.488761
10.139275 4.949644 -0.987126
14.036078 6.845855 -0.818430
4.801168 2.332359 -1.430234
5.443539 2.642068 -1.396946
6.242316 3.028415 -1.348638
48.374893 23.458281 4.703621
7.291581 3.534315 -1.283388
8.712571 4.221208 -1.188714
48.130447 23.308624 8.469989
10.152048 4.914255 -0.986777
14.055109 6.797529 -0.818220
47.970661 23.200243 12.302123
27.774202 13.426585 -0.538477
4.805396 2.314747 -1.429199
5.445246 2.620623 -1.395146
6.252325 3.007697 -1.348638
48.337498 23.242489 4.692465
7.296138 3.506695 -1.282137
8.712937 4.183893 -1.186764
48.076172 23.075525 8.446211
10.157512 4.875387 -0.985731
14.063165 6.743977 -0.817383
47.931850 22.975386 12.271530
27.828117 13.333002 -0.538616
4.823906 2.302953 -1.432305
5.457880 2.603276 -1.396046
6.252151 2.980786 -1.346348
48.292427 23.013628 4.680263
7.294069 3.474407 -1.279634
8.720319 4.150043 -1.185789
48.077934 22.870241 8.432445
10.179866 4.842471 -0.986254
14.043325 6.674273 -0.814871
47.927261 22.767805 12.249934
4.824930 2.282797 -1.430234
5.456362 2.579213 -1.393347
6.258968 2.957267 -1.345585
48.228344 22.776836 4.666318
7.306151 3.448927 -1.279634
8.734753 4.119576 -1.185789
48.010948 22.633217 8.406789
10.178684 4.798413 -0.984511
14.066539 6.625209 -0.814871
47.893600 22.547256 12.221141
4.825873 2.262659 -1.428164
5.472391 2.563456 -1.395146
6.272809 2.937065 -1.346348
48.195675 22.555998 4.655511
7.321725 3.425074 -1.280260
8.741884 4.085701 -1.184814
47.993027 22.420330 8.389894
10.204399 4.767067 -0.985383
14.049761 6.557486 -0.812568
47.855457 22.325548 12.191447
4.833741 2.245801 -1.428164
5.477771 2.542696 -1.394247
6.268775 2.908541 -1.343295
48.234352 22.369173 4.651676
7.322884 3.394509 -1.278383
8.774108 4.063501 -1.187251
47.999294 22.219460 8.377379
10.233634 4.737274 -0.986603
14.036312 6.491632 -0.810475
47.844658 22.117468 12.168952
4.845061 2.230529 -1.429199
5.483072 2.521932 -1.393347
6.282458 2.888280 -1.344059
48.156441 22.129131 4.636685
7.334688 3.368928 -1.278383
8.770195 4.024571 -1.184814
48.044235 22.036961 8.371748
10.262784 4.707340 -0.987823
14.033466 6.430951 -0.809009
47.804634 21.896772 12.139258
4.849302 2.212000 -1.428164
5.484750 2.499543 -1.391547
6.274635 2.858196 -1.340242
48.142723 21.919628 4.627970
7.357192 3.348213 -1.280260
8.769733 3.987362 -1.182864
10.286409 4.674782 -0.988520
14.041278 6.375323 -0.808172
47.820450 21.702377 12.123962
4.856995 2.195058 -1.428164
5.493440 2.480386 -1.391547
6.284575 2.836274 -1.340242
48.142677 21.717024 4.620649
7.343621 3.311149 -1.275880
8.779980 3.955093 -1.182377
10.289944 4.633128 -0.987300
14.056162 6.322990 -0.807753
47.735939 21.463428 12.083471
4.857574 2.174932 -1.426093
5.509181 2.464377 -1.393347
6.294437 2.814318 -1.340242
48.058109 21.477316 4.605309
7.322670 3.270991 -1.270248
8.804607 3.929277 -1.183839
10.298778 4.593933 -0.986603
14.081796 6.275515 -0.807963
47.750050 21.269695 12.068174
4.858072 2.154833 -1.424022
5.510623 2.441972 -1.391547
6.304221 2.792333 -1.340242
48.078136 21.285221 4.600080
7.359334 3.256599 -1.274628
8.818271 3.898517 -1.183839
10.365779 4.580500 -0.991484
14.037841 6.197280 -0.804194
47.706341 21.050951 12.038481
4.865565 2.137860 -1.424022
5.504838 2.416456 -1.387948
6.321122 2.773464 -1.341769
7.352564 3.222961 -1.271500
8.788185 3.848598 -1.177989
10.447411 4.573053 -0.997759
14.059390 6.148237 -0.804194
47.665249 20.834356 12.009687
4.872997 2.120864 -1.424022
5.519969 2.401299 -1.389748
6.330764 2.751384 -1.341769
48.006268 20.853817 4.579163
7.377706 3.204859 -1.274002
8.804539 3.821020 -1.178477
10.532774 4.566670 -1.004383
14.054042 6.090465 -0.802729
47.648239 20.639008 11.988091
4.876456 2.103162 -1.422987
5.528317 2.382014 -1.389748
6.329035 2.725714 -1.339479
48.075161 20.694494 4.579163
7.388849 3.179085 -1.274002
8.828767 3.794964 -1.179939
10.591793 4.550595 -1.008566
14.042179 6.027194 -0.800845
47.630451 20.434130 11.965596
4.876661 2.083092 -1.420917
5.533013 2.361174 -1.388848
6.342122 2.705147 -1.340242
7.414439 3.159470 -1.276505
8.841960 3.764121 -1.179939
10.686445 4.547142 -1.016062
14.044753 5.970324 -0.799798
47.608219 20.228128 11.942202
4.883903 2.066056 -1.420917
5.530452 2.337292 -1.386148
6.347910 2.681462 -1.339479
7.392663 3.119743 -1.270874
8.866020 3.737862 -1.181401
10.759171 4.533792 -1.021465
14.058144 5.918165 -0.799379
47.577957 20.019484 11.917006
4.880394 2.044518 -1.417811
5.549363 2.322488 -1.388848
6.357231 2.659289 -1.339479
7.450897 3.113720 -1.279008
8.838712 3.690068 -1.176039
10.848481 4.526896 -1.028438
14.034473 5.850609 -0.796867
47.564808 19.818792 11.896312
4.901777 2.033390 -1.421952
37.697868 15.630406 0.712337
5.543035 2.297133 -1.385249
6.348338 2.629567 -1.335663
7.374106 3.051440 -1.263991
19.374760 8.013406 2.574368
8.855207 3.660711 -1.176527
10.912092 4.508785 -1.032970
14.032656 5.792442 -0.795611
47.529209 19.609543 11.870217
4.894548 2.010396 -1.417811
5.565442 2.283690 -1.388848
6.350211 2.604413 -1.334136
7.413960 3.037665 -1.268997
8.871607 3.631280 -1.177014
10.949893 4.479717 -1.035062
14.026906 5.732848 -0.794146
47.525215 19.414026 11.852221
4.905116 1.994753 -1.418846
5.558936 2.258383 -1.385249
6.351988 2.579274 -1.332610
7.431839 3.014739 -1.270248
8.865832 3.592833 -1.174577
10.972848 4.444467 -1.035759
18.900274 7.651560 3.963485
14.035724 5.679351 -0.793518
47.527641 19.221743 11.836024
4.915633 1.979063 -1.419881
5.566785 2.238963 -1.385249
6.368239 2.560014 -1.334136
7.442318 2.988777 -1.270248
8.893057 3.567778 -1.176527
19.775789 7.929781 3.374605
10.995693 4.409101 -1.036456
18.810240 7.538791 3.939061
14.040630 5.624384 -0.792681
4.926100 1.963323 -1.420917
5.563704 2.215194 -1.382549
6.377135 2.537773 -1.334136
7.471062 2.970075 -1.273377
8.887009 3.529384 -1.174089
19.733583 7.833004 3.362715
11.014722 4.372159 -1.036805
14.023046 5.560611 -0.790587
4.925735 1.943279 -1.418846
5.578655 2.198616 -1.384349
6.378649 2.512617 -1.332610
7.466679 2.938193 -1.270874
8.888187 3.493990 -1.172627
18.716503 7.353768 3.185006
11.015080 4.327857 -1.035410
18.833174 7.395814 3.932955
14.023780 5.504326 -0.789540
19.454811 7.632096 4.824750
4.921691 1.921858 -1.415740
5.600819 2.184793 -1.387948
6.387380 2.490338 -1.332610
7.487934 2.916411 -1.272751
8.915131 3.468699 -1.174577
19.647865 7.640634 3.338938
11.011552 4.282156 -1.033667
14.001948 5.439440 -0.787238
19.365072 7.518992 4.795957
4.942785 1.910236 -1.419881
37.197376 14.368193 0.696037
5.597503 2.161022 -1.385249
6.403361 2.470852 -1.334136
7.479634 2.883156 -1.269622
8.923480 3.436130 -1.174089
11.018991 4.240838 -1.032970
14.009665 5.386227 -0.786609
48.583504 18.668926 12.015985
4.942207 1.890209 -1.417811
5.590449 2.135905 -1.381649
6.404612 2.445682 -1.332610
7.500728 2.861252 -1.271500
19.631763 7.484861 2.579731
8.931709 3.403548 -1.173602
11.026282 4.199510 -1.032273
19.698559 7.498518 4.097051
14.024648 5.335874 -0.786400
4.952387 1.874317 -1.418846
5.594225 2.115000 -1.380750
6.416781 2.424703 -1.333373
7.510671 2.835050 -1.271500
19.698629 7.431707 2.585093
8.924962 3.365344 -1.171165
11.014774 4.151155 -1.029832
19.596004 7.381272 4.070338
14.028235 5.281252 -0.785563
4.966136 1.859727 -1.420917
37.160385 13.908492 0.692581
5.601574 2.095458 -1.380750
6.410495 2.396787 -1.330320
7.520520 2.808817 -1.271500
19.947618 7.446211 2.614341
8.944093 3.336946 -1.172139
11.044130 4.118253 -1.031227
19.570141 7.293632 4.059652
14.020382 5.222488 -0.784097
4.961728 1.838355 -1.417811
19.793856 7.333762 0.368455
5.608493 2.076870 -1.380750
19.761061 7.313757 1.104289
6.422504 2.375759 -1.331084
19.741587 7.298717 1.841426
7.548323 2.790711 -1.274628
19.625866 7.252040 2.569006
8.958834 3.308646 -1.172627
19.758415 7.293181 3.335809
11.047224 4.075536 -1.030181
14.033873 5.174594 -0.783888
19.433580 7.161719 4.781559
19.787260 7.288138 -0.368071
4.960543 1.819229 -1.415740
19.766768 7.245350 0.367478
5.612048 2.055940 -1.379850
19.766451 7.241321 1.103242
6.430348 2.354447 -1.331084
7.565438 2.767061 -1.275880
19.811399 7.242105 2.589967
8.970329 3.277351 -1.172627
19.455935 7.108315 3.280744
11.023247 4.025214 -1.026695
19.892284 7.259869 4.116132
14.014324 5.111883 -0.781795
19.815079 7.223855 -0.368141
4.985023 1.808490 -1.420917
37.107536 13.462043 0.689021
5.615171 2.035988 -1.378950
6.431145 2.329310 -1.329557
7.567144 2.739267 -1.274628
19.771837 7.153411 2.581681
8.969949 3.243534 -1.171165
11.018491 3.979944 -1.024951
13.997386 5.053170 -0.779911
4.969485 1.783251 -1.414705
37.096390 13.304349 0.687904
5.629933 2.018026 -1.380750
6.435538 2.305527 -1.328794
7.573412 2.710184 -1.274002
8.970560 3.206629 -1.169702
19.443054 6.946314 3.270107
11.032316 3.941455 -1.024951
19.269476 6.880508 3.977223
14.012051 5.000494 -0.779701
4.993886 1.772354 -1.419881
5.633269 1.997060 -1.379850
6.436145 2.280425 -1.327267
7.579101 2.682414 -1.273377
8.977957 3.173970 -1.169215
11.072307 3.912216 -1.027392
14.006820 4.943572 -0.778445
4.974523 1.745953 -1.412634
27.964863 9.809611 0.517289
5.629172 1.973514 -1.377150
6.429244 2.252749 -1.324215
7.588419 2.655940 -1.273377
19.209799 6.719650 2.498809
8.992726 3.143928 -1.169702
19.886417 6.948544 3.336435
11.067088 3.866968 -1.025649
13.993816 4.884128 -0.776770
4.984237 1.729846 -1.413670
27.938482 9.690959 0.516172
5.650758 1.958958 -1.380750
6.451909 2.235436 -1.327267
7.567777 2.619097 -1.268371
19.683384 6.808294 2.557307
9.018656 3.117705 -1.171652
11.069221 3.824407 -1.024603
20.064203 6.928257 4.126054
14.010781 4.835247 -0.776770
5.001209 1.716198 -1.416776
27.983492 9.597261 0.516382
5.639125 1.932906 -1.376251
6.474531 2.217990 -1.330320
7.569396 2.590111 -1.267119
19.703276 6.738255 2.556819
9.021972 3.083634 -1.170677
19.500755 6.661405 3.263849
11.090043 3.788328 -1.025300
13.993551 4.774698 -0.774886
4.999851 1.696248 -1.414705
5.642147 1.911958 -1.375351
6.478515 2.194118 -1.329557
7.600846 2.571267 -1.270874
9.010113 3.044499 -1.167752
11.069222 3.738117 -1.022163
20.063723 6.771681 4.116132
13.998775 4.721994 -0.774258
5.009405 1.680015 -1.415740
5.645091 1.891015 -1.374451
6.456347 2.161519 -1.323451
7.564812 2.529686 -1.263365
19.392115 6.480993 2.510509
9.016918 3.011769 -1.167265
11.127559 3.714598 -1.026346
19.778086 6.598478 4.052783
14.000017 4.668043 -0.773421
4.996902 1.656438 -1.410564
5.655358 1.872522 -1.375351
6.478764 2.143902 -1.326504
7.588602 2.508222 -1.265868
9.038687 2.984012 -1.168727
11.076128 3.654505 -1.020419
14.012432 4.617898 -0.773212
4.998981 1.637784 -1.409528
5.665565 1.853980 -1.376251
6.482475 2.120054 -1.325741
20.055315 6.555094 1.845959
7.563512 2.470675 -1.260236
9.037724 2.948750 -1.167265
11.092607 3.617052 -1.020768
14.020871 4.566480 -0.772793
5.004668 1.620323 -1.409528
5.653459 1.828197 -1.371752
6.497309 2.099827 -1.327267
20.108412 6.494842 1.848748
7.564570 2.441832 -1.258985
9.021512 2.908654 -1.163852
11.112750 3.580756 -1.021465
14.021514 4.512618 -0.771955
5.028692 1.608731 -1.414705
5.656093 1.807267 -1.370852
6.485898 2.071163 -1.323451
7.576811 2.416614 -1.259610
9.039176 2.879558 -1.164827
19.883343 6.334122 3.305148
11.117589 3.539523 -1.020768
14.021954 4.458807 -0.771118
5.030594 1.590002 -1.413670
5.662056 1.788499 -1.370852
6.485599 2.046146 -1.321925
7.577249 2.389097 -1.258359
9.048676 2.849565 -1.164827
20.301027 6.389206 3.370850
11.141278 3.504288 -1.021814
14.017611 4.406291 -0.770071
5.028463 1.571008 -1.411599
5.683146 1.773369 -1.374451
6.507341 2.029305 -1.324978
7.589313 2.363810 -1.258985
9.058568 2.817959 -1.164827
11.118591 3.456673 -1.018676
14.032907 4.357330 -0.770071
5.011765 1.546608 -1.405388
5.685577 1.752371 -1.373551
6.495624 2.000796 -1.321162
7.608847 2.340786 -1.260862
9.053167 2.781663 -1.162877
11.130590 3.417838 -1.018676
14.101493 4.324726 -0.773002
5.031916 1.533612 -1.409528
5.669289 1.725703 -1.368152
6.495054 1.975826 -1.319635
7.594291 2.307319 -1.257107
9.043827 2.744278 -1.160440
11.142454 3.378961 -1.018676
14.085921 4.266210 -0.771327
5.048338 1.519377 -1.412634
5.693940 1.711516 -1.372651
6.520715 1.958789 -1.323451
7.583377 2.275125 -1.253979
9.045746 2.710412 -1.159465
11.154179 3.340054 -1.018676
14.108381 4.219300 -0.771746
5.057314 1.502849 -1.413670
5.681198 1.686084 -1.368152
6.497396 1.927088 -1.317345
7.598849 2.250882 -1.255230
9.085608 2.687832 -1.163365
11.177235 3.304485 -1.019722
14.165165 4.182473 -0.774049
5.047700 1.480835 -1.409528
5.690789 1.667340 -1.369052
6.500315 1.903291 -1.316582
7.618035 2.227672 -1.257107
9.079692 2.651646 -1.161415
11.154273 3.255403 -1.016585
14.294726 4.166531 -0.780329
5.045416 1.461055 -1.407458
5.719038 1.653960 -1.374451
6.529552 1.887128 -1.321162
7.629561 2.202160 -1.257733
9.096521 2.622137 -1.162390
11.142595 3.209826 -1.014493
14.405154 4.144221 -0.785563
5.043056 1.441312 -1.405388
5.698543 1.626497 -1.368152
6.532324 1.863249 -1.320398
7.625804 2.172266 -1.255856
9.086525 2.584939 -1.159953
11.165232 3.174178 -1.015539
46.971214 13.344672 9.491603
14.484856 4.112462 -0.789122
5.055493 1.425796 -1.407458
5.685428 1.601314 -1.363653
6.527450 1.837242 -1.318109
7.625733 2.143497 -1.254605
9.061090 2.543545 -1.155565
11.183916 3.137340 -1.016236
14.468352 4.053251 -0.787447
5.056717 1.407106 -1.406423
5.706003 1.585634 -1.367252
6.533823 1.814447 -1.318109
7.629361 2.115811 -1.253979
9.081392 2.515082 -1.157028
11.175597 3.092969 -1.014493
14.470861 3.999533 -0.786819
27.077267 7.473571 -0.490308
5.054146 1.387399 -1.404352
5.707744 1.564677 -1.366353
6.543903 1.792664 -1.318872
7.621456 2.084998 -1.251476
9.078628 2.480225 -1.155565
11.174792 3.050794 -1.013447
14.500151 3.953195 -0.787656
5.051499 1.367730 -1.402282
27.359890 7.402763 0.494741
5.713171 1.544742 -1.366353
6.542541 1.767764 -1.317345
7.647760 2.063525 -1.254605
9.102563 2.452653 -1.157515
11.166136 3.006586 -1.011704
14.483000 3.894261 -0.785981
5.071175 1.354077 -1.406423
5.707232 1.521776 -1.363653
6.548671 1.744917 -1.317345
7.632010 2.030720 -1.250850
9.095721 2.416784 -1.155565
11.165009 2.964519 -1.010658
14.473340 3.837535 -0.784725
5.072134 1.335382 -1.405388
5.735125 1.507792 -1.369052
6.550924 1.721048 -1.316582
7.646695 2.006074 -1.252102
9.077218 2.377978 -1.152153
11.204200 2.933099 -1.013273
14.486649 3.786987 -0.784725
5.095463 1.322523 -1.410564
5.713943 1.480917 -1.362753
6.530284 1.691280 -1.311239
7.649826 1.978378 -1.251476
9.089307 2.347273 -1.152640
11.179646 2.885007 -1.010135
14.507513 3.738400 -0.785144
5.051388 1.292278 -1.397105
5.726630 1.462896 -1.364553
6.566585 1.676243 -1.317345
46.955345 11.977496 4.239604
7.656683 1.951668 -1.251476
9.105141 2.317487 -1.153615
11.162614 2.839097 -1.007695
14.508860 3.684782 -0.784516
5.059615 1.275581 -1.398141
5.735481 1.443848 -1.365453
6.557165 1.649478 -1.314292
7.644291 1.920115 -1.248347
9.101224 2.284379 -1.152153
11.187918 2.803987 -1.009089
14.502258 3.629269 -0.783469
46.523777 11.642828 11.072091
5.063817 1.258799 -1.398141
5.732673 1.422941 -1.363653
6.570220 1.629616 -1.315819
7.642948 1.892854 -1.247096
9.116457 2.256095 -1.153128
11.177813 2.762089 -1.007346
14.510335 3.580204 -0.783260
46.562130 11.488495 11.072091
5.071715 1.242918 -1.399176
5.729788 1.402071 -1.361854
6.579401 1.608753 -1.316582
7.653020 1.868437 -1.247721
9.112704 2.221440 -1.151665
11.179644 2.721166 -1.006649
14.514365 3.530174 -0.782841
46.601952 11.325880 11.072091
5.083749 1.226131 -1.401246
5.730858 1.381150 -1.360954
6.558532 1.578196 -1.311239
7.671341 1.843145 -1.249599
9.120403 2.189614 -1.151665
11.177447 2.679346 -1.005603
14.558284 3.484394 -0.784516
46.548382 11.132347 11.049596
5.065443 1.203023 -1.395035
5.751051 1.363732 -1.364553
6.586925 1.560726 -1.315819
7.666195 1.813625 -1.247721
9.109048 2.151610 -1.149228
11.194489 2.642141 -1.006300
14.566471 3.432635 -0.784307
46.492115 10.947450 11.027101
5.062087 1.183576 -1.392964
5.746288 1.341434 -1.362304
6.573213 1.533265 -1.312003
7.676326 1.787752 -1.248347
9.139706 2.125194 -1.152153
11.180354 2.597641 -1.004208
14.539454 3.372737 -0.782213
5.092545 1.171965 -1.400211
5.728144 1.316130 -1.356905
6.578525 1.510309 -1.312003
7.686371 1.761826 -1.248973
9.147068 2.093279 -1.152153
46.664928 10.679129 7.582067
11.197124 2.560372 -1.004906
46.646389 10.657752 9.300795
14.570609 3.326413 -0.783260
27.292652 6.225794 -0.488632
5.085300 1.151620 -1.397105
5.759087 1.303150 -1.363203
6.576097 1.485608 -1.310476
7.665195 1.730236 -1.244593
9.150085 2.062064 -1.151665
11.205994 2.521268 -1.004906
14.534793 3.267566 -0.780748
27.361048 6.140990 -0.489470
5.085320 1.133908 -1.396070
5.752187 1.280499 -1.360504
6.584820 1.464643 -1.311239
7.675044 1.704331 -1.245219
9.114591 2.020656 -1.146303
11.187491 2.476111 -1.002465
14.577312 3.223706 -0.782423
27.429178 6.055797 -0.490308
5.074345 1.111955 -1.391929
5.745201 1.257910 -1.357805
6.578636 1.437985 -1.308950
46.661667 10.190963 4.178595
7.696680 1.679553 -1.247721
9.137106 1.992213 -1.148253
11.199961 2.437889 -1.002814
14.589029 3.170259 -0.782423
27.528318 5.976978 -0.491704
5.085750 1.095862 -1.393999
5.738341 1.234387 -1.355105
6.572099 1.412535 -1.306660
7.690906 1.650195 -1.245844
9.179285 1.966192 -1.152640
11.212297 2.399620 -1.003163
14.568758 3.112634 -0.780748
5.089543 1.078106 -1.393999
37.040333 7.846166 0.660888
5.738591 1.214543 -1.354205
6.592357 1.392831 -1.309713
7.688605 1.623048 -1.244593
9.166331 1.931646 -1.150203
11.193310 2.354722 -1.000722
14.547727 3.057728 -0.779073
5.093091 1.061221 -1.393999
5.738979 1.193709 -1.353306
6.589250 1.369369 -1.308187
7.686488 1.594592 -1.243341
9.126364 1.889983 -1.144353
11.201056 2.317588 -1.000722
14.550485 3.005322 -0.778654
5.100550 1.044210 -1.395035
5.743110 1.173672 -1.353306
6.574755 1.342430 -1.304370
7.692006 1.567757 -1.243341
9.160139 1.863652 -1.147766
11.199316 2.276492 -0.999851
14.553059 2.952921 -0.778236
5.077649 1.021066 -1.387788
5.750994 1.154384 -1.354205
6.598650 1.323330 -1.308187
46.635422 9.344088 4.161164
7.705179 1.542446 -1.244593
9.158803 1.830113 -1.146791
46.557480 9.294669 7.519493
11.211102 2.238168 -1.000199
14.559361 2.901326 -0.778026
5.088762 1.004836 -1.389858
5.758812 1.135054 -1.355105
6.599376 1.299531 -1.307423
7.691134 1.511729 -1.241464
9.165136 1.798129 -1.146791
11.195384 2.194419 -0.998108
14.534118 2.843580 -0.776142
5.092239 0.987065 -1.389858
5.739780 1.110504 -1.349706
6.584597 1.272763 -1.303607
7.708002 1.487120 -1.243341
9.151864 1.762369 -1.144353
11.211178 2.154878 -0.998805
14.524341 2.789058 -0.775096
5.095823 0.968393 -1.389858
5.758938 1.093368 -1.353306
6.620080 1.254467 -1.309713
7.709518 1.458126 -1.242715
9.154059 1.729677 -1.143866
11.195138 2.111297 -0.996713
14.542317 2.737287 -0.775514
5.102970 0.951309 -1.390894
5.751411 1.070116 -1.350606
46.671413 8.675323 2.487842
6.589675 1.224895 -1.302844
46.566967 8.647501 4.143733
7.726214 1.433366 -1.244593
9.148624 1.693948 -1.142403
11.218474 2.073149 -0.998108
14.512502 2.679259 -0.773421
5.087419 0.929127 -1.385717
5.743609 1.047933 -1.347907
46.575657 8.489445 2.481143
6.582532 1.198622 -1.300554
46.598351 8.476754 4.143733
7.696433 1.398682 -1.238961
9.177921 1.666256 -1.145328
11.186433 2.026875 -0.994621
14.526155 2.626757 -0.773630
5.078744 0.911981 -1.382612
5.754546 1.031260 -1.349706
46.602097 8.343068 2.481143
6.593995 1.179320 -1.302081
7.723884 1.380007 -1.242715
9.167475 1.634628 -1.143378
11.208438 1.994511 -0.996016
14.522536 2.579016 -0.773002
5.104885 0.897372 -1.388823
5.750609 1.008816 -1.347907
46.561546 8.159783 2.477375
6.602141 1.155820 -1.302844
46.555420 8.150336 4.135017
7.724998 1.351010 -1.242090
9.161673 1.598967 -1.141916
11.199971 1.950679 -0.994621
14.531890 2.525774 -0.773002
5.085293 0.874727 -1.382612
5.754268 0.987733 -1.347907
6.598395 1.131441 -1.301317
46.486790 7.962838 4.126301
7.718215 1.320690 -1.240213
9.143990 1.561369 -1.138991
46.410805 7.916455 7.456919
11.191001 1.908889 -0.993227
14.528806 2.473018 -0.772374
5.107366 0.860178 -1.387788
5.773056 0.970223 -1.351506
46.547836 7.814484 2.473607
6.594560 1.107099 -1.299791
7.738364 1.296349 -1.242715
9.149384 1.529443 -1.138991
11.213315 1.872446 -0.994621
14.533409 2.421635 -0.772165
5.110337 0.842348 -1.387788
5.768716 0.948799 -1.349706
6.598383 1.084078 -1.299791
7.727248 1.266770 -1.240213
9.162241 1.500379 -1.139966
46.366135 7.584440 7.441275
11.204054 1.830719 -0.993227
14.506291 2.365100 -0.770281
46.179504 7.529088 10.802149
5.094030 0.822317 -1.382612
5.771831 0.929663 -1.349706
6.594190 1.060942 -1.298265
7.735307 1.241763 -1.240838
46.378769 7.436989 5.767345
9.175007 1.471243 -1.140941
11.213998 1.794182 -0.993575
14.506166 2.315726 -0.769862
46.204216 7.375919 10.802149
5.092913 0.804818 -1.381576
5.747931 0.906272 -1.343408
6.601550 1.039681 -1.299028
7.735479 1.215493 -1.240213
9.172242 1.437975 -1.139966
11.176886 1.748260 -0.989741
46.206806 7.227553 9.090904
14.513766 2.267605 -0.769862
5.099647 0.786734 -1.382612
5.743356 0.885014 -1.341608
6.597554 1.014283 -1.297501
7.732072 1.185937 -1.238961
9.153660 1.402344 -1.137041
11.178981 1.708630 -0.989392
46.232990 7.058115 9.090904
14.462746 2.205365 -0.766722
5.110003 0.770081 -1.384682
5.765831 0.866856 -1.346107
6.601055 0.991249 -1.297501
7.755700 1.161868 -1.242090
46.355942 6.936232 5.755158
9.146958 1.367022 -1.135579
11.204581 1.672542 -0.991135
46.160252 6.882222 9.071823
14.490111 2.157805 -0.767769
5.101192 0.750550 -1.381576
5.757106 0.846030 -1.343408
6.592819 0.966490 -1.295211
7.743874 1.133851 -1.239587
46.307976 6.772119 5.746384
9.171083 1.339553 -1.138016
46.197056 6.739429 7.394345
11.186693 1.629970 -0.989043
46.085686 6.714968 9.052743
14.445800 2.102267 -0.765047
46.109852 6.702054 10.757159
5.084532 0.730880 -1.376400
5.775457 0.828142 -1.347007
6.599875 0.945177 -1.295975
7.732141 1.104576 -1.237084
46.205563 6.592476 5.730784
9.148190 1.303613 -1.134604
46.024734 6.550284 7.363058
11.168645 1.587544 -0.986952
46.011658 6.540231 9.033662
14.480733 2.055762 -0.766513
45.940025 6.513690 10.712170
5.113961 0.715990 -1.383647
5.774452 0.807439 -1.346107
46.421200 6.482771 2.456441
6.599406 0.920440 -1.295211
7.728312 1.075142 -1.235832
9.156616 1.272215 -1.135091
45.949482 6.376022 7.347415
11.193853 1.551286 -0.988695
14.460473 1.998842 -0.765047
5.112601 0.697613 -1.382612
5.754202 0.783111 -1.340708
6.602579 0.897400 -1.295211
7.724187 1.047095 -1.234581
9.173022 1.240244 -1.136554
11.191302 1.511133 -0.987997
14.495073 1.952088 -0.766513
5.134155 0.682306 -1.387788
5.772222 0.766078 -1.344308
6.586209 0.871769 -1.291395
7.727617 1.021477 -1.234581
9.141660 1.205146 -1.132166
11.188606 1.471027 -0.987300
14.449981 1.897246 -0.763791
5.094241 0.659819 -1.376400
5.763264 0.744427 -1.341608
46.343918 5.977913 2.448904
6.592957 0.850427 -1.292159
7.723299 0.993490 -1.233329
9.157624 1.174741 -1.133629
11.181567 1.432395 -0.986254
14.460478 1.847297 -0.764000
5.108014 0.643480 -1.379506
5.781297 0.726247 -1.345207
46.309013 5.809134 2.445974
6.603677 0.828384 -1.293685
7.718879 0.965541 -1.232078
45.332626 5.662546 5.609403
9.161668 1.142774 -1.133629
45.253853 5.636665 7.222893
11.162773 1.390397 -0.984163
45.226501 5.625242 8.858880
14.478729 1.798296 -0.764628
45.153236 5.600126 10.504314
5.114063 0.626117 -1.380541
5.764452 0.703705 -1.340708
46.328022 5.655567 2.445974
6.606529 0.805329 -1.293685
7.698671 0.935729 -1.228324
45.296936 5.497583 5.602578
9.173485 1.111740 -1.134604
45.240925 5.482774 7.217887
11.175470 1.352377 -0.984860
45.167896 5.457927 8.843616
14.421465 1.740085 -0.761279
45.199596 5.445729 10.510613
