# This PCD file was generated using the MATLAB® pcwrite function
# from Computer Vision Toolbox®.
# .PCD v.7 - Point Cloud Data file format
VERSION .7
FIELDS x y z
SIZE 4 4 4
TYPE F F F
COUNT 1 1 1
WIDTH 1624
HEIGHT 1
VIEWPOINT 0 0 0 1 0 0 0
POINTS 1624
DATA ascii
-28.537754 7.438846 -2.580159
-28.795448 7.511385 5.784566
-28.498610 7.439260 -1.543597
-28.947063 7.556324 6.906898
-28.582378 7.466462 -0.515649
-29.007576 7.582943 8.033743
-7.662148 2.014414 -2.122834
-28.457138 7.486824 0.513624
-9.232269 2.430654 -2.204070
-28.510628 7.511538 1.545167
-11.580134 3.053115 -2.327870
-28.501455 7.514440 2.578764
-15.440574 4.073811 -2.529233
-28.490421 7.522168 3.618057
-20.545397 5.428329 -2.609223
-28.569897 7.553827 4.680520
-28.182858 7.456750 -2.550526
-28.577938 7.566627 5.746404
-28.096605 7.444430 -1.523291
-28.497213 7.550575 6.806119
-28.315140 7.507622 -0.511321
-28.669628 7.606968 7.947816
-7.647247 2.040494 -2.120763
-28.085609 7.499249 0.507411
-9.230830 2.466486 -2.205870
-28.140770 7.519239 1.526535
-11.558025 3.090479 -2.325580
-28.450626 7.612674 2.576672
-15.414090 4.127306 -2.527355
-28.083002 7.524819 3.569797
-20.553169 5.507205 -2.612635
-28.039650 7.518441 4.597922
-27.817976 7.464206 -2.519847
-28.562727 7.669391 5.748694
-27.715542 7.447099 -1.504031
-28.086758 7.546844 6.714339
-28.284897 7.605376 -0.511251
-28.654093 7.710010 7.950922
-7.647899 2.067857 -2.122834
-27.655224 7.482666 0.500081
-9.228243 2.498611 -2.207220
-27.760958 7.516473 1.507276
-11.559085 3.131868 -2.327870
-28.425226 7.706979 2.576672
-15.411757 4.181503 -2.529233
-27.693903 7.519079 3.523487
-20.538622 5.576373 -2.613123
-27.671432 7.518164 4.541606
-27.400862 7.449780 -2.484287
-28.571238 7.773345 5.755563
-27.316837 7.437182 -1.483725
-27.708082 7.543701 6.629757
-28.286533 7.706484 -0.511739
-27.774734 7.572262 7.713843
-7.637272 2.092186 -2.121799
-27.259977 7.472827 0.493380
-9.202993 2.524560 -2.203171
-27.384016 7.517108 1.488225
-11.525917 3.163947 -2.323290
-28.445621 7.813865 2.580856
-15.374950 4.226305 -2.525478
-27.308987 7.511889 3.477664
-20.503721 5.643818 -2.611173
-27.302219 7.520280 4.485290
-27.030252 7.445368 -2.452911
-28.499880 7.855522 5.746404
-26.976261 7.440635 -1.466558
-27.320910 7.540820 6.543376
-28.298010 7.815831 -0.512438
-27.401794 7.573446 7.617562
-7.628062 2.118314 -2.121281
-26.886925 7.471565 0.487097
-9.199757 2.558236 -2.204520
-27.034349 7.522707 1.470640
-11.511019 3.203111 -2.322527
-28.456560 7.923801 2.584342
-15.375325 4.284190 -2.527981
-26.938408 7.511208 3.433791
-20.449482 5.705749 -2.606786
-26.963776 7.528418 4.433979
-26.658678 7.443233 -2.421535
-28.510101 7.965531 5.754036
-26.592356 7.434722 -1.447089
-26.934097 7.535335 6.456995
-28.289810 7.919954 -0.512787
-27.073837 7.584620 7.533705
-7.624341 2.145977 -2.122316
-26.521912 7.469959 0.480953
-9.172015 2.585045 -2.200021
-26.677298 7.523775 1.452637
-11.514884 3.247533 -2.325580
-28.421057 8.020921 2.583645
-15.383091 4.344273 -2.531736
-26.602562 7.517735 3.394305
-20.463823 5.786819 -2.611173
-26.579988 7.521383 4.375159
-26.312996 7.450785 -2.392599
-28.561459 8.087460 5.770064
-26.297216 7.451274 -1.432435
-26.648903 7.555955 6.394908
-28.308167 8.031749 -0.513624
-26.701532 7.580941 7.437425
-7.603421 2.170194 -2.118693
-26.207243 7.480161 0.475718
-9.170429 2.619189 -2.201821
-26.335932 7.526841 1.435471
-11.476480 3.282155 -2.320238
-28.456594 8.143674 2.589571
-15.325287 4.388666 -2.524853
-26.274633 7.524204 3.355794
-20.390066 5.842905 -2.604348
-26.223173 7.519372 4.320720
-25.953598 7.446975 -2.362269
-25.924200 7.448335 -1.413594
-26.377556 7.583572 6.336421
-26.318447 7.571558 7.338038
-7.584664 2.193502 -2.115587
-25.872307 7.487230 0.470133
-9.153282 2.650612 -2.200021
-26.016581 7.538817 1.419561
-11.464952 3.322196 -2.320238
-15.317461 4.444336 -2.526104
-26.040991 7.560678 3.329471
-20.383764 5.922030 -2.606298
-25.903326 7.530513 4.272539
-25.635338 7.457457 -2.335774
-29.584909 8.606409 5.989113
-25.602724 7.452816 -1.397475
-26.021631 7.579685 6.257239
-25.986372 7.579255 7.253145
-7.580280 2.222375 -2.116622
-25.508282 7.478480 0.463990
-9.151453 2.684741 -2.201821
-25.648987 7.529455 1.400929
-11.445163 3.361984 -2.318711
-29.445107 8.654991 2.685094
-15.251796 4.485955 -2.517969
-25.751629 7.574233 3.295835
-20.366777 5.994268 -2.606786
-25.558538 7.527127 4.219977
-25.303370 7.456785 -2.307884
-29.564466 8.718118 5.991403
-25.295557 7.464080 -1.382193
-25.552597 7.544774 6.151062
-25.652210 7.579052 7.167217
-7.581062 2.247051 -2.118693
-25.216265 7.478970 0.459103
-9.139236 2.712372 -2.200921
-25.318869 7.519017 1.384181
-11.453959 3.401515 -2.322527
-29.453672 8.752543 2.688232
-15.245992 4.533441 -2.519221
-25.423283 7.564513 3.256837
-20.351648 6.059356 -2.607273
-25.235645 7.518278 4.170543
-25.002354 7.448774 -2.282434
-29.568571 8.814767 5.997509
-24.970901 7.448895 -1.365655
-25.205185 7.523573 6.072779
-25.780508 7.700196 -0.469644
-25.291399 7.558923 7.073007
-7.580573 2.275722 -2.120763
-24.895067 7.478355 0.453728
-9.127848 2.743695 -2.200471
-25.043829 7.532567 1.370574
-11.453295 3.444869 -2.324817
-29.453466 8.864491 2.691021
-15.241425 4.590047 -2.521098
-25.077414 7.556988 3.215889
-20.326572 6.129215 -2.606786
-24.944485 7.526429 4.126742
-24.709158 7.455424 -2.258031
-29.560173 8.924744 6.002088
-24.654135 7.448218 -1.349744
-24.898962 7.526919 6.005293
-32.104271 9.711196 -0.585458
-25.002300 7.567689 6.999502
-7.567039 2.300482 -2.119210
-24.593323 7.481399 0.448701
-9.095842 2.768730 -2.195072
-24.707863 7.525672 1.353617
-11.407394 3.474534 -2.317948
-29.479521 8.984668 2.696250
-15.217753 4.640917 -2.519847
-24.617985 7.512383 3.160316
-20.274679 6.190850 -2.602886
-24.596903 7.515330 4.073554
-24.408600 7.457796 -2.232930
-29.581409 9.043947 6.012774
-24.352962 7.450091 -1.334672
-24.738375 7.572719 5.972900
-32.085472 9.827888 -0.585738
-24.687593 7.566599 6.918751
-7.538652 2.320632 -2.113516
-24.303328 7.485966 0.443885
-9.097298 2.803906 -2.197772
-24.425697 7.532994 1.339591
-11.402701 3.516644 -2.319474
-29.463211 9.092216 2.697644
-15.239208 4.705665 -2.526104
-24.337465 7.519740 3.127655
-20.249149 6.260412 -2.602398
-24.313868 7.521753 4.031004
-24.066456 7.445213 -2.203995
-24.063528 7.453505 -1.320227
-24.700619 7.655571 5.970201
-32.070068 9.945743 -0.586087
-24.395344 7.570282 6.844212
-7.532350 2.347508 -2.114034
-23.990694 7.481456 0.438649
-9.093035 2.837388 -2.199121
-24.101841 7.525349 1.323262
-11.394105 3.557596 -2.320238
-15.215148 4.756474 -2.524853
-24.026882 7.515753 3.091094
-20.230965 6.332243 -2.602886
-23.974541 7.508568 3.979068
-23.803257 7.459486 -2.182380
-28.254871 8.854537 5.755563
-23.789616 7.459770 -1.306620
-24.684904 7.745240 5.972900
-32.084766 10.073203 -0.586994
-24.066507 7.560445 6.759318
-7.523695 2.375098 -2.114034
-23.743229 7.495319 0.434600
-9.077500 2.867351 -2.197772
-23.854515 7.539613 1.311121
-11.380989 3.599334 -2.320238
-29.484772 9.330468 2.705663
-15.186313 4.808631 -2.522975
-23.746910 7.519279 3.058433
-20.201166 6.400426 -2.601911
-23.737288 7.525349 3.944026
-23.511192 7.458188 -2.157976
-23.761162 7.542047 4.845786
-23.480387 7.457438 -1.291128
-24.641493 7.830942 5.969301
-32.083714 10.196042 -0.587623
-23.808004 7.570638 6.694096
-7.517199 2.401936 -2.114552
-23.502270 7.514093 0.430690
-9.046514 2.894069 -2.192823
-23.542711 7.531545 1.295420
-11.353397 3.634251 -2.317185
-29.474791 9.440627 2.707755
-15.116763 4.844728 -2.514215
-23.439428 7.516552 3.022360
-20.143551 6.463508 -2.597523
-23.470118 7.530911 3.903979
-23.257376 7.467125 -2.137059
-23.476744 7.542076 4.793122
-23.248857 7.473342 -1.279824
-24.602877 7.913330 5.966602
-32.101227 10.325117 -0.588600
-23.509268 7.566106 6.617486
-7.525312 2.433511 -2.119210
-23.279343 7.527999 0.427060
-9.046137 2.927052 -2.195072
-23.261654 7.531249 1.281394
-11.318230 3.666599 -2.312605
-29.475777 9.554508 2.710892
-15.089340 4.891176 -2.512338
-23.210442 7.528096 2.996036
-20.122005 6.530272 -2.597523
-23.184412 7.528592 3.860803
-23.026522 7.481770 -2.118233
-23.216343 7.543446 4.745039
-19.309286 6.277693 -1.064095
-25.358530 8.249266 6.156461
-32.095413 10.447013 -0.589158
-23.328415 7.597869 6.574004
-7.502511 2.453649 -2.115069
-23.036264 7.538309 0.423081
-9.032161 2.957399 -2.194173
-22.999876 7.535296 1.268414
-11.320933 3.709002 -2.315658
-29.462862 9.658408 2.712635
-15.068422 4.942588 -2.511712
-23.138756 7.594214 2.990186
-19.729433 6.479072 -2.549751
-22.914026 7.529317 3.820130
-19.439291 6.387555 -1.790179
-22.928762 7.538594 4.691612
-19.300537 6.349422 -1.064827
-25.366600 8.349926 6.165458
-32.096737 10.571495 -0.589856
-23.099926 7.612736 6.517064
-7.484732 2.476787 -2.112481
-22.774416 7.540735 0.418753
-9.010682 2.985234 -2.191473
-22.742142 7.538858 1.255644
-11.300464 3.746023 -2.314131
-29.455444 9.769976 2.715076
-15.024827 4.986448 -2.507332
-23.123409 7.678685 2.991649
-19.627575 6.521613 -2.539514
-22.655165 7.531980 3.781334
-19.335579 6.428344 -1.782683
-22.716022 7.556610 4.653450
-19.304787 6.425585 -1.066293
-25.389067 8.455663 6.178056
-32.086201 10.692313 -0.590345
-22.794645 7.600448 6.438383
-7.481535 2.504738 -2.114034
-22.509041 7.540155 0.414355
-9.013142 3.021003 -2.194623
-22.507391 7.548341 1.244130
-11.298488 3.789192 -2.316421
-14.973623 5.027544 -2.501700
-19.826721 6.664727 -2.568275
-22.404060 7.535442 3.743790
-19.371565 6.515484 -1.788087
-22.399233 7.538171 4.593917
-19.333345 6.510147 -1.069119
-25.385252 8.552941 6.184354
-32.097954 10.820861 -0.591253
-22.420176 7.562653 6.340031
-7.470917 2.530219 -2.113516
-22.270468 7.546801 0.410446
-8.989622 3.048065 -2.191473
-22.204765 7.533178 1.228848
-11.288911 3.829870 -2.317185
-14.851238 5.044206 -2.484180
-23.073002 7.841208 2.992136
-19.957451 6.786294 -2.588261
-22.134504 7.530886 3.703117
-19.261938 6.553545 -1.780069
-22.146046 7.539131 4.547360
-19.363440 6.595621 -1.072050
-25.369999 8.646530 6.187953
-32.094048 10.944462 -0.591881
-22.159613 7.561016 6.273774
-7.458385 2.555028 -2.112481
-22.013206 7.545390 0.406187
-8.975242 3.078163 -2.190573
-21.962975 7.536740 1.216916
-11.245762 3.859057 -2.311079
-29.475889 10.120597 2.726580
-14.702766 5.051088 -2.462279
-23.049244 7.922991 2.992624
-19.929886 6.854627 -2.587774
-21.887674 7.532255 3.666198
-19.212570 6.611666 -1.777629
-21.919113 7.547359 4.506145
-19.383730 6.678135 -1.074457
-25.369141 8.745198 6.195152
-32.082115 11.065555 -0.592370
-21.921253 7.565211 6.213728
-7.440293 2.577887 -2.109893
-21.778900 7.550136 0.402348
-8.966284 3.110110 -2.191023
-21.751621 7.549184 1.206658
-11.243350 3.902151 -2.313368
-29.462967 10.231269 2.728672
-14.550697 5.055697 -2.439752
-23.985205 8.338451 3.117906
-18.878389 6.566761 -2.454205
-21.633642 7.529402 3.628029
-19.243938 6.697686 -1.782683
-21.666443 7.545052 4.459588
-19.450832 6.777301 -1.079482
-25.367899 8.843970 6.202350
-32.069729 11.186688 -0.592858
-21.712315 7.578025 6.161964
-7.420310 2.600010 -2.106787
-21.559933 7.558626 0.398787
-8.951694 3.140102 -2.190123
-21.515383 7.547229 1.194935
-11.218546 3.937474 -2.311079
-29.490992 10.356491 2.734599
-14.395047 5.058003 -2.416600
-23.967188 8.426075 3.119368
-18.840374 6.627346 -2.452255
-21.466934 7.551273 3.604250
-21.270851 7.486475 -1.972857
-21.417759 7.542382 4.413794
-21.254290 7.488979 -1.181013
-25.362604 8.941532 6.208649
-32.100349 11.316910 -0.594115
-21.668850 7.643559 6.156788
-7.425756 2.631056 -2.110928
-21.297255 7.545933 0.394389
-8.935722 3.167814 -2.188774
-21.278084 7.547506 1.183211
-11.208433 3.977920 -2.311842
-21.253618 7.547180 1.973206
-14.229277 5.052830 -2.391570
-23.965300 8.514812 3.122780
-18.889368 6.715055 -2.461517
-21.291552 7.573207 3.579221
-21.041868 7.488533 -1.954032
-21.196569 7.543590 4.373343
-21.022369 7.485722 -1.169499
-25.384214 9.043903 6.221247
-32.102089 11.443666 -0.594883
-21.689344 7.736025 6.170247
-7.415172 2.655015 -2.110410
-21.105120 7.560879 0.391318
-8.924609 3.198989 -2.188774
-21.056089 7.551609 1.172326
-11.195180 4.015068 -2.311842
-21.003439 7.536862 1.952289
-14.073971 5.053073 -2.368418
-23.965326 8.609148 3.126680
-19.773703 7.107273 -2.579974
-21.075386 7.579297 3.547308
-20.820629 7.491783 -1.935903
-20.989073 7.552393 4.335944
-20.811951 7.492763 -1.159242
-20.966957 7.552702 5.145081
-32.118385 11.575994 -0.595930
-20.993441 7.570522 5.979756
-7.407207 2.682833 -2.110928
-20.864260 7.556872 0.387339
-8.913389 3.230120 -2.188774
-20.819305 7.548811 1.160602
-11.169316 4.052059 -2.309552
-20.795881 7.548532 1.935555
-13.940241 5.062812 -2.349020
-20.763182 7.540764 2.712324
-19.733847 7.170835 -2.578024
-20.852013 7.581271 3.514144
-20.599627 7.493575 -1.917775
-20.750937 7.552723 4.292439
-20.574156 7.492447 -1.147518
-20.818291 7.585464 5.115387
-20.582918 7.499701 -0.382382
-20.796278 7.581559 5.931098
-7.388728 2.705352 -2.108340
-20.592327 7.543871 0.382801
-8.897831 3.261426 -2.187874
-20.582800 7.544456 1.148879
-11.155106 4.091020 -2.309552
-20.582359 7.552444 1.918124
-13.777844 5.058339 -2.324616
-20.575153 7.557955 2.691363
-19.688799 7.236262 -2.575587
-20.610346 7.574960 3.477851
-20.397566 7.500802 -1.901390
-20.532825 7.554609 4.252751
-20.390438 7.506257 -1.138726
-20.608818 7.590738 5.070397
-20.398987 7.513452 -0.379450
-20.581167 7.584632 5.877263
-7.375616 2.729786 -2.107305
-20.319647 7.520496 0.378194
-8.892448 3.292945 -2.189224
-20.406511 7.560750 1.140505
-11.133392 4.127204 -2.308026
-20.372803 7.556344 1.901041
-13.638756 5.058662 -2.303967
-20.378759 7.562605 2.668939
-19.649809 7.295986 -2.573637
-20.298616 7.540920 3.429670
-20.143415 7.487269 -1.880124
-20.301554 7.546049 4.210010
-20.163260 7.498645 -1.127421
-20.364367 7.577482 5.016408
-20.207722 7.523216 -0.376379
-20.384394 7.593036 5.828605
-7.361094 2.752200 -2.105752
-20.076012 7.510106 0.374145
-8.873600 3.321231 -2.187424
-20.163025 7.550681 1.128363
-11.123322 4.165479 -2.308789
-20.157330 7.552559 1.883261
-13.506334 5.063253 -2.284569
-20.199829 7.576524 2.648952
-19.605635 7.357558 -2.571200
-20.076139 7.538130 3.396506
-19.967949 7.501479 -1.866179
-20.087631 7.546440 4.171085
-19.938789 7.494495 -1.116326
-20.148092 7.577186 4.969619
-20.074657 7.553563 -0.374389
-20.278215 7.634196 5.805829
-7.356379 2.781209 -2.107305
-19.888813 7.519318 0.371143
-8.860129 3.351499 -2.186974
-19.972168 7.558805 1.119152
-11.093292 4.200655 -2.305736
-19.969282 7.565682 1.868270
-13.450745 5.098715 -2.278312
-20.186253 7.651915 2.650659
-19.553848 7.416095 -2.567787
-19.872404 7.540880 3.366470
-19.747925 7.497587 -1.848050
-19.879976 7.551697 4.133687
-19.731956 7.499406 -1.106277
-19.930752 7.578941 4.922829
-20.068727 7.631409 -0.374773
-20.287554 7.718679 5.816182
-7.359258 2.811697 -2.110928
-19.693008 7.527906 0.368001
-8.844147 3.382556 -2.186074
-19.765255 7.563432 1.109104
-11.082228 4.240759 -2.306499
-19.752960 7.562679 1.850491
-13.429174 5.144223 -2.277686
-20.193289 7.739347 2.655289
-19.511707 7.482028 -2.565837
-19.652824 7.540075 3.333932
-19.545467 7.502800 -1.831665
-19.684874 7.556313 4.098577
-19.519211 7.496630 -1.095810
-19.714991 7.575771 4.876039
-20.053688 7.709937 -0.375017
-7.329080 2.830997 -2.105234
-19.487537 7.527432 0.364651
-8.832285 3.413407 -2.186074
-19.563625 7.564671 1.099265
-11.040976 4.271431 -2.301157
-19.557886 7.570295 1.834803
-13.424967 5.199116 -2.280189
-20.158745 7.806921 2.654315
-19.444748 7.534312 -2.560475
-19.453255 7.541514 3.304522
-19.329687 7.497490 -1.813885
-19.492321 7.564486 4.064232
-19.335207 7.507397 -1.087018
-19.559940 7.598584 4.844546
-20.045294 7.787133 -0.375366
-20.285822 7.884647 5.831711
-7.321452 2.855988 -2.105752
-19.276724 7.523429 0.361195
-8.822131 3.444928 -2.186524
-19.367271 7.562668 1.089635
-11.041380 4.313737 -2.304209
-19.343397 7.561124 1.817023
-13.326705 5.211949 -2.266423
-20.197922 7.903282 2.663089
-19.248272 7.535560 -2.538051
-19.255234 7.538286 3.275112
-19.148888 7.500511 -1.799243
-19.266062 7.550286 4.022254
-19.142859 7.505852 -1.077597
-19.320566 7.579427 4.791458
-20.021221 7.854293 -0.375401
-20.306318 7.970226 5.845170
-7.304248 2.878692 -2.103681
-19.076788 7.518390 0.357914
-8.797969 3.469159 -2.183375
-19.180973 7.567193 1.080633
-11.022603 4.350809 -2.303446
-19.205696 7.584693 1.806564
-13.226670 5.223463 -2.252344
-20.193756 7.978971 2.666014
-19.064415 7.536587 -2.517090
-19.070829 7.542976 3.248206
-18.948444 7.498394 -1.782858
-19.094875 7.556341 3.991724
-18.928450 7.494298 -1.066921
-19.128641 7.577427 4.750066
-20.079197 7.958025 -0.377007
-20.299927 8.049601 5.851381
-7.283892 2.898612 -2.100575
-18.890652 7.521320 0.354912
-8.778563 3.496966 -2.181576
-18.968910 7.560151 1.070166
-11.000819 4.384430 -2.301920
-18.965761 7.562731 1.786344
-13.177165 5.257157 -2.247025
-20.202656 8.064126 2.670889
-18.853638 7.529464 -2.492716
-18.930651 7.564057 3.228808
-18.775459 7.502048 -1.768913
-18.889732 7.551526 3.954326
-18.746401 7.498026 -1.058128
-18.928387 7.574648 4.706876
-20.079145 8.039211 -0.377530
-20.318329 8.139094 5.864840
-7.286277 2.929064 -2.104199
-18.704729 7.523044 0.351910
-8.766305 3.527586 -2.181576
-18.809008 7.572613 1.062629
-10.981806 4.421337 -2.301157
-18.758133 7.555940 1.769262
-13.147742 5.298689 -2.245148
-20.203842 8.146476 2.674789
-18.679964 7.535822 -2.473217
-18.889479 7.624172 3.226305
-18.593964 7.504896 -1.754271
-18.710342 7.555666 3.922270
-18.560856 7.499074 -1.049127
-18.753681 7.580782 4.669984
-20.073204 8.118248 -0.377949
-20.339937 8.230259 5.879334
-7.265268 2.950119 -2.101093
-18.530144 7.528078 0.349118
-8.757547 3.559632 -2.182475
-18.652952 7.585557 1.055302
-10.948120 4.452249 -2.297340
-18.613535 7.573312 1.758106
-13.118189 5.340083 -2.243271
-20.223082 8.236420 2.681126
-18.495451 7.536557 -2.452255
-18.855433 7.687080 3.225053
-18.372086 7.490027 -1.735794
-18.538424 7.561619 3.891741
-18.382935 7.501933 -1.040544
-18.561125 7.578430 4.628592
-20.068810 8.198104 -0.378403
-20.314661 8.302666 5.880369
-7.258502 2.976928 -2.102129
-18.359453 7.533503 0.346395
-8.748673 3.591660 -2.183375
-18.434221 7.571702 1.044416
-10.936144 4.491930 -2.298104
-18.417442 7.568567 1.742069
-13.088507 5.381335 -2.241393
-20.219910 8.317533 2.684538
-18.314829 7.537610 -2.431781
-18.832138 7.754355 3.225679
-18.202129 7.494942 -1.722197
-18.352175 7.560472 3.858158
-18.201523 7.502124 -1.031751
-18.401241 7.588199 4.595300
-20.099224 8.292508 -0.379520
-21.346260 8.811368 6.187846
-7.232002 2.995593 -2.097470
-18.152004 7.522518 0.342975
-8.710882 3.611726 -2.177076
-18.241644 7.567128 1.034996
-10.916771 4.528572 -2.297340
-18.247375 7.573238 1.728473
-13.062345 5.423959 -2.240142
-22.577566 9.379644 3.001886
-18.149094 7.543591 -2.413257
-18.812250 7.823079 3.226930
-18.050758 7.506413 -1.710344
-18.169786 7.559630 3.825339
-18.016651 7.499605 -1.022749
-18.216331 7.586455 4.555709
-30.646996 12.769662 -0.579525
-21.343903 8.897720 6.196128
-7.223284 3.021565 -2.097987
-17.981752 7.525613 0.340252
-8.705411 3.645123 -2.178876
-18.071430 7.570563 1.026832
-10.893653 4.563617 -2.295814
-18.066481 7.572191 1.713831
-13.043332 5.469522 -2.240142
-22.544685 9.458398 3.001886
-17.968903 7.542356 -2.392783
-18.781185 7.887169 3.226305
-17.873816 7.506118 -1.696051
-18.052788 7.584985 3.806258
-17.854111 7.505181 -1.015004
-18.020884 7.578982 4.513418
-30.668587 12.904482 -0.580781
-7.218033 3.049015 -2.099540
-17.811701 7.527617 0.337530
-8.685453 3.672453 -2.177076
-17.897739 7.571343 1.018458
-10.859576 4.593964 -2.291998
-17.907827 7.579300 1.701280
-13.031436 5.518101 -2.241393
-17.781626 7.536867 -2.371334
-17.700762 7.506236 -1.682106
-17.928606 7.606544 3.785650
-17.684404 7.506583 -1.006839
-17.857996 7.583947 4.479225
-30.630724 13.014581 -0.580921
-17.899733 7.609047 5.211581
-7.205568 3.073434 -2.099023
-17.649212 7.531670 0.334947
-8.683336 3.707338 -2.179776
-17.720592 7.569438 1.009875
-10.854306 4.636470 -2.294287
-17.716372 7.571297 1.685592
-13.004830 5.560446 -2.240142
-22.547462 9.645222 3.011148
-17.627460 7.544217 -2.354272
-19.751657 8.457406 3.403076
-17.529762 7.506019 -1.668335
-17.764791 7.610330 3.756648
-17.518576 7.508471 -0.998884
-17.697090 7.588634 4.445483
-30.651258 13.149813 -0.582177
-17.745243 7.616621 5.174311
-7.173504 3.089400 -2.092811
-17.479570 7.531507 0.332224
-8.659605 3.732997 -2.177076
-17.556002 7.568071 1.001920
-10.823633 4.668114 -2.291234
-17.569101 7.580991 1.674087
-12.974460 5.601110 -2.238265
-22.546455 9.738042 3.015535
-17.467487 7.544384 -2.336236
-19.765209 8.540880 3.410272
-17.369951 7.509447 -1.655610
-17.586758 7.606826 3.724592
-17.356619 7.510876 -0.991138
-17.516232 7.579946 4.406342
-30.662542 13.275213 -0.583225
-17.563892 7.607854 5.128758
-7.177394 3.119329 -2.096952
-17.329798 7.535209 0.329850
-8.645391 3.760916 -2.176626
-17.365976 7.554543 0.992499
-10.811695 4.705546 -2.291998
-17.401379 7.577169 1.660491
-12.944949 5.639371 -2.236387
-22.543154 9.825446 3.019435
-17.314991 7.546749 -2.319174
-19.769369 8.620590 3.415903
-17.195208 7.501679 -1.641317
-17.424686 7.605417 3.695589
-17.188848 7.506052 -0.982974
-17.351698 7.577165 4.371249
-30.662331 13.396035 -0.584062
-17.400496 7.605707 5.088383
-7.167010 3.143114 -2.096952
-17.169207 7.533180 0.327268
-8.640009 3.792698 -2.178426
-17.211493 7.558898 0.985172
-10.799625 4.742952 -2.292761
-17.222935 7.567510 1.645849
-12.940644 5.688627 -2.238890
-22.535891 9.911332 3.022847
-17.139553 7.541581 -2.299187
-19.775318 8.705465 3.422161
-17.046238 7.504073 -1.629464
-17.266415 7.604597 3.667349
-17.032269 7.505026 -0.975438
-17.194973 7.580299 4.338406
-30.673925 13.528815 -0.585179
-17.228910 7.602448 5.045936
-7.150697 3.165765 -2.095399
-17.000193 7.529899 0.324545
-8.607120 3.814150 -2.173477
-17.057192 7.562263 0.977845
-10.750699 4.766295 -2.285892
-17.068926 7.571035 1.633647
-12.911680 5.729758 -2.237326
-22.548328 10.010880 3.029185
-16.957102 7.532063 -2.278226
-19.755638 8.779254 3.424038
-16.892490 7.506893 -1.617262
-17.031666 7.572306 3.623081
-16.878227 7.507610 -0.968111
-17.036659 7.581644 4.305113
-17.509998 7.795956 -0.334563
-17.092857 7.613802 5.013843
-7.134310 3.188343 -2.093846
-16.860620 7.538589 0.322381
-8.609764 3.851331 -2.177526
-16.910370 7.567916 0.970937
-10.730412 4.802193 -2.285129
-16.933287 7.581719 1.623188
-12.875377 5.767522 -2.234510
-22.553101 10.107389 3.034547
-16.829271 7.545728 -2.264576
-19.764526 8.865943 3.430921
-16.726208 7.503019 -1.603840
-16.854675 7.564185 3.591026
-16.720732 7.507579 -0.960574
-16.874987 7.580383 4.270921
-30.644398 13.772134 -0.586436
-16.935793 7.614798 4.975537
-7.126659 3.214816 -2.094882
-16.699329 7.536524 0.319798
-8.592714 3.879760 -2.176626
-16.756437 7.569343 0.963610
-10.710004 4.838003 -2.284365
-16.754211 7.571853 1.608546
-12.847965 5.809179 -2.233259
-22.550236 10.200780 3.038934
-16.672621 7.545495 -2.247027
-19.769445 8.951180 3.437178
-16.580124 7.507124 -1.592335
-16.688679 7.559786 3.561260
-16.583454 7.515609 -0.954189
-16.749035 7.594174 4.245726
-30.647123 13.902149 -0.587413
-16.754301 7.603612 4.929985
-7.118911 3.241273 -2.095917
-16.560093 7.543375 0.317634
-8.556067 3.899225 -2.170778
-16.617245 7.576414 0.957120
-10.714488 4.885129 -2.288945
-16.589912 7.567449 1.595299
-12.813231 5.847431 -2.230756
-22.532553 10.287673 3.041372
-16.483671 7.529420 -2.225091
-18.620560 8.509438 3.242574
-16.537205 7.560851 3.534546
-16.413635 7.507818 -0.945920
-16.593069 7.593396 4.212883
-30.663866 14.039012 -0.588670
-16.611738 7.608953 4.895821
-7.093510 3.259650 -2.091776
-16.446447 7.561045 0.315958
-8.554798 3.934766 -2.173927
-16.452805 7.570920 0.949165
-10.683103 4.915936 -2.285892
-16.491001 7.591990 1.588326
-12.799920 5.895424 -2.232007
-16.464020 7.586530 2.225822
-16.305857 7.517103 -2.204617
-18.569216 8.564456 3.238819
-16.385927 7.560948 3.507833
-16.271271 7.511492 -0.939221
-16.412544 7.580184 4.173742
-30.672768 14.172798 -0.589787
-16.458822 7.608528 4.858552
-7.092605 3.289268 -2.094882
-16.343769 7.583055 0.314492
-8.541011 3.964604 -2.173927
-16.292229 7.566054 0.941419
-10.655194 4.948235 -2.283602
-16.301779 7.573953 1.572638
-12.772099 5.936738 -2.230756
-16.318638 7.588713 2.209735
-16.157127 7.517035 -2.188042
-18.532047 8.625885 3.237568
-16.256210 7.570036 3.485699
-16.120031 7.510046 -0.931999
-16.262344 7.579796 4.142249
-30.655724 14.294999 -0.590415
-16.309610 7.608762 4.822317
-7.074080 3.310730 -2.092811
-16.338932 7.650236 0.314911
-8.520061 3.991087 -2.172127
-16.153589 7.570335 0.934930
-10.623633 4.978737 -2.280549
-16.163397 7.578368 1.561831
-12.749509 5.980447 -2.230443
-16.187820 7.596716 2.195598
-16.001415 7.512642 -2.170493
-18.616253 8.744270 3.257592
-16.101753 7.566616 3.458222
-15.988890 7.516981 -0.925928
-16.122927 7.583437 4.113455
-30.663540 14.429167 -0.591532
-16.160604 7.608044 4.786082
-7.045012 3.327153 -2.087634
-16.294046 7.698681 0.314562
-8.514887 4.024965 -2.174377
-16.030891 7.577762 0.929277
-10.588442 5.007394 -2.276733
-16.046799 7.592139 1.553115
-12.701772 6.012241 -2.225750
-16.039209 7.595401 2.179024
-15.838753 7.503859 -2.151969
-18.505033 8.767052 3.243200
-15.843449 7.509474 -1.533941
-15.954617 7.565571 3.432272
-15.854282 7.521382 -0.919648
-15.990727 7.589537 4.086461
-30.676943 14.559925 -0.592719
-16.013130 7.603589 4.749847
-7.040331 3.355049 -2.089705
-16.264816 7.750951 0.314492
-8.483903 4.044794 -2.169878
-15.874548 7.571770 0.921741
-10.581531 5.049397 -2.279023
-15.887147 7.584583 1.540216
-12.681767 6.054323 -2.225750
-15.892126 7.590370 2.162450
-15.713481 7.508414 -2.138320
-18.488577 8.838410 3.245703
-15.712891 7.514871 -1.523831
-15.840884 7.576085 3.413191
-15.699534 7.511849 -0.912111
-15.856492 7.590355 4.058567
-30.651184 14.679005 -0.593207
-15.871504 7.604347 4.715683
-7.027425 3.377541 -2.089187
-16.273708 7.825007 0.315190
-8.466218 4.072696 -2.168978
-15.744960 7.574153 0.915670
-10.525809 5.065730 -2.270627
-15.750607 7.583641 1.529409
-12.674792 6.105415 -2.228253
-15.758237 7.594091 2.147825
-15.576310 7.509768 -2.123208
-18.484077 8.911683 3.250083
-15.585595 7.517598 -1.513895
-15.775444 7.612564 3.404796
-15.565299 7.514506 -0.905831
-15.698292 7.582090 4.024824
-30.656361 14.806661 -0.594254
-15.762707 7.616594 4.690836
-7.010378 3.399520 -2.087634
-16.265661 7.887654 0.315540
-8.456174 4.102448 -2.169878
-15.621398 7.581975 0.910018
-10.453313 5.075856 -2.258797
-15.620099 7.588077 1.519299
-12.650925 6.145683 -2.227627
-15.615130 7.589037 2.131739
-15.429925 7.502356 -2.106634
-18.484831 8.991704 3.255714
-15.449978 7.518774 -1.503262
-15.746580 7.663116 3.404032
-15.439734 7.517121 -0.899969
-15.576706 7.587172 4.000080
-30.672800 14.946869 -0.595581
-15.607525 7.608925 4.652532
-6.991528 3.420574 -2.085564
-16.215088 7.936674 0.315121
-8.444580 4.135130 -2.170778
-15.500238 7.593485 0.904575
-10.365010 5.077764 -2.243532
-15.464700 7.579426 1.506748
-12.617670 6.186796 -2.225750
-15.483845 7.595508 2.117602
-15.295400 7.506385 -2.092009
-18.497852 9.082029 3.263849
-15.310966 7.517340 -1.492281
-15.732488 7.727700 3.407086
-15.313489 7.525213 -0.894212
-15.457853 7.599504 3.976685
-30.689581 15.094491 -0.596977
-15.458194 7.606373 4.616297
-6.969151 3.439829 -2.082458
-16.180113 7.989685 0.314981
-8.426600 4.162854 -2.169878
-15.387694 7.605069 0.899551
-10.285622 5.083469 -2.230176
-15.320273 7.575079 1.495244
-12.585375 6.225544 -2.223873
-15.354042 7.598446 2.103465
-15.165923 7.508645 -2.077873
-18.497904 9.162322 3.269481
-15.188222 7.522981 -1.482868
-15.687823 7.773857 3.403269
-15.176183 7.523620 -0.887723
-15.371876 7.623973 3.961388
-30.690447 15.228192 -0.598024
-15.324265 7.607031 4.584203
-6.957101 3.464137 -2.082458
-16.903889 8.420599 0.329641
-8.398065 4.185289 -2.166279
-15.278830 7.617745 0.894736
-10.213346 5.092188 -2.218345
-15.215293 7.589378 1.487574
-12.567101 6.271201 -2.224498
-15.199550 7.588156 2.085916
-15.047276 7.515412 -2.065198
-18.488779 9.238315 3.273548
-15.038892 7.514504 -1.470840
-15.678152 7.837349 3.407086
-15.042650 7.522945 -0.881442
-15.264999 7.637479 3.940693
-15.559063 7.788002 -0.303707
-15.225070 7.624142 4.562462
-6.955325 3.493601 -2.085564
-16.913700 8.499307 0.330409
-8.386886 4.216332 -2.167179
-15.159365 7.624363 0.889293
-10.120092 5.089875 -2.201936
-15.096159 7.595876 1.478510
-12.534548 6.309705 -2.222621
-15.082550 7.595627 2.073485
-14.903944 7.508941 -2.049111
-18.486403 9.317916 3.278867
-14.930726 7.525707 -1.462822
-15.647197 7.890257 3.406322
-14.912874 7.523233 -0.875371
-15.132122 7.637157 3.913248
-15.431823 7.791790 -0.301752
-15.074213 7.614529 4.525192
-6.943088 3.517859 -2.085564
-16.921387 8.577282 0.331142
-8.368641 4.243816 -2.166279
-15.036474 7.628438 0.883640
-10.016472 5.081645 -2.183237
-14.959399 7.592618 1.467703
-12.501880 6.348052 -2.220744
-14.970993 7.605075 2.061786
-14.785618 7.514158 -2.036437
-18.483702 9.397605 3.284186
-14.803133 7.526306 -1.452886
-15.630056 7.950169 3.408612
-14.804637 7.533579 -0.870556
-14.999437 7.635998 3.885804
-15.290486 7.787527 -0.299518
-14.940819 7.612728 4.493099
-6.920444 3.536799 -2.082458
-8.350307 4.271228 -2.165379
-14.895964 7.622649 0.876941
-9.935756 5.084383 -2.169498
-14.805114 7.579419 1.455152
-12.486676 6.395255 -2.221995
-14.870153 7.619268 2.051549
-14.663908 7.516821 -2.023275
-18.484182 9.479195 3.290130
-14.666856 7.521565 -1.442079
-15.693042 8.051281 3.428456
-14.664532 7.526839 -0.863857
-14.879080 7.640241 3.861510
-15.160043 7.787861 -0.297494
-14.807625 7.610082 4.461005
-6.904623 3.559162 -2.081423
-16.116411 8.311177 0.316517
-8.345737 4.305711 -2.168078
-14.780526 7.628793 0.871708
-9.858632 5.088416 -2.156523
-14.704213 7.592660 1.447831
-12.453747 6.433363 -2.220118
-14.742948 7.619180 2.037656
-14.556463 7.526024 -2.012063
-18.493092 9.565441 3.297639
-14.559104 7.530610 -1.434061
-15.738074 8.143907 3.444484
-14.547711 7.531154 -0.858519
-14.760609 7.644635 3.837665
-15.047541 7.796575 -0.295818
-14.684924 7.611939 4.432017
-6.895584 3.585026 -2.082458
-16.009241 8.326782 0.314981
-8.316828 4.327620 -2.164479
-14.658139 7.630544 0.866055
-9.781600 5.091979 -2.143548
-14.571592 7.588723 1.437372
-12.420704 6.471317 -2.218241
-14.575436 7.597193 2.018157
-14.438577 7.529063 -1.999389
-18.491116 9.646378 3.303271
-14.437343 7.531620 -1.424648
-15.746103 8.217871 3.452498
-14.427498 7.532896 -0.852971
-14.621556 7.637470 3.808421
-14.920987 7.797186 -0.293864
-14.569239 7.616612 4.405100
-6.881317 3.608178 -2.081941
-16.900919 8.865652 0.333132
-8.301670 4.356627 -2.164479
-14.532386 7.629673 0.860194
-9.695974 5.090500 -2.128665
-14.463879 7.596922 1.429354
-12.394540 6.512799 -2.217615
-14.464486 7.603689 2.006457
-14.306793 7.523975 -1.984764
-18.492290 9.729264 3.309528
-14.313983 7.530950 -1.415061
-15.729482 8.279185 3.455170
-14.310990 7.535750 -0.847633
-14.429293 7.601266 3.765231
-14.822916 7.811930 -0.292467
-14.467375 7.627775 4.382324
-6.872097 3.633981 -2.082976
-16.924664 8.953582 0.334214
-8.289857 4.387402 -2.165379
-14.417411 7.633623 0.854960
-9.612215 5.089404 -2.114164
-14.335153 7.593273 1.419244
-12.383949 6.562500 -2.219805
-14.339642 7.602061 1.992808
-14.192755 7.527368 -1.972577
-14.217208 7.543517 -1.408088
-14.192869 7.536952 -0.842190
-14.306298 7.600389 3.740036
-14.682548 7.803557 -0.290234
-14.351961 7.631072 4.355407
-6.847437 3.651583 -2.079352
-15.908816 8.487384 0.314737
-8.264176 4.410804 -2.162679
-14.295538 7.633103 0.849308
-9.535508 5.091485 -2.101189
-14.217175 7.594455 1.410180
-12.355742 6.602892 -2.218867
-14.232489 7.609016 1.981596
-14.075369 7.528180 -1.959903
-18.490105 9.893538 3.321417
-14.080118 7.533876 -1.397107
-15.761306 8.436972 3.475014
-14.081961 7.541191 -0.837166
-14.190356 7.602426 3.716641
-14.598815 7.824535 -0.289117
-14.206059 7.617221 4.319173
-6.810829 3.662654 -2.072105
-15.805133 8.503069 0.313271
-8.253879 4.442396 -2.164029
-14.191431 7.641296 0.844702
-9.455448 5.091233 -2.087451
-14.095859 7.593009 1.400767
-12.311750 6.634737 -2.215112
-14.114979 7.609670 1.968921
-13.972132 7.535801 -1.949178
-18.490229 9.976781 3.327674
-13.978337 7.542298 -1.389611
-15.723119 8.487279 3.473106
-13.967682 7.542849 -0.831932
-14.072863 7.602818 3.692796
-29.401434 15.890665 -0.583364
-14.085917 7.616227 4.290702
-6.814984 3.695615 -2.077282
-15.908941 8.630659 0.315923
-8.234896 4.469321 -2.163129
-14.057178 7.629247 0.838213
-9.375507 5.090484 -2.073712
-13.999238 7.604128 1.393795
-12.283307 6.674842 -2.214174
-13.983690 7.602005 1.954297
-13.858547 7.537107 -1.936992
-18.491745 10.056917 3.333932
-13.864417 7.543435 -1.380896
-15.738230 8.566515 3.483028
-13.850059 7.541889 -0.826490
-13.958961 7.604354 3.669852
-29.387205 16.009121 -0.584132
-13.975768 7.616673 4.264821
-6.805433 3.721235 -2.078317
-15.757417 8.616212 0.313480
-8.220030 4.496605 -2.163129
-13.958627 7.638958 0.833921
-9.323238 5.104323 -2.066080
-13.874753 7.599351 1.384033
-12.257641 6.713642 -2.213548
-13.878321 7.604459 1.943085
-13.739479 7.531496 -1.923830
-18.498098 10.144201 3.341440
-13.747167 7.541956 -1.371831
-15.756207 8.644154 3.493331
-13.733926 7.537806 -0.821047
-13.849969 7.604641 3.647806
-29.390734 16.144339 -0.585319
-13.871217 7.622611 4.241009
-6.782904 3.738188 -2.075211
-15.622171 8.613233 0.311386
-8.204284 4.525270 -2.163129
-13.826955 7.629740 0.827641
-9.258131 5.108654 -2.055395
-13.779705 7.606805 1.377061
-12.234133 6.756385 -2.213548
-13.780454 7.613495 1.933092
-13.626236 7.531396 -1.911643
-18.497147 10.227832 3.347698
-13.648851 7.547010 -1.364510
-15.743121 8.708601 3.497148
-13.634135 7.545084 -0.816650
-13.727862 7.600086 3.622612
-29.383186 16.273954 -0.586296
-13.763413 7.626042 4.216163
-6.769814 3.761842 -2.075211
-15.504622 8.619127 0.309641
-8.188437 4.553882 -2.163129
-13.723444 7.635234 0.823035
-9.240242 5.140941 -2.055395
-13.655579 7.600594 1.367299
-12.196664 6.791364 -2.211045
-13.665351 7.612285 1.920661
-13.527037 7.538327 -1.901406
-18.495840 10.311571 3.353955
-13.530194 7.543185 -1.355272
-15.743488 8.780715 3.504016
-13.527484 7.547865 -0.811835
-13.628083 7.607114 3.603266
-29.385561 16.409573 -0.587483
-13.632144 7.615628 4.184069
-6.749900 3.781672 -2.073141
-15.345358 8.600848 0.307058
-8.167391 4.579579 -2.161780
-13.614840 7.637164 0.818116
-9.222241 5.173162 -2.055395
-13.566415 7.613113 1.361024
-12.153935 6.823260 -2.207603
-13.553888 7.612305 1.908718
-13.427952 7.544662 -1.891169
-18.497618 10.397366 3.360838
-13.422150 7.544485 -1.347079
-15.745255 8.853900 3.511267
-13.429684 7.554889 -0.807544
-13.516532 7.606852 3.580771
-29.394318 16.549328 -0.588809
-13.534783 7.623345 4.162328
-6.740022 3.807111 -2.074176
-15.217746 8.599272 0.305103
-8.139482 4.601345 -2.158630
-13.511603 7.641381 0.813510
-9.197292 5.201457 -2.053868
-13.463455 7.617257 1.353354
-12.126606 6.863698 -2.206978
-13.439136 7.609687 1.896287
-13.308264 7.538655 -1.878007
-18.502457 10.485246 3.368347
-13.328129 7.552981 -1.340281
-15.738166 8.922359 3.516610
-13.307679 7.547530 -0.801787
-13.437354 7.624175 3.566824
-29.385063 16.679472 -0.589787
-13.425776 7.623802 4.136964
-6.730050 3.832527 -2.075211
-15.097285 8.600863 0.303288
-8.119985 4.627800 -2.157730
-13.363392 7.619254 0.806183
-9.172256 5.229642 -2.052342
-13.364098 7.622748 1.346033
-12.097428 6.903047 -2.206039
-13.340083 7.615222 1.886050
-13.206020 7.541749 -1.867282
-18.506912 10.573281 3.375856
-13.211728 7.548062 -1.331217
-15.742718 8.997705 3.524624
-13.211899 7.554282 -0.797600
-13.380212 7.653615 3.558726
-29.399559 16.823660 -0.591253
-13.332019 7.632229 4.116258
-6.703228 3.848301 -2.071070
-14.994342 8.611683 0.301822
-8.086884 4.646407 -2.153232
-13.243209 7.612109 0.800531
-9.121605 5.243039 -2.045091
-13.219959 7.601811 1.334180
-12.069833 6.943263 -2.205413
-13.230834 7.614215 1.874351
-13.097040 7.540257 -1.855583
-13.211362 7.609149 2.414723
-13.121416 7.557344 -1.324767
-15.748637 9.074165 3.533020
-13.102393 7.552475 -0.792576
-13.358477 7.703197 3.560076
-29.406473 16.964151 -0.592579
-13.256775 7.650713 4.101247
-6.693097 3.873612 -2.072105
-13.500134 7.816311 0.272292
-8.084104 4.682424 -2.156831
-13.123240 7.604215 0.794879
-9.070973 5.256143 -2.037840
-13.110604 7.599949 1.325813
-12.033560 6.978419 -2.203223
-13.114890 7.608551 1.861676
-12.998530 7.544078 -1.845346
-13.112972 7.613561 2.401582
-13.017420 7.558082 -1.316923
-15.738938 9.141899 3.537981
-13.013783 7.562041 -0.788808
-13.333191 7.750761 3.560525
-29.378197 17.084784 -0.593207
-13.166533 7.660030 4.081576
-6.671192 3.892084 -2.069517
-13.382961 7.810969 0.270477
-8.059297 4.705699 -2.154581
-13.020733 7.605652 0.790273
-9.050876 5.286785 -2.037459
-13.004866 7.599429 1.317795
-11.993781 7.011406 -2.200408
-13.024848 7.617205 1.852658
-12.903579 7.549311 -1.835596
-13.013010 7.616379 2.388129
-12.908423 7.555165 -1.308556
-15.745897 9.219598 3.546758
-12.914923 7.565026 -0.784411
-13.319507 7.805133 3.564125
-29.377033 17.221615 -0.594394
-13.084723 7.673693 4.064495
-6.659231 3.916325 -2.070035
-13.293565 7.821135 0.269221
-8.024348 4.722930 -2.149632
-12.908052 7.600389 0.785039
-9.030675 5.317351 -2.037077
-12.913025 7.606352 1.311171
-11.952214 7.043202 -2.197279
-12.917807 7.615243 1.841202
-12.798494 7.547917 -1.824384
-12.902978 7.612572 2.372798
-12.818480 7.562719 -1.302107
-15.737288 9.288477 3.552100
-12.802447 7.559285 -0.779178
-13.288825 7.849598 3.563225
-29.399374 17.372898 -0.596070
-12.978035 7.672128 4.039648
-6.643858 3.938561 -2.069517
-13.190504 7.822609 0.267685
-7.997757 4.744946 -2.146933
-12.809307 7.602585 0.780643
-9.017123 5.351847 -2.038222
-12.811016 7.606624 1.303501
-11.932652 7.087906 -2.198217
-12.816058 7.615670 1.830478
-12.696990 7.547915 -1.813660
-12.810112 7.618187 2.360596
-12.716656 7.562609 -1.294437
-15.755387 9.373468 3.563549
-12.700465 7.558982 -0.774572
-13.266367 7.898928 3.564574
-29.390095 17.506105 -0.597117
-12.876494 7.672884 4.016354
-6.624126 3.956609 -2.067447
-13.123292 7.841691 0.266847
-7.983651 4.772441 -2.147383
-12.691463 7.589665 0.774991
-8.990904 5.376680 -2.036314
-12.703651 7.599967 1.295134
-11.895520 7.119322 -2.195714
-12.726015 7.619375 1.821216
-12.600365 7.547138 -1.803423
-12.693275 7.605797 2.343701
-12.636816 7.571967 -1.288859
-15.749475 9.440805 3.569273
-12.605101 7.558944 -0.770281
-13.218375 7.929845 3.558726
-29.403893 17.646690 -0.598583
-12.784728 7.675765 3.995649
-6.605310 3.976718 -2.065894
-13.027320 7.846184 0.265451
-7.963606 4.798266 -2.146483
-12.615286 7.604023 0.771955
-8.961990 5.401953 -2.034024
-12.612209 7.605169 1.288510
-11.846918 7.146514 -2.191334
-12.622857 7.617599 1.810247
-12.512765 7.554141 -1.794648
-12.599015 7.609207 2.331187
-12.542091 7.574828 -1.281887
-12.592631 7.608356 2.859845
-12.520522 7.567771 -0.766722
-12.598622 7.617976 3.399010
-12.485243 7.552399 -0.254700
-12.678523 7.672338 3.970802
-6.584781 3.995744 -2.063823
-12.492167 7.583414 0.255084
-7.936815 4.819967 -2.143784
-12.513560 7.602384 0.767350
-8.941401 5.432184 -2.033643
-12.514078 7.605685 1.281189
-11.806708 7.178589 -2.188519
-12.523261 7.617257 1.799767
-12.425272 7.560622 -1.785873
-12.511631 7.616166 2.319923
-12.421968 7.561586 -1.272300
-12.503954 7.614485 2.845726
-12.424099 7.568825 -0.762430
-12.518703 7.629457 3.384614
-12.419533 7.571991 -0.253898
-12.570850 7.667253 3.945438
-6.577386 4.022736 -2.065894
-12.388862 7.580010 0.253514
-7.919940 4.847645 -2.143784
-12.420520 7.605339 0.763268
-8.930758 5.468486 -2.035550
-12.419494 7.607691 1.274217
-11.774840 7.215632 -2.187267
-12.415364 7.611122 1.788067
-12.331117 7.562436 -1.776124
-12.412568 7.615375 2.306470
-12.342852 7.572603 -1.266896
-12.400332 7.610843 2.828171
-12.321012 7.565119 -0.757720
-12.428894 7.634351 3.367517
-12.341915 7.583888 -0.252850
-12.417286 7.633191 3.905580
-6.563304 4.045671 -2.065894
-12.306158 7.588573 0.252362
-7.897995 4.872190 -2.142434
-12.317410 7.601448 0.758557
-8.901589 5.493441 -2.033261
-12.328438 7.611228 1.267593
-11.742860 7.252536 -2.186016
-12.316103 7.609547 1.777586
-12.223590 7.555340 -1.764424
-12.325426 7.621254 2.295207
-12.236698 7.566391 -1.258703
-12.311913 7.615868 2.814051
-12.229989 7.568147 -0.753743
-12.317668 7.625374 3.344572
-12.250765 7.586915 -0.251524
-12.344582 7.648001 3.891086
-6.545860 4.066517 -2.064858
-12.228640 7.599817 0.251315
-7.877630 4.897671 -2.141534
-12.233139 7.608533 0.754999
-8.872356 5.518258 -2.030971
-12.240896 7.616322 1.261318
-11.705733 7.286176 -2.183825
-12.240598 7.622063 1.770518
-12.197144 7.597960 -1.764424
-12.236717 7.625576 2.283631
-12.169631 7.583769 -1.254520
-12.215278 7.615179 2.798023
-12.149268 7.576968 -0.750393
-12.228148 7.629127 3.327476
-12.142778 7.578814 -0.249849
-12.230961 7.636818 3.863651
-6.520164 4.082164 -2.061235
-12.129164 7.596815 0.249814
-7.855532 4.922036 -2.140184
-12.137121 7.607698 0.750707
-8.851377 5.548153 -2.030589
-12.133212 7.608198 1.252951
-11.680228 7.326993 -2.183825
-12.139934 7.618318 1.759793
-12.049497 7.564497 -1.746875
-12.126383 7.615714 2.267987
-12.051971 7.568982 -1.245107
-12.138752 7.626437 2.786575
-12.050033 7.573630 -0.745892
-12.145351 7.636497 3.312179
-12.063775 7.588148 -0.248767
-12.119206 7.625962 3.836734
-6.505874 4.104901 -2.061235
-12.034931 7.596413 0.248418
-7.828418 4.943182 -2.137485
-12.044637 7.608420 0.746625
-8.826977 5.575871 -2.029445
-12.035841 7.605803 1.245630
-11.629537 7.351883 -2.179132
-12.042801 7.616084 1.749556
-11.952562 7.561935 -1.736638
-12.036297 7.617854 2.256098
-11.948035 7.561992 -1.237089
-12.032437 7.618352 2.768257
-11.959406 7.575036 -0.741915
-12.054421 7.638171 3.294633
-11.974724 7.590597 -0.247475
-12.028885 7.627872 3.816546
-6.493136 4.128623 -2.061753
-11.945914 7.598664 0.247126
-7.809469 4.969434 -2.137035
-11.952295 7.608588 0.742543
-8.810771 5.608758 -2.030208
-11.945359 7.607098 1.239006
-11.600470 7.390313 -2.178507
-11.945833 7.613266 1.739319
-11.859141 7.560922 -1.726889
-11.946345 7.619457 2.244209
-11.872852 7.572582 -1.232034
-11.946189 7.622291 2.754519
-11.857133 7.568377 -0.737204
-11.989911 7.656077 3.284285
-11.887487 7.593597 -0.246219
-11.932186 7.625086 3.794287
-6.470552 4.146050 -2.059164
-11.863761 7.604705 0.245974
-7.775671 4.986145 -2.132536
-11.851697 7.602810 0.737937
-8.776269 5.629937 -2.026773
-11.851659 7.605709 1.232034
-11.571277 7.428628 -2.177881
-11.875759 7.627025 1.732982
-11.765870 7.559355 -1.717139
-11.873147 7.631206 2.235449
-11.792712 7.579509 -1.226456
-11.937676 7.675622 2.758717
-11.768490 7.569746 -0.733332
-11.972944 7.704210 3.286985
-11.830644 7.615560 -0.245590
-11.858397 7.636356 3.779276
-6.459286 4.170707 -2.060200
-11.852259 7.655839 0.246288
-7.761493 5.015370 -2.133436
-11.761350 7.602932 0.733960
-8.745023 5.653077 -2.024102
-11.774846 7.614575 1.226804
-11.527033 7.457168 -2.174439
-11.774071 7.619899 1.722014
-11.662759 7.550754 -1.705927
-11.786750 7.633943 2.224185
-11.685916 7.568636 -1.218089
-11.937170 7.734329 2.764822
-11.671602 7.565154 -0.728935
-11.963965 7.757620 3.291934
-11.814053 7.663343 -0.245800
-11.765224 7.634588 3.758053
-6.439831 4.190068 -2.058647
-11.852280 7.714616 0.246847
-7.727609 5.031799 -2.128937
-11.667794 7.600338 0.729773
-8.712074 5.674998 -2.021049
-11.668072 7.603416 1.218437
-11.484385 7.486573 -2.171311
-11.675899 7.614328 1.711533
-11.579805 7.554538 -1.697640
-11.707094 7.640492 2.214174
-11.594354 7.566914 -1.211290
-11.947908 7.800635 2.773600
-11.588268 7.568716 -0.725376
-11.962917 7.816387 3.299132
-11.819034 7.725323 -0.246463
-11.662511 7.625919 3.733724
-6.415472 4.206167 -2.055541
-11.850361 7.772392 0.247370
-7.723032 5.067296 -2.132536
-11.595771 7.608307 0.726842
-8.688930 5.703218 -2.020286
-11.578172 7.602543 1.211813
-11.440020 7.514686 -2.167869
-11.592844 7.617973 1.703246
-11.498282 7.555834 -1.689353
-11.590906 7.619592 2.196966
-11.504608 7.565742 -1.204667
-11.930448 7.848768 2.775889
-11.510060 7.575080 -0.722132
-11.971116 7.878513 3.308580
-11.831765 7.789766 -0.247266
-11.571011 7.620986 3.712501
-6.411160 4.233806 -2.058647
-11.849547 7.828181 0.247894
-7.668792 5.068166 -2.122188
-11.497162 7.598267 0.722236
-8.656868 5.723338 -2.017233
-11.499721 7.605726 1.206236
-11.383736 7.531871 -2.161925
-11.501305 7.612550 1.693497
-11.416883 7.556672 -1.681066
-11.509575 7.620909 2.186328
-11.426305 7.568641 -1.199089
-11.406635 7.561341 -0.717212
-11.839201 7.851059 -0.247964
-11.489330 7.621937 3.694383
-6.390653 4.250762 -2.056576
-11.851825 7.886265 0.248487
-7.650321 5.092489 -2.121738
-11.407399 7.596284 0.718259
-8.624769 5.743307 -2.014180
-11.418057 7.606262 1.200309
-11.330750 7.550957 -2.156606
-11.418187 7.612108 1.684966
-11.321073 7.550215 -1.670829
-11.420460 7.619378 2.174439
-11.344792 7.568895 -1.193162
-11.949981 7.975676 2.792681
-11.334989 7.568074 -0.714281
-11.969067 7.994451 3.322977
-11.843311 7.913449 -0.248627
-11.433746 7.642669 3.685066
-6.375775 4.273045 -2.056576
-11.714602 7.854091 0.246184
-7.604986 5.100708 -2.114090
-11.327740 7.600451 0.714909
-8.589994 5.763535 -2.010745
-11.335191 7.608319 1.194382
-11.260047 7.560729 -2.148158
-11.337169 7.615389 1.676922
-11.241924 7.554258 -1.663029
-11.324942 7.612909 2.161299
-11.257124 7.567320 -1.186713
-11.939990 8.029389 2.796878
-11.247187 7.566346 -0.710408
-11.979887 8.062298 3.333775
-11.681255 7.864282 -0.245800
-11.387771 7.669585 3.678854
-6.356017 4.292031 -2.055023
-11.844535 8.001273 0.249500
-7.554842 5.105401 -2.105092
-11.234954 7.595202 0.710722
-8.568197 5.792386 -2.010364
-11.235947 7.598728 1.186713
-11.184501 7.566783 -2.138772
-11.259554 7.620425 1.669366
-11.153022 7.551163 -1.653767
-11.242688 7.614733 2.150661
-11.166305 7.562998 -1.179914
-11.960649 8.104056 2.808327
-11.167802 7.569700 -0.707059
-11.979094 8.122657 3.341423
-11.834116 8.027368 -0.249604
-11.364126 7.711458 3.679889
-6.326622 4.304410 -2.050364
-11.851248 8.066197 0.250233
-7.506369 5.110905 -2.096544
-11.163806 7.604013 0.707896
-8.533323 5.812310 -2.006929
-11.150082 7.597514 1.180437
-11.099258 7.565725 -2.127509
-11.164001 7.612710 1.659129
-11.080681 7.558724 -1.646942
-11.162194 7.617188 2.140337
-11.083880 7.563746 -1.173988
-11.953365 8.160148 2.813288
-11.083584 7.569214 -0.703395
-11.978021 8.183110 3.349071
-11.840693 8.092322 -0.250337
-11.335544 7.749990 3.679372
-6.321118 4.333022 -2.053470
-11.859301 8.132401 0.251001
-7.435453 5.100696 -2.081697
-11.079557 7.603382 0.704233
-8.504889 5.836508 -2.005021
-11.080784 7.607073 1.175905
-11.020674 7.568636 -2.117497
-11.080096 7.612289 1.650599
-11.005147 7.563628 -1.639630
-11.083448 7.620292 2.130325
-10.995347 7.562541 -1.167538
-11.957161 8.224072 2.820920
-10.986342 7.559176 -0.698894
-11.984699 8.249180 3.358969
-11.838727 8.151747 -0.250896
-11.321150 7.798278 3.683513
-6.303604 4.355064 -2.052953
-11.855519 8.190798 0.251524
-7.374320 5.096704 -2.069550
-10.987235 7.596577 0.700046
-8.476980 5.863176 -2.003495
-11.010231 7.618158 1.171373
-10.958750 7.585371 -2.110927
-10.993062 7.609120 1.641580
-10.910133 7.554535 -1.629393
-11.006443 7.624062 2.120626
-10.921389 7.567970 -1.162483
-11.946298 8.281267 2.825500
-10.914250 7.568660 -0.696068
-11.973597 8.306379 3.364368
-11.844702 8.216962 -0.251629
-11.276402 7.825634 3.677819
-6.282022 4.372626 -2.050882
-11.858241 8.257047 0.252222
-7.326805 5.103651 -2.061451
-10.915074 7.605966 0.697220
-8.438745 5.880382 -1.999297
-10.944344 7.629199 1.167190
-10.881977 7.588550 -2.101228
-10.926027 7.622100 1.635731
-10.869349 7.585381 -1.627443
-10.920114 7.623646 2.109363
-10.845895 7.571832 -1.157254
-11.973656 8.362258 2.838856
-10.838645 7.572399 -0.692928
-11.971684 8.367104 3.372016
-11.837452 8.276360 -0.252117
-11.263474 7.877984 3.682995
-6.261976 4.391200 -2.049329
-11.860453 8.320207 0.252885
-7.278638 5.107924 -2.052903
-10.832880 7.605003 0.693661
-8.413346 5.906418 -1.998152
-10.858948 7.626137 1.160914
-10.803699 7.590148 -2.091216
-10.845759 7.622525 1.627687
-10.823318 7.609578 -1.624519
