# This PCD file was generated using the MATLAB® pcwrite function
# from Computer Vision Toolbox®.
# .PCD v.7 - Point Cloud Data file format
VERSION .7
FIELDS x y z
SIZE 4 4 4
TYPE F F F
COUNT 1 1 1
WIDTH 1660
HEIGHT 1
VIEWPOINT 0 0 0 1 0 0 0
POINTS 1660
DATA ascii
-11.533191 8.773219 3.882803
-6.049254 4.613306 -2.038459
-15.647387 11.937384 0.343533
-6.698483 5.112119 -1.945377
-10.188563 7.778482 0.671784
-8.109761 6.191416 -1.983269
-10.016696 7.650033 1.102694
-9.961234 7.610428 -1.985466
-9.983655 7.630321 1.542866
-9.949208 7.606741 -1.537748
-9.976077 7.630043 1.989221
-9.910069 7.579557 -1.091538
-9.971223 7.629093 2.440447
-9.895158 7.573629 -0.653048
-13.017274 9.966866 3.785026
-28.008736 21.453053 -0.615826
-11.528566 8.833395 3.891603
-6.034647 4.635569 -2.038976
-10.201847 7.839473 0.224578
-6.652786 5.114092 -1.937279
-10.150046 7.802485 0.670947
-8.081877 6.214898 -1.981742
-9.945714 7.650936 1.097814
-9.884510 7.606604 -1.975455
-9.914491 7.632427 1.536285
-9.908198 7.627584 -1.535310
-9.910028 7.631747 1.981086
-9.834620 7.576413 -1.086135
-9.883885 7.617112 2.425564
-9.819626 7.570321 -0.649803
-28.000778 21.594662 -0.617222
-6.019241 4.655555 -2.038976
-10.126765 7.835326 0.223496
-6.612675 5.118233 -1.930530
-10.139911 7.848326 0.671994
-8.039491 6.224838 -1.976400
-9.888784 7.659475 1.094327
-9.817074 7.606671 -1.967007
-9.831075 7.620267 1.527267
-9.851471 7.636076 -1.530435
-9.828467 7.620992 1.969823
-9.770086 7.578453 -1.081777
-9.827551 7.625775 2.417932
-9.753447 7.571001 -0.647082
-13.035555 10.118700 3.809771
-10.090962 7.835820 -0.223007
-11.637547 9.040024 3.948544
-5.996150 4.669554 -2.036388
-10.061289 7.838141 0.222623
-6.566461 5.117375 -1.921982
-10.125054 7.893498 0.672831
-8.006417 6.241807 -1.973347
-9.809913 7.650566 1.088401
-9.755973 7.611238 -1.959811
-9.758803 7.616186 1.519955
-9.755909 7.616667 -1.519711
-9.747315 7.612697 1.958873
-9.689942 7.567888 -1.075676
-9.757343 7.623270 2.406865
-9.687372 7.571325 -0.644360
-13.017039 10.177343 3.814720
-10.022596 7.838963 -0.222099
-11.538977 9.028214 3.925768
-5.970693 4.683304 -2.033283
-9.977232 7.828775 0.221366
-6.527099 5.123418 -1.915683
-10.100580 7.931260 0.673040
-7.978404 6.264867 -1.971820
-9.736143 7.647840 1.083171
-9.678091 7.604968 -1.949487
-9.693142 7.619535 1.513861
-9.698053 7.626135 -1.514836
-9.688079 7.621027 1.952302
-9.618053 7.565943 -1.070621
-9.684389 7.620861 2.395416
-9.624789 7.576681 -0.641953
-13.013586 10.248039 3.824168
-9.957472 7.844202 -0.221262
-11.522564 9.080395 3.930944
-5.954308 4.704117 -2.033283
-9.909055 7.831314 0.220459
-6.490829 5.131669 -1.910284
-10.085366 7.976381 0.673878
-7.956487 6.292679 -1.971820
-9.665639 7.647164 1.078291
-9.597269 7.595799 -1.938536
-9.612014 7.610197 1.505330
-9.640254 7.635289 -1.509961
-9.621161 7.622904 1.944168
-9.551223 7.570205 -1.066263
-9.619264 7.624134 2.385876
-9.546638 7.569281 -0.638499
-13.009800 10.318835 3.833616
-9.883035 7.841625 -0.220214
-11.530136 9.151790 3.944402
-5.930982 4.721096 -2.031212
-9.847237 7.838458 0.219691
-6.474401 5.155509 -1.910734
-10.076210 8.026468 0.675134
-7.934906 6.323020 -1.972202
-9.603270 7.655219 1.074456
-9.541568 7.608754 -1.932904
-9.540383 7.607809 1.498262
-9.598023 7.656517 -1.507524
-9.558981 7.628103 1.936972
-9.498270 7.582366 -1.063300
-9.539095 7.617686 2.372901
-9.475137 7.569319 -0.635568
-13.002338 10.390777 3.842614
-9.810301 7.839869 -0.219202
-11.526793 9.214899 3.954237
-5.926522 4.751438 -2.035353
-9.779443 7.843219 0.218818
-6.453943 5.177983 -1.910284
-10.116676 8.116586 0.679739
-7.899004 6.339622 -1.968767
-9.532989 7.653765 1.069575
-9.467205 7.603667 -1.923205
-9.481483 7.617860 1.493387
-9.508006 7.641899 -1.497774
-9.481487 7.620584 1.926647
-9.426716 7.579270 -1.058245
-9.491028 7.633710 2.367558
-9.415980 7.576052 -0.633370
-12.999385 10.462985 3.852512
-9.734581 7.835200 -0.218120
-11.529163 9.282945 3.966143
-5.899381 4.763600 -2.031730
-9.723819 7.851737 0.218155
-6.432188 5.195683 -1.908935
-10.134884 8.189511 0.682880
-7.876828 6.367155 -1.968767
-9.456638 7.646907 1.063997
-9.412754 7.611421 -1.917261
-9.414498 7.615553 1.486806
-9.439404 7.638422 -1.490950
-9.410302 7.617591 1.917574
-9.349102 7.570755 -1.052493
-9.432095 7.637961 2.359163
-9.356663 7.579577 -0.631067
-13.023666 10.553882 3.870058
-9.668337 7.837651 -0.217248
-11.532704 9.352334 3.978566
-5.873058 4.774607 -2.028106
-15.653790 12.730563 0.352190
-6.415525 5.219335 -1.909385
-10.140318 8.252573 0.685182
-7.841966 6.382087 -1.965333
-9.398781 7.651809 1.060337
-9.327924 7.596829 -1.905372
-9.347845 7.615767 1.480469
-9.391140 7.653768 -1.487537
-9.349971 7.622934 1.910691
-9.294829 7.580675 -1.049355
-9.359735 7.633612 2.347714
-9.293007 7.581890 -0.628555
-13.010900 10.618997 3.877256
-9.599098 7.837207 -0.216305
-11.534401 9.420641 3.990472
-5.861497 4.800997 -2.030177
-15.654119 12.821875 0.353202
-6.389729 5.235521 -1.907135
-10.142342 8.313241 0.687276
-7.832185 6.421990 -1.968767
-9.332160 7.654617 1.055979
-9.263368 7.600895 -1.897863
-9.269027 7.605539 1.472182
-9.333678 7.661313 -1.482663
-9.294300 7.631706 1.904746
-9.226742 7.578929 -1.044649
-9.289221 7.632966 2.337029
-9.211151 7.571513 -0.624891
-13.003502 10.692600 3.886704
-9.528436 7.835101 -0.215328
-11.523824 9.479258 3.998237
-5.840233 4.817739 -2.028624
-15.650206 12.914802 0.354179
-6.367491 5.256424 -1.906235
-10.127207 8.363074 0.688323
-7.790043 6.433037 -1.963806
-9.263910 7.652885 1.051273
-9.203279 7.605500 -1.890980
-9.213550 7.616694 1.467795
-9.241285 7.642338 -1.472426
-9.220603 7.627945 1.895360
-9.163596 7.583482 -1.040640
-9.209581 7.621539 2.323672
-9.152360 7.576871 -0.622693
-13.012626 10.776459 3.900651
-9.465775 7.841908 -0.214560
-11.529165 9.554711 4.012213
-5.821049 4.837879 -2.028106
-15.665008 13.019200 0.355540
-6.338615 5.269897 -1.903086
-10.127127 8.422642 0.690311
-7.758864 6.455270 -1.961898
-9.188328 7.647275 1.045869
-9.141943 7.611374 -1.884097
-9.151817 7.619596 1.462188
-9.159640 7.628816 -1.463651
-9.148394 7.622149 1.885974
-9.098807 7.583530 -1.036282
-9.158969 7.636382 2.317948
-9.093849 7.584782 -0.620600
-13.001472 10.847801 3.909199
-9.396888 7.840311 -0.213617
-11.529855 9.623369 4.024118
-5.799895 4.851184 -2.026036
-15.669291 13.110858 0.356622
-6.301679 5.274628 -1.897237
-10.126703 8.479258 0.692195
-7.732524 6.474572 -1.960372
-9.109270 7.630049 1.039594
-9.081648 7.609606 -1.876588
-9.082381 7.612922 1.455120
-9.116038 7.643843 -1.460726
-9.095825 7.629594 1.880342
-9.019987 7.565981 -1.030007
-9.089815 7.627259 2.306499
-9.025615 7.576074 -0.617564
-13.007623 10.922429 3.921347
-9.334088 7.840560 -0.212780
-11.518585 9.678950 4.031366
-5.777015 4.866423 -2.023965
-9.289649 7.828152 0.212047
-6.275779 5.290313 -1.894988
-10.112312 8.527431 0.693242
-7.703874 6.496462 -1.958845
-9.039941 7.625827 1.034713
-9.003701 7.597946 -1.865950
-9.023897 7.617689 1.450002
-9.034703 7.629508 -1.451952
-9.020847 7.620508 1.870331
-8.966124 7.574279 -1.026869
-9.018149 7.620927 2.295051
-8.956407 7.571430 -0.614634
-13.018520 11.009294 3.936194
-9.256283 7.830475 -0.211628
-11.526019 9.754042 4.045859
-5.757048 4.884058 -2.022930
-15.676482 13.304031 0.358891
-6.237960 5.295793 -1.889139
-9.968309 8.465711 0.685392
-7.676661 6.519500 -1.957700
-8.970752 7.621217 1.029832
-8.953039 7.608863 -1.860945
-8.953394 7.611852 1.442933
-8.947529 7.609556 -1.442202
-8.956576 7.619950 1.862509
-8.897140 7.569383 -1.021988
-8.955610 7.621822 2.285892
-8.894947 7.572866 -0.612226
-13.036387 11.102685 3.953290
-9.215194 7.851067 -0.211314
-11.534540 9.830556 4.060871
-5.745839 4.909143 -2.025000
-15.664908 13.388553 0.359694
-6.222400 5.320067 -1.890039
-9.859772 8.432950 0.679949
-7.662810 6.553913 -1.959990
-8.892620 7.608444 1.023906
-8.887406 7.606673 -1.852810
-8.889071 7.610783 1.436840
-8.878695 7.604589 -1.435377
-8.901423 7.626749 1.856565
-8.849482 7.582245 -1.019548
-8.905102 7.632592 2.279786
-8.833583 7.573971 -0.609819
-13.004950 11.154468 3.955539
-9.152827 7.853235 -0.210511
-11.525075 9.892149 4.069671
-5.722810 4.924130 -2.022930
-15.655970 13.475766 0.360567
-6.202315 5.340484 -1.889589
-9.813590 8.449962 0.678693
-7.627985 6.570371 -1.956937
-8.829782 7.608229 1.019722
-8.818906 7.601536 -1.844050
-8.826368 7.610653 1.430990
-8.816020 7.604417 -1.429528
-8.840183 7.625259 1.849056
-8.785251 7.580547 -1.015190
-8.826388 7.618731 2.266429
-8.770809 7.573432 -0.607306
-13.011650 11.239280 3.969486
-9.081335 7.844329 -0.209464
-11.540445 9.971995 4.086753
-5.693908 4.933954 -2.018789
-15.671649 13.579988 0.361963
-6.181625 5.358469 -1.888689
-10.096387 8.755021 0.700360
-7.596104 6.589241 -1.954647
-8.764047 7.605051 1.015190
-8.763810 7.604845 -1.837792
-8.774099 7.616458 1.426603
-8.775765 7.620595 -1.427090
-8.774740 7.622387 1.840921
-8.718130 7.575881 -1.010484
-8.787737 7.636369 2.262995
-8.712486 7.573650 -0.605004
-8.806884 7.658404 2.694464
-9.032777 7.857607 -0.208975
-11.530340 10.033777 4.095552
-5.674604 4.950270 -2.017753
-15.661813 13.667484 0.362836
-6.167287 5.383859 -1.890039
-10.130455 8.846699 0.704861
-7.575694 6.615683 -1.955029
-8.701267 7.601302 1.010832
-8.701512 7.604194 -1.830284
-8.713087 7.616988 1.420997
-8.704284 7.611976 -1.419778
-8.718344 7.626958 1.834664
-8.670465 7.585073 -1.007869
-8.716703 7.628212 2.251546
-8.658947 7.580333 -0.603120
-8.730252 7.645448 2.679167
-8.978216 7.865373 -0.208347
-11.524305 10.099426 4.105906
-5.667448 4.978973 -2.021377
-15.668083 13.769593 0.364092
-6.132358 5.391199 -1.885090
-10.128006 8.907070 0.706850
-7.543706 6.634309 -1.952739
-8.649250 7.609256 1.007869
-8.642291 7.605811 -1.823400
-8.650684 7.615876 1.415147
-8.647865 7.616074 -1.414903
-8.653130 7.623393 1.826529
-8.597592 7.574464 -1.002465
-8.647311 7.620947 2.240479
-8.594980 7.577493 -0.600503
-8.661126 7.638495 2.666120
-26.732162 23.584156 -0.622248
-11.539677 10.184334 4.124023
-5.641351 4.991046 -2.018271
-15.670839 13.869258 0.365279
-6.107666 5.407405 -1.883290
-9.881548 8.751683 0.691777
-7.521971 6.661903 -1.953121
-8.595793 7.615620 1.004731
-8.580212 7.604485 -1.815892
-8.583942 7.610470 1.408566
-8.594495 7.622505 -1.410516
-8.593960 7.624711 1.819646
-8.539802 7.576661 -0.998805
-8.591290 7.625021 2.232847
-8.535619 7.578276 -0.598200
-8.596527 7.635036 2.654422
-26.727407 23.746387 -0.624063
-11.540155 10.256639 4.136964
-5.618126 5.005566 -2.016201
-15.685029 13.979757 0.366745
-6.094569 5.433881 -1.885090
-9.600530 8.562782 0.674192
-7.484020 6.675052 -1.949305
-8.531992 7.612415 1.000374
-8.518243 7.602823 -1.808383
-8.527709 7.613945 1.403691
-8.532304 7.620721 -1.404666
-8.528992 7.620443 1.811511
-8.477645 7.574566 -0.994621
-8.538273 7.631415 2.225978
-8.470404 7.573411 -0.595479
-8.534964 7.633818 2.643625
-26.721848 23.908876 -0.625878
-10.349824 9.263565 3.721818
-5.589116 5.014826 -2.012059
-14.231309 12.773502 0.333795
-6.068315 5.448613 -1.882840
-9.540865 8.569548 0.672098
-7.463597 6.703758 -1.950068
-8.460905 7.602205 0.995144
-8.469615 7.612703 -1.803690
-8.471559 7.617120 1.398816
-8.446611 7.597359 -1.394917
-8.465628 7.617136 1.803690
-8.421530 7.577459 -0.991135
-8.480940 7.633589 2.217964
-8.411260 7.573533 -0.593176
-8.474960 7.633567 2.633277
-26.706572 24.063578 -0.627484
-10.315989 9.298343 3.721300
-5.578744 5.040781 -2.014647
-14.219265 12.852604 0.334563
-6.043478 5.464533 -1.881041
-9.547924 8.636293 0.674715
-7.434328 6.724502 -1.948542
-8.401814 7.602284 0.991309
-8.406378 7.609079 -1.795868
-8.414016 7.618665 1.393698
-8.384730 7.594814 -1.389067
-8.405320 7.616132 1.796494
-8.355166 7.570687 -0.986429
-8.409146 7.622274 2.206134
-8.356661 7.577358 -0.591187
-8.428056 7.644772 2.626978
-26.696449 24.223846 -0.629229
-10.284900 9.335595 3.721818
-5.559687 5.058922 -2.014130
-14.212768 12.937156 0.335470
-6.012839 5.475099 -1.877442
-9.531007 8.681678 0.675657
-7.407904 6.747769 -1.947778
-8.354609 7.612777 0.988869
-8.347649 7.609101 -1.788985
-8.341897 7.606527 1.386142
-8.349371 7.616008 -1.387604
-8.355337 7.624122 1.791488
-8.306612 7.579660 -0.983814
-8.347689 7.619817 2.196975
-8.303614 7.582238 -0.589303
-8.371104 7.646545 2.617531
-26.650112 24.351961 -0.630137
-10.260807 9.379257 3.724924
-5.533446 5.070469 -2.011024
-14.211745 13.027227 0.336517
-5.995127 5.497372 -1.877891
-9.455019 8.673038 0.672412
-7.387200 6.776240 -1.948542
-8.295690 7.612258 0.985034
-8.290477 7.610142 -1.782415
-8.290439 7.612772 1.381998
-8.302268 7.626306 -1.384192
-8.308308 7.634531 1.787108
-8.252228 7.582999 -0.980502
-8.292133 7.622335 2.189342
-8.238871 7.576027 -0.586581
-8.305635 7.640100 2.605383
-26.588490 24.466496 -0.630695
-10.250746 9.435951 3.733206
-5.511454 5.085823 -2.009471
-14.216142 13.122872 0.337704
-5.974469 5.516943 -1.877442
-9.383608 8.668044 0.669482
-7.341869 6.782002 -1.942817
-8.241264 7.615478 0.981722
-8.245005 7.621603 -1.778347
-8.228836 7.609320 1.376149
-8.240623 7.622888 -1.378342
-8.235213 7.620552 1.777096
-8.189151 7.577927 -0.976144
-8.245305 7.632562 2.184000
-8.177204 7.572173 -0.584069
-8.237458 7.630639 2.592336
-25.323647 23.466373 -0.602632
-10.247496 9.499257 3.744076
-5.485177 5.097141 -2.006365
-14.221513 13.220064 0.338926
-5.952320 5.535110 -1.876542
-9.329894 8.678980 0.667807
-7.316713 6.806251 -1.942436
-8.175250 7.607553 0.977016
-8.186541 7.620726 -1.771464
-8.181886 7.619059 1.372736
-8.187818 7.627252 -1.373955
-8.176769 7.619625 1.770213
-8.132038 7.577942 -0.972484
-8.184147 7.629169 2.174841
-8.125891 7.577514 -0.582290
-8.180847 7.631432 2.582888
-25.250353 23.562813 -0.602841
-10.242517 9.561336 3.754429
-5.456068 5.105696 -2.002224
-14.203012 13.295595 0.339589
-5.930118 5.553190 -1.875642
-9.274822 8.685299 0.665923
-7.292912 6.831748 -1.942436
-8.116659 7.606071 0.973181
-8.119536 7.611429 -1.762704
-8.124833 7.619055 1.367618
-8.069809 7.567456 -1.358356
-8.125524 7.622372 1.764581
-8.075027 7.577651 -0.968823
-8.131701 7.633504 2.167972
-8.071728 7.579856 -0.580301
-8.132767 7.637176 2.575690
-25.134182 23.610821 -0.601933
-10.248765 9.630968 3.768405
-5.429263 5.114488 -1.998601
-14.209786 13.390619 0.340811
-5.905998 5.567478 -1.873842
-9.225622 8.696828 0.664457
-7.268788 6.854548 -1.942054
-8.075450 7.617906 0.971264
-8.058334 7.604418 -1.754882
-8.061992 7.610527 1.361281
-8.024461 7.575098 -1.354944
-8.077222 7.627574 1.759575
-8.025232 7.581128 -0.965860
-8.059256 7.615928 2.155379
-8.014616 7.576396 -0.577998
-8.084737 7.642683 2.568491
-8.285693 7.838125 3.056135
-5.401059 5.121830 -1.994460
-14.220431 13.489964 0.342137
-5.881849 5.581667 -1.872043
-9.140166 8.676723 0.660480
-7.241746 6.874560 -1.940909
-8.018361 7.614460 0.967429
-8.002996 7.602529 -1.748312
-8.003613 7.605769 1.355675
-7.997969 7.603062 -1.354944
-8.016192 7.623053 1.752066
-7.965396 7.574748 -0.961676
-8.018309 7.627727 2.151181
-7.957618 7.572642 -0.575696
-8.011432 7.626517 2.553644
-25.378368 24.167480 -0.611707
-10.283685 9.796443 3.805675
-5.373367 5.131312 -1.990836
-14.213738 13.578202 0.343114
-5.860922 5.600817 -1.871593
-9.067955 8.668552 0.657444
-7.202094 6.884874 -1.936711
-7.962931 7.614864 0.963942
-7.942153 7.597644 -1.740803
-7.958371 7.615818 1.352506
-7.962775 7.622700 -1.353481
-7.949587 7.612731 1.743306
-7.907251 7.572189 -0.957842
-7.973204 7.638015 2.146220
-7.908063 7.578262 -0.574021
-7.955221 7.626114 2.544196
-25.273645 24.236544 -0.611218
-10.248032 9.830943 3.805158
-5.327573 5.123257 -1.980483
-14.225345 13.684571 0.344545
-5.837122 5.617188 -1.870243
-9.007424 8.671065 0.655246
-7.175189 6.907250 -1.935948
-7.894686 7.602533 0.958888
-7.884286 7.595171 -1.733920
-7.906006 7.618759 1.348119
-7.896103 7.611870 -1.346656
-7.900216 7.618495 1.738300
-7.854956 7.574849 -0.954704
-7.911168 7.631726 2.136679
-7.849946 7.575308 -0.571718
-7.904718 7.630829 2.536548
-24.541576 23.699526 -0.595511
-10.251167 9.902895 3.819134
-5.280513 5.113600 -1.969613
-14.219141 13.774494 0.345558
-5.818878 5.638885 -1.870693
-8.108072 7.860012 0.591815
-7.145395 6.926787 -1.934422
-7.843783 7.606464 0.955924
-7.823697 7.589636 -1.726411
-7.862270 7.629719 1.345194
-7.815360 7.586845 -1.337394
-7.848065 7.621254 1.732668
-7.799880 7.574462 -0.951218
-7.836602 7.612781 2.123704
-7.803402 7.583176 -0.570253
-7.859867 7.640718 2.530699
-24.498838 23.824083 -0.596488
-10.256697 9.977681 3.834146
-5.257099 5.126606 -1.967542
-14.211052 13.863143 0.346535
-5.786609 5.646912 -1.866644
-8.052003 7.860363 0.589722
-7.119768 6.950316 -1.934040
-7.801504 7.618486 0.954007
-7.764657 7.585152 -1.719215
-7.808615 7.630757 1.340563
-7.808702 7.633507 -1.340807
-7.801640 7.629270 1.728288
-7.746325 7.575177 -0.947906
-7.787527 7.618124 2.117598
-7.738342 7.572652 -0.567427
-7.799726 7.635391 2.519902
-24.284092 23.780731 -0.593277
-10.250785 10.041813 3.845016
-5.222631 5.128683 -1.961331
-14.219638 13.968714 0.347931
-5.762691 5.662981 -1.865294
-7.987484 7.852019 0.587000
-7.089863 6.969621 -1.932514
-7.747874 7.619129 0.950695
-7.714192 7.588658 -1.713896
-7.749387 7.625943 1.334957
-7.762205 7.641220 -1.337394
-7.745406 7.627348 1.721718
-7.690026 7.572812 -0.944245
-7.737110 7.621840 2.111111
-7.691943 7.579993 -0.565961
-7.739720 7.629735 2.509104
-24.172453 23.837271 -0.592579
-10.267929 10.129090 3.864686
-5.190962 5.133298 -1.956154
-14.219124 14.066086 0.349118
-5.745658 5.685803 -1.866194
-7.935898 7.855964 0.585221
-7.050146 6.979133 -1.928316
-7.690083 7.615286 0.946860
-7.670815 7.598857 -1.710142
-7.711442 7.641767 1.333007
-7.707288 7.640320 -1.332520
-7.685070 7.620955 1.714209
-7.638079 7.574357 -0.941108
-7.695128 7.633590 2.106913
-7.631414 7.573032 -0.563449
-7.690912 7.634739 2.501906
-23.972748 23.805962 -0.589717
-10.266774 10.198906 3.877627
-5.140158 5.118670 -1.943731
-14.220938 14.166438 0.350374
-5.723017 5.703072 -1.865294
-7.884381 7.859647 0.583441
-7.025741 7.003700 -1.928316
-7.618309 7.597064 0.941282
-7.606485 7.587918 -1.701694
-7.662236 7.646204 1.329107
-7.652472 7.639127 -1.327645
-7.636059 7.625400 1.709203
-7.594677 7.584076 -0.939016
-7.643432 7.635432 2.100044
-7.589392 7.584095 -0.562298
-7.639406 7.636740 2.493807
-23.810320 23.810316 -0.587762
-10.242038 10.245612 3.881768
-5.105889 5.120168 -1.937520
-14.222228 14.266973 0.351631
-5.700323 5.720253 -1.864394
-7.835752 7.865899 0.581871
-6.995706 7.022620 -1.926789
-7.573468 7.605255 0.939016
-7.539537 7.573825 -1.692621
-7.618697 7.656020 1.326182
-7.572560 7.612315 -1.318383
-7.584321 7.626796 1.703572
-7.540059 7.582286 -0.935530
-7.579361 7.624472 2.089740
-7.537531 7.585040 -0.560413
-7.587982 7.638474 2.485709
-10.247041 10.322432 3.897297
-5.077111 5.126977 -1.933378
-14.218765 14.363430 0.352783
-5.669355 5.729036 -1.860795
-7.778751 7.863382 0.579673
-6.971151 7.046996 -1.926789
-7.524459 7.608979 0.936227
-7.482500 7.569193 -1.685738
-7.562623 7.652916 1.321064
-7.534783 7.627401 -1.316433
-7.538219 7.633548 1.699191
-7.482746 7.577373 -0.931695
-7.514082 7.611762 2.079055
-7.477341 7.577185 -0.557901
-7.544850 7.648268 2.480310
-10.257059 10.404911 3.914897
-5.036157 5.121252 -1.924579
-14.216205 14.461462 0.353970
-5.641127 5.740450 -1.858096
-7.730235 7.866342 0.577998
-6.946510 7.071287 -1.926789
-7.479706 7.616718 0.933961
-7.425588 7.564253 -1.678855
-7.516400 7.659431 1.317651
-7.471970 7.616813 -1.310096
-7.499032 7.644401 1.696063
-7.435325 7.582108 -0.929080
-7.475099 7.625325 2.075620
-7.425682 7.577564 -0.556017
-7.490832 7.646716 2.471312
-10.252236 10.469234 3.926285
-5.004752 5.124979 -1.919402
-14.233833 14.575767 0.355610
-5.624781 5.761916 -1.858995
-7.685989 7.876125 0.576742
-6.905333 7.078627 -1.922210
-7.425251 7.614254 0.930475
-7.383914 7.571865 -1.675100
-7.471560 7.664414 1.314239
-7.460523 7.655766 -1.312533
-7.433705 7.630914 1.687302
-7.383794 7.582322 -0.925943
-7.434704 7.634601 2.071423
-7.378224 7.579247 -0.554343
-7.443688 7.649168 2.464114
-10.253340 10.543737 3.940779
-4.970243 5.123522 -1.912673
-14.228811 14.672733 0.356762
-5.599210 5.775918 -1.857196
-7.686248 7.931592 0.578836
-6.880455 7.100078 -1.921828
-7.369465 7.607350 0.926640
-7.329955 7.569211 -1.668843
-7.417146 7.661923 1.309364
-7.406144 7.653234 -1.307658
-7.379555 7.628418 1.681045
-7.330904 7.578126 -0.922456
-7.391632 7.643570 2.066843
-7.335063 7.587726 -0.553086
-7.396630 7.654084 2.457365
-10.251362 10.615597 3.954237
-4.934906 5.122752 -1.905944
-14.220504 14.766968 0.357844
-5.579013 5.795428 -1.857196
-8.611331 8.948491 0.650850
-6.851547 7.119806 -1.920684
-7.320763 7.610055 0.923851
-7.271996 7.562003 -1.661647
-7.369720 7.666300 1.305708
-7.310612 7.607471 -1.295471
-7.336460 7.637037 1.677290
-7.272660 7.570622 -0.918447
-7.329550 7.632509 2.056921
-7.286403 7.590229 -0.551412
-7.330738 7.639081 2.444318
-10.261045 10.700116 3.972355
-4.907645 5.130175 -1.902320
-14.226916 14.877216 0.359310
-5.545284 5.800778 -1.852697
-8.549684 8.946729 0.648547
-6.823938 7.140841 -1.919920
-7.279015 7.619716 0.921933
-7.225092 7.565913 -1.656954
-7.315500 7.663262 1.300833
-7.294976 7.644433 -1.297421
-7.281124 7.632585 1.670720
-7.235187 7.584430 -0.917053
-7.268990 7.622528 2.047381
-7.221277 7.575140 -0.548481
-7.279828 7.639230 2.436220
-10.258270 10.772242 3.985813
-4.876401 5.133270 -1.897144
-14.228600 14.983339 0.360671
-5.519636 5.814447 -1.850897
-8.493653 8.950443 0.646663
-6.797618 7.163195 -1.919539
-7.229062 7.620505 0.918970
-7.168736 7.559551 -1.650071
-7.262757 7.661379 1.296202
-7.251862 7.652560 -1.294496
-7.223193 7.624969 1.663524
-7.184006 7.583602 -0.913915
-7.213989 7.617919 2.039367
-7.178313 7.582895 -0.547225
-7.224989 7.634871 2.426772
-9.744591 10.301012 -0.247510
-10.256444 10.845882 3.999790
-4.846522 5.137613 -1.892485
-14.229721 15.089652 0.362033
-5.500641 5.835098 -1.851347
-8.456879 8.974222 0.646244
-6.768534 7.182594 -1.918394
-7.173730 7.615237 0.915310
-7.126051 7.567273 -1.646316
-7.216921 7.666449 1.292790
-7.200619 7.651803 -1.290109
-7.166753 7.618483 1.656641
-7.135646 7.585415 -0.911126
-7.179285 7.634473 2.037077
-7.132650 7.587532 -0.545759
-7.175608 7.635903 2.419124
-10.278034 10.944988 4.023083
-4.799504 5.123481 -1.881097
-14.231635 15.197615 0.363429
-5.477575 5.851418 -1.850447
-10.161370 10.858673 0.779387
-6.734032 7.196140 -1.915722
-7.121243 7.612586 0.911998
-7.080704 7.571903 -1.641936
-7.157582 7.656789 1.286940
-7.157599 7.659490 -1.287184
-7.117193 7.618915 1.651322
-7.075123 7.573879 -0.906768
-7.125794 7.630787 2.029445
-7.087039 7.591945 -0.544294
-7.126308 7.636683 2.411475
-10.247668 10.989279 4.026189
-4.765801 5.123230 -1.874885
-14.223433 15.295530 0.364581
-5.457118 5.870502 -1.850447
-10.149237 10.921876 0.781376
-6.710208 7.221042 -1.916104
-7.068861 7.609665 0.908686
-7.024660 7.564725 -1.635053
-7.115955 7.665723 1.284259
-7.145672 7.700434 -1.289865
-7.071749 7.623435 1.646942
-7.031028 7.579538 -0.904502
-7.067076 7.621065 2.020286
-7.038770 7.593202 -0.542619
-7.075767 7.635782 2.403377
-7.089243 7.655686 2.795763
-4.740024 5.131320 -1.871779
-14.231007 15.411194 0.366152
-5.423375 5.875196 -1.845948
-10.146266 10.995400 0.784097
-6.672978 7.231435 -1.912669
-7.027397 7.618182 0.906768
-6.976785 7.565965 -1.630047
-7.059553 7.658407 1.278897
-7.067633 7.669855 -1.280603
-7.030372 7.632092 1.643501
-6.988329 7.586450 -0.902411
-7.019150 7.622582 2.014180
-6.982465 7.585395 -0.540316
-7.029276 7.638924 2.396628
-7.032403 7.647678 2.783858
-4.714247 5.139293 -1.868674
-14.224425 15.512360 0.367373
-5.397565 5.888345 -1.844149
-10.146954 11.073454 0.787133
-6.650347 7.257579 -1.913433
-6.977883 7.617690 0.903805
-6.927654 7.565506 -1.624729
-7.011333 7.659573 1.274997
-6.999275 7.649080 -1.273047
-6.975690 7.625977 1.636930
-6.934910 7.581396 -0.898924
-6.971303 7.623854 2.008074
-6.934384 7.586136 -0.538642
-6.977591 7.636083 2.388080
-6.990033 7.655060 2.777646
-4.684571 5.142864 -1.864015
-14.237508 15.635846 0.369118
-5.374355 5.904268 -1.843249
-10.148562 11.153123 0.790273
-6.613081 7.267680 -1.909998
-6.935162 7.624315 0.901713
-6.881269 7.567719 -1.620036
-6.964523 7.661966 1.271341
-6.952507 7.651428 -1.269391
-6.923792 7.622499 1.630986
-6.895008 7.590810 -0.897181
-6.927492 7.629247 2.003113
-6.891752 7.592549 -0.537386
-6.936491 7.644517 2.383132
-6.936018 7.649360 2.766776
-4.653631 5.144858 -1.858838
-14.232467 15.740326 0.370410
-5.356326 5.925883 -1.844149
-10.152416 11.235902 0.793622
-6.583723 7.286350 -1.908853
-6.879126 7.615947 0.897878
-6.841572 7.577032 -1.616907
-6.924435 7.671494 1.268904
-6.872563 7.616698 -1.259642
-6.869358 7.615818 1.624416
-6.836441 7.579324 -0.892998
-6.886357 7.637344 1.998915
-6.845149 7.594306 -0.535816
-6.884978 7.641176 2.374583
-6.883420 7.644813 2.756423
-4.617572 5.140949 -1.851591
-14.225529 15.843482 0.371666
-5.329100 5.937294 -1.841899
-10.143815 11.305462 0.796030
-6.550384 7.300518 -1.906564
-6.828551 7.613218 0.894741
-6.791344 7.574394 -1.611275
-6.875092 7.670487 1.264760
-6.922765 7.726392 -1.273779
-6.819009 7.613264 1.618784
-6.837858 7.634308 -0.896658
-6.825608 7.623305 1.988993
-6.798617 7.595830 -0.534245
-6.838772 7.643379 2.367835
-6.837379 7.647192 2.748658
-4.586740 5.142619 -1.846415
-7.005222 7.856966 0.183739
-5.299267 5.945675 -1.838750
-10.154778 11.397468 0.800007
-6.518330 7.316010 -1.904655
-6.779408 7.611715 0.891778
-6.738594 7.568546 -1.605018
-6.817919 7.660336 1.259154
-6.844291 7.692670 -1.264273
-6.781891 7.625210 1.616281
-6.744964 7.583692 -0.887943
-6.775473 7.620676 1.982124
-6.742872 7.586674 -0.531943
-6.783577 7.635152 2.357937
-6.791404 7.649342 2.740894
-4.559794 5.148476 -1.842792
-6.951243 7.851425 0.183041
-5.275898 5.961218 -1.837850
-10.149337 11.471741 0.802729
-6.490149 7.335780 -1.903892
-6.732999 7.612946 0.889163
-6.693815 7.571302 -1.600638
-6.770104 7.660289 1.255254
-6.750368 7.640642 -1.251842
-6.738234 7.629590 1.612214
-6.697348 7.583296 -0.885154
-6.730639 7.623676 1.976781
-6.699169 7.590696 -0.530582
-6.737544 7.636867 2.351188
-6.744221 7.649816 2.732612
-4.525210 5.145502 -1.836062
-6.913231 7.863626 0.182762
-5.252482 5.976672 -1.836950
-6.913984 7.867255 0.548900
-6.443771 7.334789 -1.897786
-6.695867 7.624425 0.887768
-6.651705 7.576811 -1.596883
-6.727612 7.665969 1.252329
-6.718420 7.658190 -1.250867
-6.679025 7.613284 1.604079
-6.655071 7.588655 -0.883062
-6.685870 7.626455 1.971439
-6.658152 7.597512 -0.529431
-6.691583 7.638351 2.344440
-6.874459 7.847103 -0.182098
-6.699725 7.650339 2.724847
-4.484349 5.135074 -1.826745
-6.866071 7.862410 0.182203
-5.227509 5.988183 -1.835151
-10.144559 11.624826 0.808591
-6.409095 7.346881 -1.895115
-6.643021 7.617720 0.884282
-6.600578 7.569049 -1.590626
-6.682587 7.665792 1.248673
-6.640820 7.620563 -1.241117
-6.638134 7.620169 1.600638
-6.604989 7.584794 -0.879924
-6.641201 7.626377 1.965714
-6.614561 7.598459 -0.527965
-6.649586 7.641389 2.338591
-6.643825 7.640149 2.712941
-4.455902 5.136783 -1.822086
-6.818933 7.863667 0.181680
-5.201468 6.000504 -1.833351
-10.160898 11.721790 0.812987
-6.376982 7.359192 -1.892825
-6.611200 7.632177 0.883411
-6.550842 7.565165 -1.584994
-6.641497 7.672562 1.245992
-6.618076 7.648202 -1.241849
-6.593441 7.619732 1.595945
-6.556338 7.579531 -0.876787
-6.588858 7.619810 1.958082
-6.574936 7.606392 -0.526918
-6.601211 7.639488 2.330943
-6.603298 7.644595 2.706730
-4.425337 5.137669 -1.816910
-6.769327 7.858963 0.181051
-5.166283 6.000000 -1.827952
-10.157705 11.801085 0.816022
-6.343572 7.372478 -1.890536
-6.572825 7.641613 0.881842
-6.510261 7.568875 -1.581240
-6.588838 7.662935 1.240874
-6.597853 7.676128 -1.242824
-6.547493 7.620228 1.591252
-6.509072 7.578187 -0.873998
-6.553320 7.629704 1.955029
-6.521051 7.594817 -0.524616
-6.552997 7.634717 2.322845
-6.562738 7.651469 2.701036
-4.398587 5.142807 -1.813286
-6.720984 7.860926 0.180528
-5.146791 6.021856 -1.828852
-10.153307 11.883788 0.819162
-6.311424 7.387113 -1.888628
-6.526700 7.641787 0.879227
-6.464520 7.571652 -1.576860
-6.540091 7.662873 1.236974
-6.538750 7.664017 -1.236974
-6.499011 7.620124 1.586246
-6.474823 7.591765 -0.872952
-6.502386 7.626778 1.948160
-6.476328 7.598907 -0.523255
-6.506015 7.636432 2.316096
-6.518368 7.656351 2.694306
-4.383108 5.161076 -1.814322
-6.675386 7.862995 0.180039
-5.124476 6.038301 -1.828402
-8.778341 10.347403 0.711141
-6.275437 7.397123 -1.885575
-6.502564 7.667560 0.879576
-6.417610 7.570064 -1.571854
-6.497900 7.667484 1.234049
-6.463199 7.629237 -1.227712
-6.454497 7.621661 1.581866
-6.436693 7.600637 -0.871383
-6.473185 7.646434 1.947397
-6.429121 7.597072 -0.521580
-6.456662 7.632317 2.307998
-6.471650 7.655451 2.686024
-4.341405 5.148283 -1.804486
-6.629855 7.864841 0.179550
-5.109647 6.063601 -1.830652
-8.757612 10.396311 0.712397
-6.245785 7.414478 -1.884430
-6.478328 7.693259 0.879924
-6.378428 7.577307 -1.568725
-6.458316 7.674929 1.231612
-6.405862 7.615291 -1.221862
-6.410053 7.622981 1.577485
-6.387040 7.595613 -0.868246
-6.413612 7.629908 1.937475
-6.385862 7.599589 -0.520219
-6.416192 7.638397 2.303049
-6.413838 7.641001 2.673083
-4.312244 5.150077 -1.799828
-6.584391 7.866470 0.179062
-5.080945 6.072435 -1.827952
-8.734080 10.442141 0.713444
-6.216085 7.431718 -1.883285
-6.450154 7.714299 0.879750
-6.322799 7.564666 -1.561529
-6.411119 7.673054 1.227712
-6.381784 7.640655 -1.222350
-6.363149 7.621047 1.572479
-6.340057 7.593390 -0.865457
-6.359261 7.619092 1.929079
-6.349058 7.609567 -0.519382
-6.368272 7.635304 2.295401
-6.366099 7.638117 2.664284
-4.289302 5.159155 -1.797757
-6.536443 7.864799 0.178503
-5.049757 6.078141 -1.824353
-8.717996 10.497145 0.715119
-6.186343 7.448839 -1.882140
-6.441006 7.758227 0.882190
-6.283742 7.571489 -1.558400
-6.357681 7.663302 1.222593
-6.367748 7.678163 -1.224787
-6.321382 7.624962 1.568725
-6.295712 7.594000 -0.863016
-6.320101 7.626125 1.925263
-6.298248 7.602458 -0.517393
-6.329153 7.642477 2.290901
-6.329542 7.648387 2.660142
-4.255280 5.154727 -1.791028
-6.489856 7.864434 0.177980
-5.023547 6.089720 -1.822553
-8.705446 10.556788 0.717107
-6.157808 7.467358 -1.881377
-6.420220 7.788352 0.883062
-6.243454 7.576610 -1.554959
-6.310699 7.660931 1.218693
-6.349738 7.711072 -1.226493
-6.283425 7.633256 1.565909
-6.247637 7.589780 -0.860053
-6.279722 7.631464 1.921065
-6.261520 7.612059 -0.516556
-6.282632 7.640442 2.283703
-9.212449 11.207441 -0.253234
-6.289317 7.654016 2.654448
-4.228687 5.159092 -1.787404
-6.452227 7.874663 0.177700
-4.998557 6.102694 -1.821204
-8.703969 10.630383 0.720038
-6.122997 7.478175 -1.878706
-6.400568 7.819963 0.884108
-6.201959 7.580010 -1.551204
-6.265065 7.659865 1.215037
-6.238598 7.630223 -1.210163
-6.230491 7.623023 1.559339
-6.203455 7.589944 -0.857612
-6.230683 7.625973 1.914196
-6.214697 7.609118 -0.514881
-6.233741 7.635152 2.275605
-6.241801 7.650474 2.645648
-4.203335 5.164833 -1.784299
-6.410820 7.880074 0.177316
-4.978454 6.121616 -1.821654
-8.699562 10.700996 0.722760
-6.095615 7.497981 -1.878324
-6.373233 7.842257 0.884108
-6.160516 7.583212 -1.547450
-6.215761 7.653952 1.210650
-6.255717 7.705894 -1.218693
-6.183927 7.620184 1.554333
-6.161857 7.592989 -0.855521
-6.195366 7.637005 1.911525
-6.175521 7.615251 -0.513834
-6.184960 7.629620 2.267507
-6.193168 7.645197 2.636331
-4.173140 5.164447 -1.779122
-12.939948 16.019484 0.359450
-4.957054 6.138958 -1.821654
-8.706692 10.782618 0.726318
-6.063241 7.511573 -1.876416
-6.355828 7.876863 0.885502
-6.114163 7.580071 -1.542444
-6.164088 7.644695 1.205775
-6.208847 7.702956 -1.214794
-6.146228 7.625268 1.551204
-6.112815 7.586524 -0.852383
-6.135421 7.617301 1.901221
-6.131363 7.614984 -0.512369
-6.148517 7.639017 2.263907
-19.716522 24.496124 -0.548878
-6.150828 7.644620 2.629084
-4.163550 5.189529 -1.782746
-12.940567 16.129372 0.360951
-4.926917 6.143200 -1.818055
-8.707732 10.861250 0.729563
-6.029618 7.523499 -1.874126
-6.332032 7.903664 0.886025
-6.065528 7.571013 -1.536500
-6.108923 7.627906 1.199926
-6.144811 7.675462 -1.207238
-6.102292 7.625086 1.546824
-6.072602 7.590703 -0.850466
-6.111351 7.639140 1.901603
-6.079883 7.602516 -0.510171
-6.113414 7.647189 2.260308
-19.583448 24.505442 -0.547552
-6.109638 7.647930 2.622872
-4.140297 5.195755 -1.780157
-12.953955 16.262037 0.362905
-4.898158 6.151215 -1.815355
-8.700860 10.930647 0.732180
-6.000967 7.538847 -1.872981
-6.314470 7.935533 0.887245
-6.020616 7.568952 -1.531806
-6.062490 7.624325 1.196026
-6.093275 7.665787 -1.202363
-6.059664 7.626234 1.542757
-6.031200 7.593132 -0.848374
-6.056565 7.625066 1.892825
-6.037160 7.603361 -0.508810
-6.063666 7.639479 2.251760
-19.445591 24.507854 -0.546086
-6.066096 7.648022 2.615625
-4.120029 5.209378 -1.779640
-12.947972 16.371460 0.364336
-4.881492 6.174389 -1.817155
-8.697330 11.004826 0.735111
-5.964773 7.550008 -1.870310
-6.295222 7.971131 0.888640
-5.978147 7.572361 -1.528052
-6.021080 7.626743 1.193101
-6.049260 7.665195 -1.198951
-6.012208 7.620973 1.537438
-5.984921 7.589107 -0.845585
-6.031006 7.650299 1.893589
-5.996892 7.609749 -0.507764
-6.009097 7.627973 2.241862
-19.295582 24.493896 -0.544271
-6.025018 7.650938 2.609414
-4.095852 5.216132 -1.777052
-12.950847 16.499033 0.366117
-4.851612 6.183039 -1.814455
-8.700785 11.088539 0.738670
-5.925056 7.553790 -1.866112
-6.259981 7.983651 0.887594
-5.944368 7.583853 -1.526175
-5.974719 7.625323 1.189445
-5.989302 7.646682 -1.192613
-5.970951 7.623253 1.533684
-5.938737 7.584852 -0.842796
-5.976436 7.635744 1.884811
-5.957983 7.614906 -0.506717
-5.982431 7.648904 2.241862
-19.168072 24.507551 -0.543084
-5.970908 7.636917 2.597508
-4.075246 5.227350 -1.776016
-12.942787 16.601814 0.367443
-4.832278 6.200633 -1.814905
-8.706211 11.175568 0.742438
-5.897448 7.572876 -1.865731
-6.233301 8.007026 0.887768
-5.897342 7.575468 -1.520543
-5.928677 7.618461 1.185301
-5.939536 7.635163 -1.187739
-5.932180 7.628455 1.530555
-5.906114 7.597671 -0.841924
-5.931805 7.630720 1.878706
-5.917994 7.615696 -0.505461
-5.931931 7.636381 2.232414
-19.030903 24.507973 -0.541618
-5.931186 7.640926 2.591814
-4.057888 5.240836 -1.776016
-12.942286 16.721212 0.369083
-4.799873 6.203589 -1.810856
-8.703802 11.253286 0.745578
-5.865094 7.583075 -1.863441
-6.210372 8.032379 0.888291
-5.853953 7.574124 -1.516163
-5.885054 7.617119 1.181889
-5.945607 7.698270 -1.194320
-5.883783 7.620971 1.524923
-5.856533 7.585675 -0.838438
-5.890736 7.632730 1.874126
-5.866971 7.604681 -0.503367
-5.887384 7.633894 2.225666
-18.903719 24.520412 -0.540431
-5.897400 7.652404 2.588708
-4.041924 5.258031 -1.777052
-12.943541 16.843987 0.370794
-4.774626 6.215672 -1.809506
-8.704612 11.335874 0.749032
-5.829024 7.591043 -1.860388
-7.401525 9.642368 1.063474
-5.820261 7.585111 -1.514286
-5.841516 7.615562 1.178477
-5.894542 7.687469 -1.189445
-5.849937 7.632055 1.523046
-5.822748 7.596583 -0.837392
-5.855700 7.642336 1.871455
-5.828248 7.609258 -0.502321
-5.847672 7.637379 2.220717
-18.754816 24.503672 -0.538616
-5.858915 7.657598 2.583532
-4.022375 5.270572 -1.776534
-12.953803 16.979685 0.372783
-4.751717 6.230752 -1.809057
-8.706161 11.420192 0.752591
-5.777497 7.578555 -1.852374
-7.405261 9.717270 1.068878
-5.778185 7.584955 -1.510219
-5.808886 7.628009 1.177258
-5.827991 7.655877 -1.181401
-5.802923 7.625707 1.517727
-5.785334 7.602593 -0.835824
-5.800463 7.625227 1.862296
-5.788351 7.612070 -0.501169
-5.806824 7.639129 2.215318
-18.615940 24.498930 -0.537080
-5.822799 7.665698 2.579391
-3.996952 5.275342 -1.773428
-12.956024 17.106098 0.374564
-4.724059 6.239532 -1.806807
-8.707222 11.504662 0.756150
-5.733234 7.575196 -1.846650
-7.407356 9.790729 1.074107
-5.737376 7.586171 -1.506464
-5.766659 7.627655 1.174089
-5.796446 7.669838 -1.180427
-5.759601 7.623849 1.513347
-5.738346 7.595715 -0.832860
-5.769076 7.639164 1.860770
-5.746102 7.611505 -0.499808
-5.763690 7.637573 2.209019
-18.494173 24.515875 -0.536033
-5.779723 7.664381 2.572144
-3.975030 5.284629 -1.771875
-12.955126 17.229534 0.376274
-4.703422 6.257540 -1.807257
-8.710198 11.592471 0.759918
-5.699678 7.585747 -1.844360
-7.400658 9.853164 1.078117
-5.683583 7.569818 -1.499268
-5.729271 7.633451 1.171896
-5.700542 7.597927 -1.166290
-5.716361 7.621782 1.508967
-5.697453 7.596571 -0.830769
-5.716463 7.624698 1.852374
-5.712313 7.621925 -0.499180
-5.727649 7.645168 2.205420
-18.358133 24.513062 -0.534567
-5.736727 7.662858 2.564897
-3.956558 5.298474 -1.771875
-12.948727 17.346766 0.377845
-4.672228 6.261424 -1.803658
-8.713867 11.682038 0.763791
-5.666124 7.596153 -1.842070
-7.399564 9.923662 1.082997
-5.650040 7.580110 -1.497391
-5.675313 7.616790 1.166290
-5.704814 7.659173 -1.172627
-5.681462 7.630600 1.506777
-5.654241 7.594041 -0.828328
-5.673405 7.622556 1.847031
-5.664211 7.612977 -0.497296
-5.688132 7.647915 2.200471
-18.239052 24.532057 -0.533590
-5.692656 7.659579 2.557132
-3.933438 5.306044 -1.769805
-12.951200 17.477007 0.379695
-4.642222 6.266735 -1.800508
-8.699186 11.747693 0.766094
-5.631396 7.604839 -1.839399
-7.399257 9.995869 1.088052
-5.607098 7.577554 -1.493011
-5.636887 7.620594 1.163852
-5.691028 7.696596 -1.175308
-5.637180 7.626556 1.502084
-5.615858 7.597708 -0.826585
-5.632764 7.623364 1.842452
-5.623365 7.613423 -0.496040
-5.644041 7.644208 2.193723
-18.134314 24.569828 -0.533031
-5.646384 7.652978 2.548332
-3.910311 5.313519 -1.767734
-12.956479 17.612312 0.381649
-4.627244 6.292322 -1.803208
-8.699528 11.834314 0.769757
-5.587372 7.600725 -1.833675
-7.400896 10.071406 1.093456
-5.572425 7.585938 -1.490821
-5.596150 7.621025 1.160927
-5.657077 7.706816 -1.173846
-5.587150 7.614336 1.495826
-5.572798 7.594778 -0.824145
-5.601472 7.636649 1.840925
-5.584941 7.616900 -0.494994
-5.596584 7.635572 2.185624
-18.102798 24.707182 -0.534637
-5.605939 7.653937 2.542121
-3.884903 5.317776 -1.764628
-12.952704 17.736563 0.383360
-4.598358 6.298992 -1.800508
-8.702906 11.925913 0.773735
-5.546921 7.601150 -1.829095
-7.404441 10.150299 1.099208
-5.535437 7.590976 -1.488005
-5.554315 7.619658 1.157759
-5.623128 7.716888 -1.172383
-5.550071 7.619421 1.493011
-5.528660 7.590026 -0.821530
-5.569005 7.648219 1.839017
-5.544218 7.616970 -0.493737
-5.557286 7.637726 2.180676
-19.086828 26.241844 -0.566400
-5.558740 7.645333 2.532803
-3.857245 5.318793 -1.760487
-12.943525 17.854528 0.384930
-4.578631 6.318160 -1.801408
-8.709261 12.022538 0.778026
-5.504227 7.598209 -1.823753
-7.393502 10.209973 1.102869
-5.486899 7.579849 -1.482060
-5.519535 7.627744 1.156053
-5.534492 7.651225 -1.159465
-5.510710 7.621139 1.489569
-5.491626 7.594747 -0.819961
-5.519270 7.635791 1.831385
-5.509405 7.624946 -0.493005
-5.519183 7.641280 2.176177
-19.037245 26.366684 -0.567657
-5.519581 7.647460 2.527109
-3.838654 5.332226 -1.760487
-12.951207 17.996984 0.387025
-4.549719 6.324613 -1.798709
-8.710387 12.112861 0.781899
-5.467357 7.603030 -1.820318
-6.054182 8.422182 0.907466
-5.446573 7.579707 -1.478306
-5.472032 7.617942 1.151665
-5.482280 7.635021 -1.154103
-5.476008 7.629097 1.487379
-5.456947 7.602541 -0.818741
-5.470838 7.624702 1.824134
-5.457148 7.608425 -0.490702
-5.481119 7.644662 2.171677
-18.977713 26.478477 -0.568634
-5.478228 7.646265 2.520380
-3.823388 5.350307 -1.762040
-12.951078 18.129948 0.388909
-4.525348 6.337285 -1.797809
-8.719112 12.214717 0.786505
-5.429379 7.606088 -1.816502
-6.032849 8.454616 0.908686
-5.410903 7.585809 -1.475803
-5.433884 7.620832 1.149228
-5.453293 7.650877 -1.153615
-5.439026 7.633687 1.484563
-5.418814 7.605319 -0.816998
-5.438496 7.635755 1.822226
-5.421291 7.614410 -0.489865
-5.432930 7.633584 2.163129
-5.442632 7.650034 -0.163878
-5.447023 7.659045 2.518309
-3.802452 5.360470 -1.761005
-12.964050 18.282707 0.391213
-4.500947 6.349863 -1.796909
-5.588971 7.884830 0.506507
-5.385768 7.600966 -1.810778
-5.999843 8.470746 0.908163
-5.371836 7.586915 -1.472361
-5.388898 7.613831 1.145328
-5.402660 7.633274 -1.148253
-5.401134 7.633942 1.481122
-5.379579 7.606292 -0.815080
-5.393674 7.629045 1.816120
-5.383150 7.616979 -0.488818
-5.404213 7.646784 2.161780
-5.378000 7.612512 -0.162691
-5.407109 7.656550 2.511580
-3.777981 5.363573 -1.757899
-12.958617 18.404079 0.392889
-4.476501 6.359971 -1.795559
-5.549000 7.883720 0.505251
-5.351497 7.605937 -1.807724
-5.953382 8.464520 0.905374
-5.334151 7.586911 -1.468920
-5.354490 7.618664 1.143378
-5.336227 7.592679 -1.139478
-5.365570 7.637263 1.478306
-5.329136 7.588219 -0.811246
-5.364962 7.642066 1.814975
-5.346390 7.618439 -0.487771
-5.359797 7.637544 2.154131
-5.341244 7.613933 -0.162342
-5.365054 7.650712 2.503816
-3.756851 5.371324 -1.756346
-12.959386 18.535450 0.394773
-4.456503 6.376377 -1.796009
-5.504287 7.878484 0.503681
-5.318372 7.612378 -1.805053
-5.917292 8.472783 0.904154
-5.285215 7.570545 -1.462350
-5.320106 7.623357 1.141428
-5.350577 7.669872 -1.148253
-5.334357 7.649466 1.477054
-5.295778 7.596970 -0.810200
-5.320503 7.632438 1.808488
-5.305109 7.613186 -0.486306
-5.329762 7.651411 2.152782
-5.302063 7.614480 -0.161958
-5.320654 7.644024 2.495533
-3.739343 5.388231 -1.757381
-12.963016 18.679144 0.396868
-4.423110 6.375884 -1.791510
-5.471063 7.889442 0.503158
-5.279253 7.615684 -1.801237
-5.880526 8.486224 0.903282
-5.250684 7.580121 -1.460472
-5.279900 7.622298 1.138503
-5.332813 7.701557 -1.150203
-5.298630 7.655045 1.474551
-5.257892 7.599023 -0.808457
-5.283556 7.638972 1.805435
-5.256726 7.603007 -0.484422
-5.285063 7.646846 2.146033
-5.270904 7.626360 -0.161819
-5.285152 7.649837 2.491392
-3.719417 5.399659 -1.756864
-12.961372 18.823706 0.398927
-4.394187 6.384025 -1.789261
-5.427638 7.885458 0.501693
-5.241506 7.617893 -1.797421
-5.844091 8.496851 0.902236
-5.214122 7.583754 -1.457657
-5.245180 7.631785 1.137041
-5.277569 7.681785 -1.144353
-5.260688 7.657213 1.471423
-5.220057 7.600905 -0.806714
-5.246860 7.642799 1.802000
-5.215460 7.599903 -0.483061
-5.232985 7.628286 2.135685
-5.232942 7.628222 -0.161470
-5.246401 7.650712 2.485698
-3.703815 5.417394 -1.758417
-12.966599 18.965628 0.401021
-4.376290 6.403390 -1.790610
-5.385431 7.882919 0.500332
-5.204920 7.621551 -1.793986
-5.878428 8.610992 0.912172
-5.182260 7.591214 -1.455779
-5.204179 7.626179 1.133629
-5.273323 7.730400 -1.148984
-5.221688 7.657576 1.467981
-5.183392 7.604265 -0.805145
-5.209325 7.642312 1.797803
-5.190231 7.617156 -0.483061
-5.198882 7.632714 2.132086
-5.190523 7.623302 -0.160981
-5.209882 7.654605 2.481040
-3.673893 5.412066 -1.752723
-12.966569 19.108398 0.403081
-4.345161 6.405725 -1.787011
-5.345550 7.883486 0.499180
-5.164190 7.616021 -1.788644
-5.896793 8.699705 0.919493
-5.147976 7.597809 -1.453589
-5.168619 7.631152 1.131679
-5.224050 7.715884 -1.144109
-5.186069 7.662668 1.465478
-5.138046 7.591711 -0.802007
-5.172714 7.645816 1.794368
-5.150182 7.615374 -0.481805
-5.164569 7.639514 2.128937
-5.147085 7.616523 -0.160457
-5.167989 7.650334 2.473793
-3.651742 5.420050 -1.751170
-12.964575 19.249748 0.405105
-4.323862 6.422471 -1.787461
-5.307964 7.887184 0.498238
-5.124422 7.614455 -1.784064
-5.835248 8.673951 0.914612
-5.100477 7.584589 -1.447645
-5.126447 7.626081 1.128266
-5.201511 7.740664 -1.145085
-5.148274 7.664328 1.462350
-5.109292 7.606294 -0.801659
-5.130672 7.641005 1.789025
-5.109099 7.611746 -0.480444
-5.123754 7.636459 2.123088
-5.107102 7.614513 -0.160039
-5.124042 7.642653 2.465510
-3.636023 5.437581 -1.752723
-12.975092 19.411255 0.407549
-4.294922 6.427802 -1.784762
-5.272637 7.894037 0.497506
-5.093450 7.625764 -1.782538
-5.752939 8.616386 0.906420
-5.060813 7.582629 -1.443890
-5.085475 7.622462 1.125098
-5.143621 7.712530 -1.138260
-5.113817 7.670748 1.460160
-5.071436 7.610046 -0.800090
-5.072398 7.611490 1.777958
-5.062565 7.599616 -0.478560
-5.091663 7.646189 2.120839
-5.069412 7.615647 -0.159690
-5.091980 7.652452 2.462922
-3.619274 5.455700 -1.754276
-11.543134 17.400137 0.364476
-4.270303 6.439507 -1.783862
-5.228495 7.887425 0.495936
-5.053536 7.626381 -1.778340
-5.704813 8.612499 0.903805
-5.018808 7.579717 -1.439823
-5.050067 7.626927 1.123148
-5.093657 7.695677 -1.133141
-5.085922 7.686904 1.459847
-5.033848 7.611086 -0.798347
-5.036886 7.618568 1.775287
-5.022565 7.599790 -0.477409
-5.048568 7.642035 2.114540
-5.025160 7.606601 -0.159131
-5.051399 7.649222 2.456193
-3.597020 5.463460 -1.752723
-11.527646 17.515829 0.366012
-4.248816 6.458371 -1.784762
-5.185565 7.882267 0.494470
-5.010705 7.619369 -1.772616
-5.664867 8.617375 0.902236
-4.983643 7.583982 -1.437320
-5.010093 7.627133 1.120467
-5.044717 7.682766 -1.128510
-5.036291 7.669934 1.453276
-5.000689 7.618618 -0.797301
-5.003801 7.626253 1.772997
-4.991627 7.610594 -0.476990
-5.010106 7.641685 2.109591
-4.985418 7.604030 -0.158712
-5.018315 7.657112 2.453087
-3.568415 5.461429 -1.748064
-11.521996 17.634317 0.367687
-4.227376 6.472424 -1.784762
-5.158017 7.900322 0.494470
-4.971200 7.617085 -1.768036
-5.735997 8.792283 0.918447
-4.949832 7.587230 -1.434817
-4.973927 7.627080 1.118029
-5.010538 7.686150 -1.126560
-4.998700 7.670918 1.450148
-4.952316 7.602638 -0.793815
-4.965623 7.623065 1.768418
-4.954371 7.608695 -0.475839
-4.974109 7.641924 2.105092
-4.953393 7.613004 -0.158538
-4.975755 7.650292 2.445323
-3.552388 5.476473 -1.749099
-11.502805 17.739862 0.369049
-4.208996 6.493683 -1.786561
-8.723176 13.458207 0.840516
-4.946982 7.635175 -1.768418
-5.900680 9.110598 0.949649
-4.908286 7.581248 -1.430437
-4.939725 7.632729 1.116323
-4.982601 7.701926 -1.126317
-4.967871 7.679157 1.448583
-4.917342 7.603960 -0.792246
-4.927260 7.622214 1.764220
-4.924531 7.620910 -0.475525
-4.935774 7.641233 2.100143
-4.919442 7.615950 -0.158258
-4.936737 7.645652 2.438593
-3.530114 5.483965 -1.747546
-11.509942 17.880474 0.371178
-4.173732 6.486300 -1.780712
-8.713958 13.547370 0.844179
-4.909680 7.635883 -1.764602
-5.709412 8.883081 0.923851
-4.872439 7.580865 -1.427308
-4.895071 7.619007 1.111936
-4.901250 7.631553 -1.113642
-4.930366 7.679828 1.445455
-4.882159 7.607666 -0.790851
-4.893472 7.625295 1.761167
-4.880898 7.608621 -0.473745
-4.907250 7.652639 2.098794
-4.886351 7.622975 -0.158049
-4.900636 7.648199 2.433934
-3.512949 5.497271 -1.748064
-11.508813 18.016603 0.373167
-4.148966 6.497545 -1.779813
-8.717125 13.656829 0.849099
-4.877995 7.642193 -1.762312
-5.549175 8.697054 0.902585
-4.841696 7.591166 -1.426057
-4.855641 7.615960 1.109011
-4.909790 7.703857 -1.121686
-4.889729 7.675334 1.441387
-4.845129 7.605327 -0.788934
-4.860499 7.632392 1.758877
-4.840367 7.603708 -0.472384
-4.863770 7.643415 2.091595
-4.848980 7.623111 -0.157700
-4.863546 7.648956 2.428758
-3.490635 5.504604 -1.746511
-11.509022 18.156313 0.375227
-4.129387 6.516928 -1.781162
-8.718563 13.764785 0.853913
-4.834483 7.632636 -1.756206
-5.508127 8.699536 0.900842
-4.807772 7.596337 -1.423867
-4.821599 7.621119 1.107305
-4.858466 7.682359 -1.116079
-4.848128 7.668983 1.437007
-4.805775 7.601987 -0.786842
-4.820195 7.627737 1.753916
-4.808460 7.612116 -0.471861
-4.821451 7.635632 2.084846
-4.804197 7.611242 -0.157107
-4.828567 7.652816 2.424617
-3.462138 5.502041 -1.741852
-11.519034 18.313173 0.377635
-4.105578 6.529652 -1.780712
-8.712971 13.862778 0.858100
-4.801540 7.639493 -1.753916
-5.458645 8.688345 0.897704
-4.772824 7.599690 -1.421364
-4.788632 7.627817 1.105842
-4.851666 7.731220 -1.120710
-4.806633 7.662429 1.432627
-4.768355 7.604357 -0.785273
-4.784152 7.629548 1.750482
-4.775497 7.618701 -0.471233
-4.787526 7.640854 2.081697
-4.768045 7.612714 -0.156792
-4.788498 7.648337 2.417887
-3.446042 5.521248 -1.743923
-11.515393 18.449965 0.379625
-4.080698 6.540636 -1.779813
-7.516729 12.052668 0.744427
-4.765201 7.643711 -1.750863
-5.415174 8.689692 0.895787
-4.727180 7.588630 -1.416045
-4.751479 7.627638 1.103405
-4.830947 7.758218 -1.122173
-4.773596 7.669098 1.430750
-4.733360 7.607423 -0.783879
-4.741641 7.623691 1.745139
-4.734888 7.615797 -0.469977
-4.753316 7.648421 2.078998
-4.730886 7.612330 -0.156443
-4.752598 7.650236 2.413229
-3.428781 5.536529 -1.744958
-11.508739 18.590664 0.381649
-4.048493 6.542292 -1.776214
-7.478813 12.085628 0.744845
-4.730226 7.646943 -1.747811
-5.375376 8.693292 0.894218
-4.689239 7.586601 -1.412603
-4.713058 7.628114 1.100968
-4.769402 7.719306 -1.114130
