# This PCD file was generated using the MATLAB® pcwrite function
# from Computer Vision Toolbox®.
# .PCD v.7 - Point Cloud Data file format
VERSION .7
FIELDS x y z
SIZE 4 4 4
TYPE F F F
COUNT 1 1 1
WIDTH 1730
HEIGHT 1
VIEWPOINT 0 0 0 1 0 0 0
POINTS 1730
DATA ascii
2.559940 5.188767 -1.550326
3.813761 7.726741 0.150405
2.691138 5.449893 -1.403245
3.909116 7.912971 0.462545
3.137352 6.350739 -1.376878
3.881541 7.853703 0.766448
3.744692 7.573480 -1.338141
3.890300 7.864511 1.077325
3.901357 7.883403 -1.080006
3.842438 7.760939 1.371618
3.818954 7.713505 -0.753026
3.846346 7.765423 1.684462
3.825665 7.720283 -0.451555
3.836181 7.738109 1.993966
3.834807 7.731946 -0.150649
3.850263 7.759706 2.321089
2.584063 5.191905 -1.553950
3.848730 7.729494 0.150719
2.709275 5.438722 -1.402795
3.814664 7.654381 0.448205
3.149867 6.320422 -1.372680
3.907152 7.836540 0.766099
3.769340 7.556827 -1.337515
3.892909 7.801151 1.070500
3.931510 7.875065 -1.080737
3.870390 7.749245 1.371930
3.852979 7.714385 -0.754420
3.883957 7.773025 1.689041
3.861523 7.724746 -0.452601
3.868400 7.735127 1.996666
3.862667 7.720302 -0.150684
3.880787 7.753129 2.323160
2.602172 5.182853 -1.553950
3.864017 7.692782 0.150265
2.728245 5.429231 -1.402795
3.915820 7.789127 0.456893
3.173676 6.312895 -1.373443
3.911206 7.776577 0.761567
3.789482 7.531271 -1.335325
3.904944 7.757370 1.066357
3.967902 7.879025 -1.083175
3.904525 7.749801 1.374433
3.882572 7.706228 -0.754943
3.915488 7.768185 1.690949
3.891157 7.716572 -0.452915
3.906786 7.744195 2.002514
3.900405 7.728193 -0.151103
3.911308 7.746433 2.325230
2.622865 5.178908 -1.555503
3.895367 7.688166 0.150440
2.748941 5.423151 -1.403695
3.935306 7.763630 0.456160
3.192139 6.294775 -1.371917
3.928414 7.743330 0.759649
3.815750 7.517996 -1.335325
3.931997 7.743693 1.066357
4.004374 7.882823 -1.085612
3.941832 7.759707 1.378501
3.969929 7.811631 -0.766622
3.946137 7.761472 1.692476
3.937086 7.740325 -0.455114
3.941751 7.746141 2.006563
3.935083 7.733038 -0.151452
3.939603 7.738587 2.326783
2.643564 5.174881 -1.557055
3.947224 7.726847 0.151452
2.758043 5.396652 -1.399196
3.955107 7.735620 0.455323
3.215882 6.287089 -1.372680
3.961775 7.741985 0.760870
3.837059 7.498269 -1.334073
3.961272 7.737680 1.067332
4.030494 7.869500 -1.085612
3.978806 7.765237 1.381942
4.010800 7.824324 -0.769237
3.979016 7.762320 1.695529
3.959089 7.720118 -0.454695
3.974532 7.746900 2.010163
3.966613 7.728153 -0.151627
3.981594 7.754001 2.335583
2.665133 5.174675 -1.559644
3.982410 7.729023 0.151766
2.773291 5.380064 -1.397396
3.984833 7.727091 0.455637
3.231313 6.265921 -1.370390
4.000217 7.753592 0.763310
3.857772 7.474298 -1.332196
3.994634 7.736152 1.069038
4.067052 7.873019 -1.088050
4.009513 7.758322 1.383194
4.024835 7.787969 -0.766971
4.017812 7.771054 1.700490
3.988768 7.711571 -0.455009
4.004234 7.738171 2.011512
4.001841 7.730242 -0.151941
4.015746 7.753778 2.339724
2.678725 5.156769 -1.557055
4.014900 7.725719 0.151976
2.794752 5.375537 -1.398746
4.021917 7.732626 0.456788
3.245011 6.238929 -1.366956
4.030012 7.744888 0.763833
3.887489 7.467793 -1.333447
4.028948 7.736247 1.070988
4.101842 7.872860 -1.089999
4.040224 7.751284 1.384445
4.096201 7.858678 -0.775338
4.051270 7.769166 1.703161
4.025819 7.717083 -0.456160
4.038436 7.737967 2.015111
4.030653 7.719769 -0.152010
4.051726 7.756839 2.344901
2.696711 5.147387 -1.557055
4.052985 7.732912 0.152394
2.814401 5.367476 -1.399196
4.060020 7.739764 0.458044
3.266771 6.227563 -1.366956
4.061653 7.739592 0.764704
3.912609 7.452432 -1.333135
4.067007 7.743224 1.073913
4.134840 7.869037 -1.091462
4.073686 7.749377 1.386635
4.127311 7.851388 -0.776035
4.097553 7.791468 1.711175
4.061103 7.718890 -0.457102
4.073586 7.739347 2.019161
4.058506 7.707423 -0.152045
4.077880 7.740939 2.344383
2.714664 5.137941 -1.557055
4.084624 7.727558 0.152569
2.833121 5.357619 -1.399196
4.095420 7.741432 0.458986
3.283900 6.207444 -1.365048
4.096099 7.739456 0.766099
3.932130 7.426507 -1.330945
4.104234 7.748275 1.076594
4.173436 7.875606 -1.094387
4.109040 7.750816 1.389451
4.160294 7.847495 -0.777081
4.123807 7.775382 1.710794
4.095510 7.718782 -0.457940
4.110629 7.744011 2.024110
4.096642 7.714401 -0.152464
4.113938 7.743719 2.349559
2.733486 5.130141 -1.557573
4.119100 7.727368 0.152848
2.846305 5.337379 -1.396496
4.131814 7.744713 0.460033
3.307393 6.199410 -1.365811
4.133411 7.744444 0.768016
3.952449 7.402280 -1.329067
4.136862 7.744410 1.078056
4.215873 7.889000 -1.098287
4.148180 7.759071 1.393518
4.214905 7.883878 -0.782136
4.164810 7.786908 1.716518
4.124315 7.707960 -0.458149
4.144995 7.743360 2.027709
4.136760 7.724735 -0.152953
4.154631 7.754853 2.357324
2.753208 5.123970 -1.558608
4.158356 7.735841 0.153302
2.861225 5.320547 -1.394697
4.163556 7.739037 0.460556
3.326224 6.182640 -1.364666
4.167975 7.744003 0.769411
3.978262 7.388439 -1.329067
4.171403 7.743903 1.080006
4.243388 7.874235 -1.098287
4.178050 7.749761 1.394457
4.214033 7.816505 -0.776906
4.198489 7.784420 1.719189
4.162579 7.714608 -0.459405
4.188659 7.759712 2.035807
4.170349 7.722565 -0.153197
4.208306 7.789593 2.372335
2.768315 5.109234 -1.557055
4.193908 7.737102 0.153616
2.884426 5.319091 -1.396946
4.195305 7.733234 0.461080
3.339358 6.155461 -1.361231
4.206384 7.750421 0.771503
4.004973 7.376242 -1.329380
4.205987 7.743250 1.081956
4.286012 7.887284 -1.102186
4.219230 7.761161 1.399150
4.196568 7.719476 -0.768714
4.235017 7.786963 1.723005
4.198071 7.715822 -0.460347
4.226902 7.765582 2.041206
4.204933 7.722010 -0.153476
4.229000 7.762981 2.368712
2.786134 5.099539 -1.557055
4.228566 7.736453 0.153895
2.903910 5.310701 -1.397396
4.235695 7.743073 0.462545
3.357999 6.138599 -1.360087
4.238194 7.744431 0.772374
4.026901 7.355288 -1.328129
4.245389 7.751154 1.085125
4.324962 7.893166 -1.105111
4.251042 7.755048 1.400714
4.228276 7.713517 -0.769585
4.270667 7.787625 1.726440
4.237466 7.723885 -0.461708
4.253045 7.749073 2.040756
4.244372 7.730073 -0.153930
4.258860 7.753252 2.370265
2.799258 5.081321 -1.554467
4.277743 7.761926 0.154698
2.928077 5.310771 -1.400095
4.270417 7.742230 0.463383
3.379408 6.126839 -1.360087
4.275788 7.748779 0.774292
4.042052 7.322163 -1.324687
4.281060 7.751926 1.087318
4.360166 7.891922 -1.107061
4.282866 7.748806 1.402279
4.264815 7.716146 -0.771328
4.302577 7.781260 1.728348
4.289536 7.754488 -0.464429
4.288562 7.749524 2.044805
4.297482 7.762445 -0.154873
4.292449 7.750170 2.373888
2.819791 5.076586 -1.556020
4.307727 7.752190 0.154803
2.937127 5.283485 -1.395596
4.310034 7.749969 0.464743
3.401727 6.116722 -1.360468
4.311530 7.749475 0.775860
4.066624 7.306283 -1.324374
4.314851 7.749077 1.089025
4.388655 7.878386 -1.107305
4.318541 7.749338 1.405095
4.336337 7.781271 -0.779347
4.336403 7.778198 1.731019
4.321445 7.748187 -0.464953
4.326030 7.753227 2.049754
4.326499 7.750889 -0.154942
4.328897 7.752005 2.379065
2.829001 5.051541 -1.551361
4.341601 7.749318 0.155047
2.954598 5.271501 -1.395146
4.340970 7.741844 0.465162
3.420179 6.099672 -1.359323
4.352203 7.758704 0.778301
4.089201 7.286876 -1.323436
4.351594 7.751276 1.091462
4.420992 7.871672 -1.108524
4.359110 7.758328 1.409475
4.369326 7.776509 -0.780393
4.370264 7.774992 1.733691
4.347487 7.731312 -0.464848
4.359754 7.749969 2.052903
4.357454 7.742710 -0.155082
4.368253 7.758730 2.385794
2.851362 5.050049 -1.553950
4.378461 7.751526 0.155396
2.972982 5.261154 -1.395146
4.381722 7.750989 0.466627
3.430818 6.068899 -1.355126
4.392008 7.766010 0.780567
4.113641 7.270837 -1.323123
4.393286 7.761955 1.095118
4.460178 7.876923 -1.111449
4.387141 7.744781 1.409788
4.388590 7.747341 -0.778998
4.411894 7.785311 1.739415
4.386267 7.736941 -0.466104
4.392550 7.744873 2.055603
4.385444 7.729190 -0.155117
4.408659 7.766956 2.393041
2.864196 5.031670 -1.551361
4.416380 7.755309 0.155780
2.988434 5.245666 -1.393797
4.417290 7.753769 0.467674
3.447122 6.048357 -1.353217
4.420078 7.752362 0.780741
4.138016 7.254719 -1.322810
4.427243 7.758641 1.096824
4.499063 7.884503 -1.114617
4.419656 7.742198 1.411978
4.420545 7.740626 -0.779870
4.440990 7.773274 1.740178
4.423160 7.738922 -0.467151
4.432716 7.755641 2.062351
4.421964 7.733704 -0.155501
4.435348 7.753972 2.393559
2.881828 5.023818 -1.551879
4.444062 7.744090 0.155850
3.003872 5.232348 -1.392897
4.454909 7.759864 0.468930
3.474006 6.048809 -1.355889
4.459657 7.761848 0.783181
4.156143 7.230682 -1.320933
4.463834 7.762846 1.099505
4.528154 7.874702 -1.115348
4.458110 7.749761 1.416045
4.458114 7.746648 -0.781961
4.484376 7.789129 1.747047
4.456772 7.738058 -0.467988
4.470080 7.761164 2.067750
4.456568 7.734591 -0.155815
4.467792 7.750935 2.397182
2.896537 5.010890 -1.550844
4.482734 7.751813 0.156304
3.016328 5.213923 -1.390647
4.494977 7.766737 0.470291
3.489127 6.028759 -1.353981
4.496355 7.765983 0.785099
4.174160 7.206603 -1.319056
4.494527 7.756588 1.100724
4.577519 7.896629 -1.120710
4.499007 7.758076 1.420425
4.494128 7.746548 -0.783530
4.516091 7.784406 1.749337
4.482409 7.723235 -0.467988
4.509863 7.767423 2.073599
4.496599 7.741466 -0.156269
4.505499 7.753664 2.402876
2.912937 4.996903 -1.549809
4.520838 7.755125 0.156688
3.026658 5.189894 -1.387048
4.524072 7.754451 0.470500
3.513179 6.019323 -1.354744
4.528805 7.756334 0.785796
4.198554 7.187842 -1.318430
4.532590 7.759706 1.103405
4.609056 7.887461 -1.121686
4.534037 7.755966 1.422928
4.532207 7.749731 -0.785448
4.558470 7.791525 1.754680
4.524809 7.730888 -0.469454
4.541257 7.755885 2.074948
4.532690 7.741252 -0.156583
4.552060 7.771233 2.413229
2.939172 5.001694 -1.554467
4.557341 7.752294 0.156967
3.048622 5.183806 -1.388398
4.558202 7.750662 0.471233
3.528197 5.996869 -1.352454
4.572020 7.767951 0.788585
4.226624 7.178251 -1.319368
4.572082 7.761858 1.106086
4.645998 7.884196 -1.123635
4.561081 7.740093 1.422928
4.569348 7.751028 -0.787191
4.598606 7.797549 1.759641
4.563944 7.735689 -0.470710
4.577216 7.755091 2.078998
4.563749 7.732273 -0.156723
4.592912 7.778583 2.420476
2.944797 4.971459 -1.548256
4.592194 7.752624 0.157281
3.068774 5.178698 -1.389748
4.599490 7.758754 0.472698
3.543098 5.974386 -1.350165
4.702800 7.926725 0.806365
4.243348 7.152303 -1.317178
4.748761 8.001003 1.142403
4.659955 7.848264 -1.120710
4.600176 7.744506 1.426683
4.602485 7.745306 -0.788237
4.631461 7.794070 1.762312
4.601817 7.741115 -0.471966
4.615855 7.761644 2.084846
4.609118 7.747228 -0.157351
4.620035 7.762505 2.420476
2.959288 4.958348 -1.547220
4.627431 7.750281 0.157560
3.090831 5.174646 -1.391547
4.781240 8.001541 0.488504
3.563900 5.964288 -1.350546
4.266263 7.134056 -1.316553
6.174905 10.321604 1.476813
4.719945 7.886456 -1.128510
4.637331 7.745347 1.429811
4.638705 7.744577 -0.789805
4.659647 7.779541 1.762694
4.645238 7.752415 -0.473640
4.647932 7.753841 2.087096
4.654642 7.761962 -0.157979
4.652075 7.754612 2.423064
2.977440 4.947469 -1.547220
4.664765 7.751215 0.157909
3.106864 5.160487 -1.390647
4.829749 8.019023 0.490597
3.584724 5.949503 -1.350165
8.950352 14.848893 1.516859
4.283199 7.103148 -1.313737
6.183218 10.254089 1.470232
4.744372 7.864831 -1.127779
4.680667 7.756175 1.434817
4.698660 7.782920 -0.795383
4.698281 7.779214 1.766510
4.678783 7.743885 -0.474164
4.685394 7.751762 2.091145
4.684813 7.750801 -0.158084
4.693111 7.761469 2.430311
2.994694 4.937045 -1.547220
4.704557 7.752871 0.158293
3.135869 5.165724 -1.395146
4.863928 8.012360 0.491225
3.600374 5.928565 -1.348256
8.950408 14.732418 1.508143
4.313096 7.096594 -1.315301
6.229012 10.244925 1.472182
4.783480 7.864350 -1.130216
4.715928 7.753290 1.437320
4.722694 7.761364 -0.794860
4.742759 7.791277 1.772997
4.709943 7.734329 -0.474583
4.720534 7.748674 2.094744
4.724323 7.754895 -0.158503
4.732238 7.764837 2.436523
3.019969 4.939747 -1.551361
4.736498 7.747465 0.158503
3.161117 5.168595 -1.398746
4.902292 8.012367 0.492272
3.615920 5.907589 -1.346348
9.655165 15.768158 1.617611
4.332481 7.075514 -1.314050
6.269171 10.234371 1.473644
4.809535 7.848444 -1.130216
4.749156 7.746887 1.439197
4.779963 7.794087 -0.799915
4.776779 7.788896 1.776050
4.751235 7.744202 -0.476153
4.755377 7.747927 2.098794
4.755547 7.745173 -0.158642
4.771449 7.768023 2.442734
3.024177 4.909966 -1.545150
4.776099 7.751314 0.158922
3.193457 5.180753 -1.405044
4.938270 8.011368 0.493214
3.632401 5.890551 -1.345204
9.648818 15.641095 1.607849
4.353005 7.053622 -1.312798
7.568751 12.259638 1.769056
4.853586 7.858634 -1.134116
4.787273 7.751264 1.442952
4.785887 7.745987 -0.796603
4.822521 7.802234 1.782919
4.786635 7.741163 -0.476990
4.793671 7.749510 2.103742
4.788570 7.741264 -0.158887
4.800231 7.757086 2.444287
3.040278 4.897739 -1.544632
4.808106 7.745625 0.159131
3.211646 5.171791 -1.405494
4.982016 8.019528 0.494784
3.655012 5.881172 -1.345967
9.648661 15.519333 1.598785
4.374285 7.035794 -1.312172
7.572673 12.175471 1.760525
4.904791 7.882945 -1.139966
4.826829 7.754629 1.446706
4.827643 7.752911 -0.799044
4.842143 7.776197 1.780630
4.822842 7.742199 -0.478037
4.834801 7.758379 2.110491
4.829319 7.746560 -0.159340
4.840567 7.761594 2.451016
3.055477 4.885993 -1.544114
4.843602 7.742356 0.159410
3.227611 5.157246 -1.404594
5.024812 8.025792 0.496250
3.675535 5.870684 -1.346348
9.655656 15.416327 1.591464
4.394624 7.013785 -1.310921
7.577165 12.088418 1.751750
4.943880 7.884275 -1.142647
4.862269 7.751120 1.449209
4.863912 7.753739 -0.800787
4.888036 7.789184 1.787499
4.858335 7.738848 -0.478874
4.876366 7.764559 2.116790
4.860579 7.736433 -0.159480
4.874828 7.756098 2.454640
3.066335 4.865491 -1.541009
4.889789 7.755853 0.160039
3.255991 5.162430 -1.409093
5.055995 8.013269 0.496564
3.691816 5.851175 -1.344822
9.656227 15.298297 1.582748
4.414860 6.991722 -1.309669
7.573732 11.989726 1.741269
4.983031 7.885432 -1.145328
4.904072 7.757477 1.453589
4.896270 7.745135 -0.801659
4.929889 7.795303 1.792842
4.892797 7.733655 -0.479607
4.905522 7.750783 2.117689
4.900394 7.739692 -0.159899
4.917381 7.763514 2.462405
3.088478 4.862912 -1.543597
4.925414 7.752239 0.160318
3.286536 5.170768 -1.414492
5.098938 8.019169 0.498029
3.709056 5.833283 -1.343677
9.668939 15.200611 1.576124
4.434998 6.969601 -1.308418
7.575027 11.899583 1.732007
5.014792 7.874686 -1.146303
4.937491 7.750305 1.455467
4.931841 7.741438 -0.803053
4.972895 7.802882 1.798566
4.938010 7.745162 -0.481386
4.945125 7.753328 2.123088
4.943513 7.747826 -0.160423
4.955878 7.764217 2.468098
3.093980 4.834202 -1.537903
4.965384 7.755206 0.160737
3.317175 5.178958 -1.419891
5.136599 8.016455 0.498971
3.721983 5.808729 -1.341006
9.668184 15.082897 1.567409
4.459295 6.954080 -1.308418
7.576863 11.811245 1.722989
5.067983 7.897228 -1.152153
4.977314 7.752974 1.459221
4.962058 7.729208 -0.803576
5.007530 7.797037 1.801237
4.981212 7.753082 -0.482956
4.981640 7.750774 2.127137
4.979182 7.743978 -0.160702
4.993403 7.763117 2.473275
3.109581 4.819584 -1.536867
5.005703 7.755438 0.161121
3.339309 5.171674 -1.421241
5.180032 8.019385 0.500332
3.745378 5.798347 -1.341769
9.680143 14.980425 1.560436
4.475107 6.922756 -1.305602
7.588840 11.735058 1.715921
5.115222 7.906935 -1.156296
5.016436 7.751259 1.462350
5.006596 7.736055 -0.806191
5.042474 7.788521 1.803527
5.022622 7.754890 -0.484212
5.024851 7.755358 2.133436
5.020582 7.745814 -0.161121
5.031281 7.759352 2.477934
3.125334 4.807080 -1.536350
5.041464 7.751329 0.161400
3.359464 5.163256 -1.422141
5.227608 8.031384 0.502216
3.761312 5.778656 -1.340242
9.743252 14.963237 1.562180
4.498165 6.905439 -1.305289
7.586408 11.641968 1.706171
5.149298 7.899008 -1.157759
5.059646 7.758522 1.467043
5.044452 7.735223 -0.807934
5.078214 7.784025 1.806580
5.051847 7.740654 -0.484422
5.063609 7.755722 2.138385
5.061807 7.750006 -0.161574
5.073131 7.764382 2.485181
3.147387 4.804221 -1.538938
5.078358 7.748735 0.161714
3.381742 5.158015 -1.423940
5.254210 8.014006 0.502216
3.780383 5.763850 -1.339861
9.841327 14.999103 1.569501
4.524408 6.892999 -1.305915
7.579057 11.542406 1.695446
5.192895 7.908439 -1.161659
5.095106 7.756562 1.469859
5.081267 7.732553 -0.809502
5.119376 7.787576 1.811541
5.089808 7.739661 -0.485468
5.094653 7.747029 2.140634
5.096270 7.746542 -0.161854
5.111597 7.766880 2.491392
3.162236 4.792146 -1.538420
5.115041 7.748542 0.162063
3.407420 5.159781 -1.427539
5.292865 8.014869 0.503367
3.794064 5.743093 -1.337953
9.906395 14.989653 1.571941
4.538527 6.864774 -1.303412
7.586626 11.470850 1.688622
5.225661 7.901112 -1.163121
5.124072 7.744563 1.470797
5.122279 7.738919 -0.811943
5.161425 7.795114 1.817265
5.133094 7.749381 -0.487143
5.135383 7.752836 2.146933
5.128560 7.739600 -0.162063
5.150128 7.769213 2.497604
3.165279 4.762326 -1.532209
5.151783 7.748188 0.162412
3.432066 5.159811 -1.430689
5.334086 8.016299 0.504623
3.810825 5.724910 -1.336808
4.557981 6.844754 -1.302473
7.594912 11.401020 1.682041
5.277430 7.919162 -1.168483
5.167508 7.751285 1.475490
5.158104 7.734254 -0.813337
5.202771 7.798280 1.822226
5.168982 7.744707 -0.487980
5.175395 7.754315 2.152332
5.164426 7.734957 -0.162342
5.181510 7.757612 2.499674
3.182714 4.750691 -1.532209
5.191277 7.745866 0.162761
3.461808 5.163383 -1.435188
5.381234 8.023233 0.506298
3.830687 5.709274 -1.336426
4.570930 6.809959 -1.299032
7.595706 11.312128 1.673023
5.319700 7.919541 -1.171408
5.208005 7.750328 1.478932
5.198646 7.733483 -0.815255
5.229125 7.775901 1.821463
5.208483 7.742280 -0.489027
5.214660 7.751461 2.156831
5.210607 7.742519 -0.162901
5.231484 7.770620 2.510027
3.205509 4.747000 -1.534797
5.235301 7.749986 0.163250
3.482891 5.153891 -1.436087
5.428216 8.032534 0.508078
3.848396 5.692615 -1.335663
4.599178 6.798069 -1.299971
7.597059 11.225032 1.664248
5.362891 7.923938 -1.174821
5.249423 7.753366 1.482999
5.241249 7.738385 -0.817695
5.284871 7.799858 1.831385
5.251164 7.747199 -0.490493
5.256991 7.755796 2.163129
5.255556 7.750766 -0.163459
5.268339 7.766699 2.514686
3.213630 4.725162 -1.531174
5.275598 7.754074 0.163704
3.506540 5.151979 -1.438787
5.459317 8.021093 0.508496
3.868359 5.681443 -1.336045
4.616133 6.774620 -1.298406
7.598465 11.147286 1.656448
5.386905 7.902829 -1.174333
5.291797 7.760397 1.487692
5.275863 7.734131 -0.819090
5.321775 7.798504 1.835201
5.285836 7.742937 -0.491330
5.293671 7.754414 2.167628
5.297017 7.756415 -0.163948
5.306055 7.766731 2.520380
3.232555 4.719261 -1.532727
5.312585 7.753035 0.164053
3.535727 5.158002 -1.443736
5.497450 8.016812 0.509438
3.880514 5.658870 -1.333755
4.634104 6.752759 -1.297155
7.596064 11.064749 1.647917
5.430186 7.906889 -1.177745
5.318855 7.741878 1.487692
5.322919 7.747793 -0.822402
5.358726 7.796995 1.839017
5.326189 7.746765 -0.492691
5.335062 7.756763 2.173477
5.330863 7.747761 -0.164157
5.347368 7.768853 2.527109
3.244619 4.701589 -1.530656
5.354387 7.755835 0.164506
3.569215 5.168077 -1.450034
5.542428 8.022223 0.511008
3.894663 5.637214 -1.331847
9.667284 13.987402 1.487574
4.655403 6.733290 -1.296529
7.599633 10.987556 1.640362
5.465662 7.899312 -1.179452
5.363837 7.749251 1.492698
5.355603 7.737355 -0.823273
5.401555 7.800840 1.844360
5.373671 7.757678 -0.494575
5.373207 7.754108 2.177976
5.370405 7.747184 -0.164541
5.381061 7.759664 2.530215
3.258806 4.687061 -1.529621
5.388280 7.746946 0.164716
3.597247 5.169986 -1.454084
5.584091 8.022496 0.512264
3.912075 5.620361 -1.331084
9.663683 13.878357 1.479556
4.676615 6.713760 -1.295903
7.605031 10.913729 1.633293
5.514772 7.911125 -1.184083
5.413447 7.762890 1.498955
5.393970 7.734960 -0.825016
5.433247 7.788377 1.845886
5.407578 7.748699 -0.495203
5.421431 7.765668 2.186524
5.418027 7.757901 -0.165170
5.424713 7.764586 2.537980
3.275144 4.675660 -1.529621
5.429058 7.747743 0.165135
3.621984 5.166971 -1.456783
5.631554 8.030757 0.514044
3.932796 5.608280 -1.331465
9.670873 13.785822 1.473281
4.697754 6.694160 -1.295278
7.603163 10.830250 1.624762
5.556044 7.911322 -1.187008
5.447328 7.753643 1.500832
5.433539 7.734016 -0.826934
5.470562 7.783819 1.849321
5.446078 7.746115 -0.496250
5.454113 7.754666 2.188774
5.457733 7.756928 -0.165554
5.468460 7.769301 2.545744
3.293675 4.667355 -1.530656
5.474524 7.754882 0.165693
3.648991 5.167032 -1.460382
5.670826 8.029984 0.515195
3.945551 5.584898 -1.329176
9.677544 13.693404 1.467005
4.724512 6.682560 -1.296216
7.604234 10.751786 1.616963
5.582480 7.890257 -1.186764
5.486703 7.754885 1.504587
5.474313 7.734518 -0.829025
5.518115 7.793520 1.856190
5.484630 7.743355 -0.497296
5.495797 7.756248 2.194623
5.494986 7.755105 -0.165903
5.510950 7.774766 2.553509
3.312186 4.658977 -1.531691
5.511795 7.752984 0.166042
3.676271 5.169195 -1.464431
5.705770 8.019903 0.515823
3.953639 5.555095 -1.325359
9.674436 13.588129 1.459336
4.736337 6.652373 -1.293400
7.607604 10.681235 1.610138
5.632803 7.905653 -1.191882
5.522910 7.748556 1.507090
5.523257 7.746183 -0.832337
5.559888 7.797557 1.861533
5.528833 7.751141 -0.498971
5.529408 7.749087 2.197772
5.531315 7.748898 -0.166182
5.547039 7.768058 2.557650
3.316373 4.632259 -1.526515
5.557453 7.759710 0.166601
3.704506 5.170588 -1.468480
5.759329 8.035650 0.518126
3.965179 5.532378 -1.323070
9.675323 13.494444 1.452712
4.768738 6.648642 -1.295903
7.615913 10.614291 1.604044
5.676568 7.908521 -1.195295
5.561443 7.745277 1.510219
5.553752 7.731709 -0.832860
5.603109 7.800423 1.866875
5.566344 7.746393 -0.499913
5.576897 7.758222 2.205870
5.570007 7.745777 -0.166531
5.578631 7.754921 2.559721
3.333328 4.620074 -1.526515
5.586847 7.743505 0.166670
3.729377 5.167106 -1.471180
5.803710 8.038169 0.519591
3.987727 5.520992 -1.323833
9.673379 13.387831 1.445042
4.776876 6.608705 -1.291523
7.622681 10.545814 1.597707
5.702979 7.887048 -1.195051
5.611602 7.757826 1.516476
5.594722 7.731647 -0.834952
5.644323 7.797329 1.871073
5.612272 7.750203 -0.501483
5.620159 7.758245 2.211719
5.611086 7.745720 -0.166950
5.623806 7.760429 2.568003
3.349434 4.608411 -1.526515
5.631652 7.745621 0.167159
3.747142 5.151827 -1.470730
9.739120 13.385094 0.867521
4.006973 5.507039 -1.323833
9.717705 13.350764 1.444694
4.794100 6.584006 -1.289959
7.615702 10.455225 1.588201
5.750551 7.891763 -1.198951
5.658618 7.762745 1.521482
5.642803 7.741049 -0.838090
5.685390 7.796613 1.875653
5.649883 7.745089 -0.502425
5.666737 7.765337 2.219367
5.658306 7.750944 -0.167508
5.677276 7.774088 2.579391
3.358654 4.587337 -1.523409
5.675200 7.748500 0.167648
3.773164 5.149721 -1.473879
9.766895 13.325240 0.865846
4.026173 5.493018 -1.323833
9.776033 13.332826 1.446437
4.813547 6.562454 -1.289020
7.614570 10.377365 1.580402
5.785113 7.881242 -1.200413
5.699706 7.762056 1.525236
5.679219 7.734157 -0.839484
5.727678 7.797290 1.880614
5.688713 7.741413 -0.503472
5.705348 7.761212 2.223866
5.699542 7.750478 -0.167927
5.720407 7.776008 2.586638
3.375792 4.577142 -1.523927
5.721207 7.754390 0.168206
3.803848 5.153764 -1.478828
9.756402 13.213943 0.860822
4.030162 5.458398 -1.318872
9.860390 13.349906 1.452015
4.831731 6.539255 -1.287769
5.963431 8.067942 1.231856
5.813767 7.862597 -1.200657
5.738515 7.757993 1.528365
5.723956 7.738310 -0.842099
5.771213 7.799343 1.885956
5.739465 7.753616 -0.505565
5.744001 7.756912 2.228365
5.743228 7.753030 -0.168416
5.762466 7.776172 2.593367
3.384835 4.556026 -1.520821
5.767327 7.760050 0.168765
3.827630 5.148273 -1.481078
9.909739 13.324043 0.870242
4.053876 5.450600 -1.320398
9.923583 13.337782 1.454455
4.849812 6.516010 -1.286517
6.003407 8.063003 1.234293
5.861338 7.869319 -1.204800
5.779726 7.756922 1.532119
5.760459 7.731063 -0.843493
5.811303 7.796468 1.890154
5.779630 7.751144 -0.506717
5.787356 7.758681 2.234664
5.777426 7.742556 -0.168625
5.795355 7.763748 2.595955
3.397246 4.539542 -1.519268
5.803969 7.752676 0.169044
3.866603 5.162958 -1.489176
6.014945 8.031574 0.525872
4.066994 5.428558 -1.318490
4.855937 6.476914 -1.282137
6.036282 8.048349 1.235268
5.914983 7.883743 -1.210163
5.819645 7.756673 1.535874
5.807740 7.737999 -0.846457
5.852629 7.794973 1.894733
5.825845 7.756473 -0.508392
5.833132 7.763361 2.241862
5.817486 7.742537 -0.169044
5.839639 7.769197 2.604237
3.413071 4.527657 -1.519268
5.841678 7.749358 0.169393
3.879009 5.143885 -1.487376
6.076625 8.055173 0.528803
4.090647 5.420599 -1.320017
4.876197 6.459201 -1.281824
6.082081 8.053632 1.239168
5.971007 7.903683 -1.216256
5.863354 7.758378 1.540254
5.852740 7.741517 -0.849071
5.890288 7.791182 1.898550
5.862376 7.751449 -0.509334
5.872952 7.762626 2.247261
5.862581 7.746099 -0.169568
5.880718 7.767247 2.610449
3.432737 4.522470 -1.521338
5.884415 7.749622 0.169847
3.893405 5.125657 -1.486027
6.134712 8.076331 0.531524
4.103848 5.400752 -1.318490
4.887954 6.427987 -1.279008
6.122169 8.048156 1.241605
5.998558 7.882793 -1.216256
5.910583 7.767186 1.545886
5.896480 7.745846 -0.851686
5.935285 7.794007 1.904274
5.899078 7.743650 -0.510171
5.909464 7.754476 2.250860
5.907627 7.752064 -0.170126
5.919328 7.764600 2.616143
3.450851 4.513528 -1.522374
5.933156 7.760251 0.170510
3.912750 5.115812 -1.486926
6.196848 8.099284 0.534455
4.117904 5.380157 -1.316964
4.904442 6.405468 -1.277757
6.166933 8.051447 1.245261
6.030701 7.870739 -1.217475
5.940066 7.749641 1.546511
5.935605 7.741030 -0.853429
5.986187 7.806997 1.912288
5.942957 7.747817 -0.511741
5.951758 7.756480 2.257159
5.952914 7.755192 -0.170650
5.967568 7.771474 2.625460
3.455978 4.487679 -1.517715
5.982305 7.765384 0.171103
3.938611 5.110699 -1.489626
6.226493 8.076515 0.534455
4.129468 5.356420 -1.314674
4.933918 6.395271 -1.279321
6.214596 8.052361 1.248917
6.075276 7.869010 -1.220644
5.988955 7.754395 1.551830
5.974770 7.736030 -0.855172
6.030367 7.805199 1.917249
5.993301 7.754426 -0.513625
6.003985 7.765448 2.266157
5.992311 7.747555 -0.170964
6.012566 7.770940 2.632708
3.470437 4.474062 -1.517197
6.019184 7.757092 0.171383
3.949258 5.087682 -1.486926
6.291394 8.102057 0.537595
4.152956 5.348176 -1.316200
9.707093 12.496292 1.384382
4.944092 6.362410 -1.276192
6.254848 8.046293 1.251355
6.077119 7.814846 -1.215525
6.031755 7.753711 1.555897
6.016419 7.733996 -0.857264
6.067220 7.796498 1.920302
6.037507 7.755524 -0.515091
6.050214 7.769042 2.273355
6.041438 7.754987 -0.171592
6.051527 7.765143 2.637884
3.481276 4.455830 -1.515127
6.058536 7.751791 0.171732
3.971791 5.080009 -1.488726
4.169181 5.330553 -1.315437
9.706453 12.405844 1.378107
4.955312 6.331114 -1.273377
6.290242 8.033787 1.252817
6.097019 7.784207 -1.214063
6.079359 7.761659 1.561529
6.058124 7.731769 -0.859356
6.107722 7.792268 1.924500
6.067009 7.737545 -0.515300
6.098943 7.775476 2.281454
6.088104 7.761657 -0.172185
6.093942 7.766309 2.645131
3.503976 4.452761 -1.518233
6.101523 7.753655 0.172220
3.983795 5.060684 -1.486926
4.190192 5.319052 -1.316200
9.705307 12.315548 1.371831
4.975056 6.313096 -1.273064
6.329135 8.028474 1.255254
6.142465 7.788886 -1.217962
6.125989 7.765207 1.566535
6.109761 7.741857 -0.862842
6.157852 7.802794 1.932132
6.114909 7.745602 -0.517184
6.130732 7.762856 2.283703
6.128794 7.757619 -0.172569
6.149765 7.781364 2.657554
3.512724 4.433547 -1.515644
6.150911 7.760517 0.172849
4.007491 5.054382 -1.489176
4.202926 5.298976 -1.314674
9.701516 12.227106 1.365556
4.998291 6.297237 -1.273377
6.385511 8.042089 1.260860
6.174556 7.773613 -1.218937
6.165348 7.759240 1.569664
6.157712 7.749630 -0.865979
6.194822 7.793548 1.935185
6.161800 7.749219 -0.518859
6.173564 7.761234 2.289552
6.170776 7.754957 -0.172988
6.193732 7.781012 2.664801
3.526974 4.419746 -1.515127
6.191686 7.756192 0.173233
4.022676 5.037317 -1.488276
4.227526 5.291941 -1.316582
9.711795 12.152702 1.361024
5.017775 6.276668 -1.272751
6.435863 8.047655 1.265248
6.209093 7.761314 -1.220400
6.207205 7.756180 1.573418
6.194684 7.740534 -0.867374
6.250212 7.807126 1.943962
6.211284 7.755726 -0.520743
6.223768 7.768535 2.298100
6.210316 7.748972 -0.173337
6.223269 7.762359 2.665836
3.543590 4.408916 -1.515644
6.233757 7.753234 0.173651
4.030467 5.011096 -1.484677
4.242281 5.272563 -1.315437
9.729169 12.087688 1.357538
5.032223 6.249880 -1.270874
6.481350 8.046782 1.268660
6.233653 7.736503 -1.219912
6.256558 7.762148 1.579050
6.242923 7.745233 -0.870337
6.288518 7.799014 1.947397
6.260887 7.761980 -0.522627
6.267981 7.767992 2.304399
6.253656 7.747474 -0.173791
6.273386 7.769148 2.675671
3.562606 4.401022 -1.517197
6.279661 7.754736 0.174175
4.038117 4.984885 -1.481078
4.260659 5.257723 -1.315437
13.934276 17.188988 1.935903
5.051515 6.229211 -1.270248
6.516901 8.033360 1.270122
6.253118 7.705446 -1.218450
6.299798 7.760200 1.583117
6.287500 7.745051 -0.872778
6.331791 7.796829 1.952358
6.295502 7.749378 -0.523255
6.309809 7.764212 2.309798
6.303367 7.753528 -0.174419
6.328504 7.781673 2.687577
3.568182 4.376580 -1.513056
6.329440 7.760664 0.174803
4.056726 4.972268 -1.481528
26.899063 32.958000 2.229512
4.278988 5.242817 -1.315437
5.070731 6.208479 -1.269622
6.566257 8.036695 1.274266
6.262388 7.662055 -1.215037
6.349352 7.765690 1.588749
6.328367 7.740025 -0.874695
6.386316 7.808110 1.960753
6.332631 7.739723 -0.524092
6.351678 7.760240 2.315196
6.353198 7.759326 -0.175048
6.370320 7.777468 2.693789
3.580982 4.361115 -1.512021
6.379340 7.766335 0.175432
4.087668 4.974638 -1.486477
27.001240 32.848492 2.228465
4.284792 5.212685 -1.311621
14.911902 18.134680 2.054086
5.089864 6.187689 -1.268997
6.614447 8.038255 1.278166
6.268912 7.615625 -1.211138
6.382701 7.751102 1.590313
6.379412 7.747108 -0.878007
6.428506 7.803958 1.965333
6.387554 7.751479 -0.526395
6.404760 7.769597 2.324644
6.394234 7.754077 -0.175432
6.419555 7.782008 2.703106
3.601110 4.354542 -1.514091
6.420434 7.760966 0.175816
4.100037 4.954335 -1.484677
27.092819 32.726341 2.226581
4.305467 5.200720 -1.312384
14.975117 18.082512 2.054086
5.116471 6.175970 -1.270248
6.662734 8.039570 1.282066
6.292924 7.590637 -1.210650
6.436199 7.760708 1.596883
6.417861 7.738596 -0.879576
6.480781 7.811689 1.972965
6.436258 7.755261 -0.528175
6.459226 7.780180 2.334542
6.441706 7.756322 -0.175990
6.456559 7.771439 2.707247
3.606396 4.330071 -1.509950
6.452601 7.744658 0.175955
4.114812 4.936997 -1.483777
27.265732 32.702126 2.231396
4.328625 5.191689 -1.313911
14.956461 17.932217 2.042931
5.124079 6.141387 -1.266806
6.718742 8.049790 1.287428
6.327012 7.577772 -1.212113
6.484779 7.763966 1.602202
6.467827 7.743670 -0.882713
6.526894 7.811617 1.978689
6.481217 7.754207 -0.529640
6.507597 7.783000 2.342191
6.479007 7.746058 -0.176269
6.500998 7.769601 2.714494
3.623973 4.320415 -1.510986
6.506590 7.754253 0.176688
4.115732 4.903201 -1.477928
22.059948 26.271402 1.797845
4.339145 5.167529 -1.311621
14.983087 17.837177 2.038050
5.141671 6.118927 -1.265868
6.758296 8.039967 1.289621
6.317654 7.513097 -1.205288
6.533460 7.766979 1.607521
6.511493 7.740865 -0.884979
6.570553 7.808316 1.983650
6.517251 7.742229 -0.530373
6.563597 7.794519 2.352538
6.530483 7.752454 -0.176932
6.554224 7.777883 2.725365
3.641527 4.310689 -1.512021
6.555559 7.757462 0.177282
4.144144 4.902200 -1.481978
4.364764 5.161344 -1.313911
13.568010 16.038544 1.837940
5.157894 6.094912 -1.264616
6.809408 8.043595 1.294009
6.333576 7.478881 -1.203338
6.579680 7.766739 1.612214
6.564226 7.748497 -0.888466
6.615541 7.806299 1.988993
6.567482 7.746856 -0.532257
6.600844 7.783455 2.356138
6.582085 7.758583 -0.177596
6.601335 7.778522 2.733647
3.654047 4.295010 -1.510986
6.599448 7.754325 0.177735
4.148599 4.872865 -1.477479
4.377661 5.140099 -1.312384
5.176576 6.073861 -1.263991
6.861911 8.048480 1.298640
6.344188 7.438601 -1.200413
6.620856 7.760252 1.615655
6.609340 7.746755 -0.890906
6.660591 7.804067 1.994336
6.620422 7.754261 -0.534350
6.652021 7.788519 2.364685
6.628610 7.758366 -0.178119
6.656059 7.787741 2.745035
3.663989 4.276361 -1.508915
6.649901 7.758570 0.178364
4.174461 4.868710 -1.480628
4.403244 5.133729 -1.314674
6.915078 8.059412 0.929080
5.200318 6.058754 -1.264616
6.908068 8.045567 1.302052
6.370117 7.416409 -1.200413
6.664638 7.756573 1.619723
6.648026 7.737239 -0.892475
6.713388 7.810544 2.001968
6.668287 7.755334 -0.536025
6.695686 7.784459 2.370534
6.672609 7.754884 -0.178573
6.693287 7.776171 2.749176
3.667534 4.250383 -1.504256
6.693928 7.754991 0.178817
4.187612 4.849683 -1.479278
6.941660 8.039154 0.556645
4.444240 5.145070 -1.321543
6.945771 8.038241 0.929429
5.203352 6.019641 -1.260236
6.959483 8.048429 1.306439
6.388173 7.385121 -1.198951
6.717464 7.765802 1.626293
6.698461 7.741103 -0.895612
6.741895 7.788549 2.002350
6.724078 7.765228 -0.538328
6.745787 7.787550 2.378632
6.715308 7.752365 -0.179027
6.736747 7.774373 2.756423
3.688685 4.244845 -1.506845
6.735346 7.750865 0.179236
4.198555 4.829888 -1.477479
6.976232 8.022411 0.557169
4.472479 5.141375 -1.324596
14.468121 16.626089 1.928234
5.223284 6.002354 -1.260236
6.993953 8.034291 1.307902
6.415234 7.366892 -1.199438
6.767888 7.769114 1.631925
6.754242 7.750719 -0.899447
6.798643 7.801671 2.011509
6.760289 7.754932 -0.539165
6.793350 7.790105 2.386281
6.771249 7.762027 -0.179795
6.782895 7.772645 2.764188
3.697654 4.226772 -1.504774
6.780800 7.748372 0.179725
4.210254 4.809339 -1.475679
4.506320 5.145715 -1.329557
14.265853 16.284279 1.894068
5.238996 5.978144 -1.258985
7.061215 8.054608 1.315214
6.427823 7.329527 -1.197001
6.815804 7.769208 1.636930
6.804909 7.754051 -0.902585
6.842668 7.797075 2.016470
6.801815 7.747797 -0.540316
6.833354 7.780991 2.390780
6.816779 7.759377 -0.180283
6.830392 7.772137 2.772470
3.720784 4.221888 -1.507880
6.836891 7.757662 0.180493
4.224440 4.791688 -1.474779
4.532942 5.137999 -1.331847
14.325438 16.231888 1.894068
5.260876 5.958898 -1.258985
7.105056 8.047768 1.318139
6.445483 7.298120 -1.195538
6.853347 7.757210 1.639433
6.847770 7.748163 -0.904677
6.894605 7.798420 2.023339
6.853981 7.749746 -0.542201
6.891533 7.789458 2.401128
6.855750 7.749013 -0.180597
6.909972 7.807561 2.793693
3.722676 4.194425 -1.502703
6.885196 7.754981 0.181016
4.247149 4.782001 -1.476579
9.727031 10.951976 0.767664
4.565194 5.138287 -1.336045
9.728311 10.945709 1.281189
5.273765 5.931643 -1.257107
8.926044 10.035991 1.649136
6.464273 7.265546 -1.194076
6.909272 7.765705 1.646316
6.886691 7.737612 -0.906245
6.943980 7.799232 2.029826
6.910218 7.758584 -0.544503
6.931639 7.779908 2.405627
6.912017 7.757886 -0.181365
6.926903 7.771854 2.789552
3.739867 4.184289 -1.503739
6.933522 7.757456 0.181610
4.260387 4.764985 -1.475679
9.754552 10.906044 0.766827
4.590958 5.131098 -1.338334
14.624439 16.339325 1.918472
5.288138 5.908234 -1.255856
8.918224 9.960491 1.641580
6.488332 7.244068 -1.194076
6.958746 7.766553 1.651635
6.936266 7.738746 -0.909209
6.981596 7.789320 2.033261
6.961243 7.763878 -0.546492
6.979523 7.781540 2.413275
6.965766 7.763477 -0.182064
6.984961 7.782129 2.801975
3.756307 4.174735 -1.504774
6.983304 7.758472 0.182203
4.266563 4.738497 -1.472080
4.625025 5.134812 -1.343295
14.851917 16.483162 1.941133
5.300796 5.880933 -1.253979
8.918375 9.890971 1.635243
6.516234 7.224328 -1.194563
7.002984 7.763971 1.656015
6.991257 7.748243 -0.913044
7.023216 7.780932 2.037459
7.012389 7.766219 -0.548376
7.035381 7.788942 2.423173
7.014262 7.765561 -0.182657
7.032745 7.783293 2.810775
3.763075 4.153006 -1.501668
7.026451 7.754534 0.182657
4.282252 4.724324 -1.472080
4.649518 5.125906 -1.345204
14.898657 16.419411 1.939738
5.325576 5.869175 -1.255230
8.920437 9.827538 1.629637
6.524144 7.185043 -1.191639
7.059264 7.771646 1.662899
7.037014 7.744441 -0.915484
7.080661 7.792476 2.046618
7.047511 7.753267 -0.549109
7.071658 7.777105 2.426772
7.056126 7.757303 -0.183041
7.084572 7.785846 2.820610
3.785363 4.148407 -1.504774
7.079090 7.755315 0.183285
4.296910 4.705720 -1.471180
4.691217 5.135736 -1.352073
15.434335 16.890919 2.001793
5.336389 5.837953 -1.252727
8.922915 9.758145 1.623544
6.545073 7.155224 -1.190664
7.105035 7.764666 1.666966
7.094941 7.753635 -0.919493
7.129064 7.788189 2.052342
7.101506 7.755373 -0.551098
7.126440 7.779875 2.435770
7.107479 7.756450 -0.183634
7.135251 7.784038 2.829410
3.784132 4.118101 -1.498562
7.135892 7.762944 0.184053
4.313311 4.690691 -1.471180
4.718416 5.129447 -1.354744
5.356736 5.819289 -1.252727
8.927338 9.694815 1.618181
6.564631 7.126493 -1.189689
7.161547 7.771775 1.673849
7.132766 7.740542 -0.920888
7.178826 7.787797 2.058829
7.154262 7.758432 -0.553086
7.173376 7.776437 2.442519
7.150782 7.749230 -0.184053
7.176795 7.774697 2.835104
3.797173 4.103448 -1.498045
7.179246 7.755599 0.184472
4.332305 4.678466 -1.472080
4.760308 5.138868 -1.361613
5.363586 5.786069 -1.249599
8.413116 9.072630 1.519223
6.589470 7.103533 -1.189689
7.210120 7.772601 1.679168
7.182780 7.740426 -0.923851
7.223329 7.781398 2.063790
7.204406 7.758290 -0.554866
7.224348 7.777050 2.450617
7.202297 7.753313 -0.184716
7.228837 7.779160 2.845457
3.820692 4.100062 -1.501668
7.224010 7.752232 0.184961
4.338496 4.654095 -1.468930
4.795626 5.140884 -1.366574
5.380051 5.765361 -1.248973
8.403875 9.002597 1.512155
6.607565 7.075843 -1.188714
7.258781 7.770484 1.684174
7.241045 7.748785 -0.927860
7.267861 7.777482 2.069133
7.245096 7.750408 -0.556017
7.279383 7.784363 2.460515
7.264838 7.766092 -0.185624
7.282349 7.782089 2.855809
3.822373 4.074688 -1.497009
7.286605 7.764879 0.185868
4.348046 4.631820 -1.466681
26.524023 28.245226 2.030635
4.834152 5.147851 -1.372680
15.802171 16.821724 2.019224
5.394731 5.740789 -1.247721
8.462440 9.002136 1.517030
6.615908 7.035380 -1.185789
7.318343 7.779632 1.691682
7.288541 7.747952 -0.930649
7.311110 7.769224 2.073712
7.302221 7.757065 -0.558320
7.326549 7.780188 2.467263
7.320695 7.771255 -0.186357
7.335966 7.784742 2.866162
3.851167 4.076767 -1.502703
7.335642 7.762649 0.186427
4.369541 4.622279 -1.468480
26.589531 28.117634 2.028123
4.850744 5.129517 -1.372298
15.879968 16.786722 2.021665
5.420166 5.727663 -1.248973
8.510190 8.989839 1.519955
6.634967 7.006476 -1.184814
7.356322 7.765513 1.694185
7.345685 7.754285 -0.934484
7.366545 7.773580 2.081726
7.362233 7.766315 -0.560832
7.371093 7.772950 2.473112
7.353285 7.751454 -0.186496
7.393682 7.791315 2.878068
3.845401 4.042305 -1.494939
7.390264 7.765969 0.187125
4.374901 4.595706 -1.464881
4.879450 5.123928 -1.375351
5.437403 5.705847 -1.248347
8.571651 8.991691 1.525317
6.651163 6.974655 -1.183351
7.412019 7.769801 1.700756
7.385088 7.741570 -0.936053
7.426163 7.781907 2.090885
7.397572 7.749238 -0.561460
7.430484 7.780995 2.483910
7.413451 7.760440 -0.187334
7.435513 7.780823 2.883762
3.855478 4.024673 -1.493386
7.431165 7.754561 0.187474
4.403052 4.593068 -1.468930
4.925841 5.136623 -1.383365
16.024361 16.704206 2.025151
5.443611 5.672578 -1.245219
8.635976 8.996085 1.531167
6.675470 6.951394 -1.183351
7.465099 7.770946 1.706700
7.445195 7.750226 -0.940236
7.469603 7.772926 2.095464
7.460566 7.760802 -0.564182
7.492721 7.791529 2.495607
7.468216 7.763343 -0.188032
7.497458 7.791011 2.897220
3.874869 4.016751 -1.495457
7.498452 7.770308 0.188486
4.409586 4.567855 -1.465781
4.957380 5.133518 -1.387182
5.457886 5.647861 -1.243967
8.675607 8.974446 1.532629
6.696930 6.925201 -1.182864
7.523767 7.777495 1.713896
7.497136 7.749967 -0.943374
7.519902 7.770787 2.101952
7.507061 7.754801 -0.565647
7.544272 7.790527 2.503705
7.524491 7.767386 -0.188765
7.551499 7.792537 2.907573
3.887519 4.001816 -1.494939
7.542255 7.761294 0.188905
4.418713 4.545447 -1.463532
4.986218 5.127443 -1.390234
15.704347 16.143505 1.970417
5.476192 5.627357 -1.243654
8.045001 8.264199 1.416122
6.721065 6.901780 -1.182864
7.578439 7.779483 1.720154
7.550560 7.750864 -0.946686
7.573014 7.771207 2.109203
7.561964 7.757158 -0.567740
7.594553 7.787861 2.511353
7.576690 7.766840 -0.189394
7.597538 7.785492 2.914820
3.909571 3.996506 -1.498045
7.593080 7.759214 0.189498
4.442729 4.538353 -1.466231
5.016450 5.122630 -1.393669
5.499946 5.612444 -1.244593
8.813089 8.990210 1.545791
6.728438 6.861267 -1.179939
7.623527 7.771318 1.724221
7.605469 7.752912 -0.950172
7.626223 7.771347 2.116454
7.614181 7.756368 -0.569625
7.646263 7.786337 2.519452
7.628982 7.766021 -0.190022
7.651752 7.786481 2.925173
3.911297 3.970448 -1.493386
7.650996 7.763999 0.190266
4.454441 4.518653 -1.464881
5.054979 5.126055 -1.399393
5.509792 5.583369 -1.242403
8.863944 8.979167 1.549203
6.755136 6.840566 -1.180427
7.675598 7.769955 1.729853
7.659091 7.753245 -0.953484
7.687804 7.779588 2.125994
7.662270 7.751049 -0.571195
7.704913 7.791466 2.529799
7.681360 7.764931 -0.190650
7.710136 7.791307 2.937079
3.926491 3.958145 -1.493904
7.697773 7.757114 0.190755
4.464694 4.497546 -1.463082
9.751128 9.822878 0.725376
5.089439 5.125099 -1.403973
5.520895 5.555693 -1.240525
8.926016 8.979149 1.554565
6.770577 6.808496 -1.178964
7.727789 7.771070 1.735797
7.719835 7.760361 -0.957667
7.735681 7.773585 2.131718
7.724508 7.759641 -0.573811
7.763693 7.796282 2.540147
7.742342 7.774842 -0.191523
7.757744 7.787597 2.945361
3.929362 3.933480 -1.489762
7.755958 7.764086 0.191558
4.475452 4.478579 -1.461732
9.754295 9.757703 0.723074
5.123958 5.123960 -1.408552
15.894398 15.888855 1.966233
5.544875 5.542942 -1.241777
8.969788 8.963530 1.557003
6.781880 6.774785 -1.177014
7.785617 7.774756 1.742680
7.772255 7.758704 -0.960805
7.790597 7.777014 2.139732
7.781298 7.765021 -0.576114
7.817098 7.798017 2.549145
7.799168 7.777422 -0.192256
7.819087 7.794565 2.958302
3.945125 3.923151 -1.490798
7.817047 7.770802 0.192395
4.482764 4.454689 -1.459033
9.731622 9.667289 0.718887
5.150673 5.116623 -1.411223
15.995063 15.883797 1.972160
5.559983 5.519379 -1.240838
8.972842 8.904197 1.552128
6.797030 6.742683 -1.175552
7.846370 7.780917 1.750189
7.840381 7.774977 -0.966034
7.848372 7.780178 2.148128
7.831053 7.760308 -0.577789
7.855341 7.781659 2.552745
7.851847 7.775476 -0.192884
7.868213 7.788971 2.966584
3.960169 3.910714 -1.491315
7.869742 7.768753 0.193024
4.503836 4.444488 -1.460832
9.734024 9.602404 0.716584
5.165706 5.095857 -1.410460
9.754521 9.619267 1.198566
5.576403 5.497162 -1.240213
9.054768 8.922983 1.560903
6.817699 6.716128 -1.175064
7.893190 7.772883 1.754569
7.905804 7.785305 -0.970741
7.897867 7.774774 2.154234
7.892262 7.766544 -0.580301
7.924136 7.795189 2.566242
7.897473 7.766249 -0.193338
7.918775 7.784479 2.975384
3.960002 3.883342 -1.486139
7.923946 7.767830 0.193687
4.527673 4.436924 -1.463532
9.733239 9.534826 0.714072
5.176448 5.070926 -1.408552
9.714020 9.512668 1.189502
5.595557 5.477664 -1.240213
9.111396 8.916316 1.565290
6.832589 6.683958 -1.173602
7.951344 7.775670 1.761452
7.957147 7.781344 -0.973704
7.957248 7.778720 2.163011
7.945038 7.764072 -0.582185
7.980569 7.796079 2.575690
7.948859 7.762384 -0.193931
7.980462 7.790525 2.988325
3.970764 3.866801 -1.485104
7.978236 7.766628 0.194350
4.540340 4.418373 -1.462632
9.743555 9.478512 0.712397
5.220855 5.078837 -1.415803
9.724310 9.456478 1.186713
5.603313 5.447083 -1.237710
9.128230 8.870619 1.562853
6.844486 6.649004 -1.171652
8.006783 7.775388 1.767710
8.021425 7.789608 -0.978236
8.016751 7.782351 2.171788
8.002190 7.765502 -0.584383
8.028717 7.788525 2.582438
8.008922 7.766610 -0.194734
8.033960 7.788170 2.998160
3.993960 3.862316 -1.488727
8.036926 7.769310 0.195118
4.544525 4.391665 -1.459033
9.740672 9.409749 0.709780
5.224432 5.046940 -1.411987
9.719999 9.386490 1.182181
5.623713 5.428863 -1.238023
9.079145 8.761510 1.549203
6.879085 6.636095 -1.173602
8.067999 7.780303 1.775218
8.088721 7.800287 -0.983117
8.074962 7.784298 2.180184
8.053698 7.761081 -0.586163
8.088137 7.791546 2.592786
8.067671 7.769124 -0.195502
8.088934 7.786872 3.008513
4.008811 3.849688 -1.489245
8.095733 7.771676 0.195886
4.545767 4.362280 -1.454533
9.733106 9.336973 0.706850
5.259020 5.044981 -1.416566
9.718185 9.319413 1.177997
5.639779 5.406464 -1.237397
9.230068 8.845134 1.569677
6.879267 6.590076 -1.169702
8.119365 7.775317 1.780537
8.160512 7.814721 -0.988520
8.130450 7.783213 2.187816
8.106708 7.757782 -0.588047
8.149079 7.795597 2.603584
8.126537 7.771318 -0.196270
8.155160 7.795973 3.023006
4.013836 3.827672 -1.486139
8.151761 7.770963 0.196584
4.563789 4.349074 -1.455433
9.733821 9.272636 0.704547
5.259539 5.010344 -1.411987
9.718918 9.255203 1.174162
5.655756 5.384019 -1.236771
9.332786 8.881286 1.581864
6.893601 6.557811 -1.168240
8.179381 7.778234 1.787733
8.207955 7.805407 -0.990961
8.180333 7.776429 2.193922
8.175727 7.769334 -0.591082
8.208739 7.797972 2.613931
8.186965 7.774577 -0.197073
8.215952 7.799378 3.035430
4.032784 3.818950 -1.488210
8.207884 7.769953 0.197282
4.584601 4.338478 -1.457233
9.735663 9.209777 0.702349
5.282702 4.997350 -1.413513
9.716425 9.188365 1.169979
5.677383 5.366962 -1.237397
9.402688 8.885464 1.588445
6.925110 6.541885 -1.169702
8.238073 7.779479 1.794616
8.252530 7.793130 -0.993053
8.238839 7.777474 2.202317
8.233303 7.769532 -0.593280
8.268507 7.800033 2.624279
8.250427 7.780248 -0.197945
8.262809 7.789201 3.042677
4.030607 3.790295 -1.482516
8.267008 7.771389 0.198050
4.605399 4.327785 -1.459033
9.742998 9.152495 0.700569
5.285802 4.965441 -1.409697
9.728104 9.135300 1.167538
5.683122 5.334942 -1.234581
9.733291 9.133771 1.638899
6.945006 6.514957 -1.169215
8.295441 7.779049 1.801187
8.311658 7.794256 -0.996887
8.304611 7.784918 2.212621
8.296807 7.774889 -0.595897
8.315597 7.789772 2.630578
8.297972 7.770535 -0.198434
8.320973 7.789357 3.054065
4.045227 3.777520 -1.483033
8.321860 7.768408 0.198713
4.600531 4.293070 -1.452734
9.745681 9.091181 0.698476
5.317460 4.960350 -1.413513
9.736621 9.079543 1.164749
5.701708 5.315073 -1.234581
9.741871 9.078094 1.634999
6.964802 6.487967 -1.168727
8.354347 7.779664 1.808070
8.384014 7.807290 -1.002291
8.356159 7.778628 2.219109
8.357527 7.777172 -0.598305
8.399814 7.813787 2.648574
8.366042 7.779657 -0.199411
8.387733 7.797090 3.068559
4.063397 3.769339 -1.485104
8.384232 7.774764 0.199586
4.616170 4.279117 -1.453184
9.736223 9.022157 0.695650
5.336761 4.945356 -1.414276
9.787136 9.066163 1.167190
5.723650 5.300164 -1.235520
9.734049 9.010674 1.628662
6.980450 6.459444 -1.167752
8.414904 7.784108 1.815579
8.446424 7.813265 -1.006649
8.416505 7.782864 2.228267
8.418468 7.781954 -0.600817
8.439990 7.799117 2.653073
8.419705 7.777649 -0.200074
8.447605 7.800689 3.080982
4.079372 3.757749 -1.486139
8.442209 7.773897 0.200319
4.638248 4.269575 -1.455433
9.732386 8.955656 0.693137
5.333766 4.908085 -1.408934
9.293766 8.549055 1.104786
5.736301 5.274802 -1.234268
9.267089 8.518538 1.545547
6.991260 6.424294 -1.165802
8.466753 7.777405 1.820897
8.505924 7.813387 -1.010484
8.479774 7.786631 2.237808
8.475006 7.779535 -0.602910
8.491570 7.792009 2.660721
8.477752 7.776597 -0.200807
8.500410 7.794657 3.090300
4.078207 3.730450 -1.480963
8.510616 7.782163 0.201296
4.644495 4.245468 -1.452734
9.303558 8.504253 0.660585
5.356663 4.894735 -1.410460
9.285307 8.481623 1.100254
5.745928 5.246753 -1.232391
9.268909 8.460712 1.540916
7.003731 6.393044 -1.164340
8.523142 7.777245 1.827468
8.553757 7.802445 -1.012924
8.551874 7.797994 2.249638
8.537539 7.782194 -0.605422
8.559131 7.801875 2.673768
8.536010 7.778073 -0.201575
8.553349 7.791141 3.100135
4.090557 3.716905 -1.480963
8.557097 7.772723 0.201785
4.655662 4.227424 -1.451834
9.306569 8.450532 0.658805
5.372864 4.876946 -1.410460
9.283870 8.424009 1.096768
5.763294 5.227671 -1.232391
9.276325 8.411262 1.537504
7.016067 6.361784 -1.162877
8.588403 7.784760 1.835915
8.623878 7.814168 -1.018153
8.600965 7.790681 2.255744
8.610673 7.796739 -0.608772
8.618177 7.803535 2.684116
8.594375 7.779245 -0.202343
8.620679 7.800324 3.115146
4.102861 3.703318 -1.480963
8.619945 7.777792 0.202657
4.669653 4.211963 -1.451834
9.313763 8.397929 0.657235
5.380260 4.851213 -1.408170
9.293997 8.377168 1.094676
5.793805 5.220432 -1.235207
9.262870 8.343253 1.530679
7.047085 6.345222 -1.164340
8.649290 7.785131 1.843111
8.680722 7.810673 -1.021640
8.658862 7.791004 2.264140
8.660242 7.789510 -0.610447
8.691734 7.815100 2.698513
8.661631 7.785291 -0.203286
8.676597 7.796006 3.125499
4.110651 3.683100 -1.478892
8.679805 7.777014 0.203425
4.681426 4.193036 -1.450934
9.313259 8.338724 0.655142
5.400929 4.834080 -1.408934
9.299396 8.320464 1.091713
5.801122 5.188625 -1.232704
9.265302 8.287049 1.526292
7.039592 6.294124 -1.159465
8.720600 7.794381 1.852497
8.745075 7.813512 -1.025997
8.725429 7.793220 2.274062
8.712569 7.779001 -0.612121
8.752308 7.811737 2.708411
