# This PCD file was generated using the MATLAB® pcwrite function
# from Computer Vision Toolbox®.
# .PCD v.7 - Point Cloud Data file format
VERSION .7
FIELDS x y z
SIZE 4 4 4
TYPE F F F
COUNT 1 1 1
WIDTH 1621
HEIGHT 1
VIEWPOINT 0 0 0 1 0 0 0
POINTS 1621
DATA ascii
-1.882130 -8.892878 1.766891
-1.879058 -8.870723 -0.475211
-1.864021 -8.792167 2.074948
-1.867765 -8.794693 2.409088
-1.896308 -8.868138 0.158293
-1.899180 -8.866436 0.475211
-1.902776 -8.875658 0.794163
-0.140072 -0.652819 -0.105750
-1.906812 -8.879364 1.115105
-0.194799 -0.906340 -0.113826
-1.908043 -8.870006 1.437007
-1.826848 -8.492552 -0.759998
-1.903244 -8.840192 1.757733
-1.909590 -8.862156 -0.475106
-1.898398 -8.802752 2.078998
-1.923455 -8.911393 -0.159131
-1.897229 -8.782454 2.407535
-1.924701 -8.849741 0.158084
-1.933095 -8.873413 0.475943
-1.933322 -8.867016 0.793989
-1.938643 -8.876533 1.115592
-1.957996 -8.957645 -1.125829
-1.936459 -8.851713 1.435130
-1.922479 -8.787809 -0.787016
-1.939128 -8.856508 1.762312
-1.943507 -8.869093 -0.475839
-1.929531 -8.797975 2.079448
-1.954551 -8.904624 -0.159131
-1.927874 -8.775778 2.407535
-1.957741 -8.852731 0.158258
-1.963803 -8.872805 0.476257
-1.967281 -8.873829 0.795209
-0.116385 -0.524546 -0.085100
-1.967034 -8.858085 1.114130
-1.966659 -8.849099 1.435756
-1.970879 -8.860785 -0.794163
-1.967898 -8.840104 1.760404
-1.971847 -8.850559 -0.475211
-1.960655 -8.793087 2.079897
-1.976235 -8.862963 -0.158503
-1.960331 -8.784422 2.411676
-1.987963 -8.850092 0.158328
-1.994326 -8.863947 0.476153
-1.999557 -8.872738 0.795732
-1.997272 -8.855386 1.114617
-1.729569 -7.662230 -0.964474
-2.000147 -8.853742 1.437633
-1.725869 -7.633434 -0.684695
-1.999801 -8.845019 1.762694
-1.987649 -8.777034 2.077648
-2.008486 -8.861861 -0.158607
-1.991837 -8.781293 2.412711
-2.020178 -8.848947 0.158433
-2.024809 -8.854984 0.476048
-2.031192 -8.875770 0.796603
-2.029057 -8.852230 1.115105
-1.742101 -7.594233 -0.956674
-2.029716 -8.840929 1.436694
-1.748934 -7.611829 -0.683301
-2.033300 -8.849464 1.764983
-1.765731 -7.678788 -0.412931
-2.019587 -8.775741 2.078998
-2.035368 -8.837258 -0.158293
-2.024647 -8.783699 2.415299
-2.054218 -8.855477 0.158677
-2.058869 -8.861481 0.476781
-2.060549 -8.854682 0.795383
-0.121872 -0.523298 -0.085100
-2.060395 -8.847027 1.115348
-1.769500 -7.591971 -0.957162
-2.061461 -8.837639 1.437320
-1.771872 -7.590156 -0.681907
-2.066168 -8.843864 1.765365
-1.789315 -7.652817 -0.411884
-2.055290 -8.783459 2.082597
-2.066204 -8.830100 -0.158293
-2.053093 -8.767174 2.412711
-2.084825 -8.840104 0.158538
-2.092254 -8.857763 0.476990
-2.090527 -8.843558 0.795035
-0.178270 -0.753548 -0.122645
-2.096466 -8.854868 1.117298
-1.816536 -7.666563 -0.967399
-2.096118 -8.839634 1.438884
-1.799274 -7.587802 -0.682255
-2.094760 -8.827047 1.763457
-1.820634 -7.665956 -0.412931
-2.087289 -8.781919 2.083947
-2.099479 -8.826358 -0.158363
-2.086108 -8.763348 2.413746
-2.117068 -8.838606 0.158642
-2.121762 -8.844579 0.476676
-2.122781 -8.842018 0.795558
-2.126899 -8.845567 1.117054
-2.128348 -8.838024 1.439823
-0.166062 -0.689577 -0.062055
-2.126020 -8.821589 1.763838
-1.846445 -7.655671 -0.412721
-2.117931 -8.774580 2.083947
-2.134501 -8.836470 -0.158677
-2.117592 -8.759768 2.414782
-2.148852 -8.835050 0.158712
-2.149314 -8.823535 0.475943
-2.158350 -8.853911 0.797301
-2.156821 -8.834231 1.116567
-2.161063 -8.838217 1.441074
-2.160533 -8.829370 1.766891
-1.864605 -7.614261 -0.410837
-2.148548 -8.767134 2.083947
-2.165810 -8.830908 -0.158712
-2.151381 -8.765457 2.418405
-2.180637 -8.831377 0.158782
-2.186813 -8.843122 0.477409
-2.188764 -8.844390 0.797126
-2.190510 -8.838211 1.118029
-2.189996 -8.822950 1.439823
-2.094623 -8.438714 -0.760695
-2.191339 -8.821775 1.766891
-2.099805 -8.446977 -0.456160
-2.179138 -8.759581 2.083947
-2.194690 -8.815532 -0.158573
-2.184299 -8.767265 2.420993
-2.211938 -8.825651 0.158817
-2.216611 -8.837759 0.477513
-2.217683 -8.828965 0.796429
-2.199793 -8.751277 -1.429186
-2.223769 -8.840135 1.119248
-0.270895 -1.076093 -0.136250
-2.220690 -8.821386 1.440762
-2.117740 -8.406235 -0.758429
-2.222600 -8.815977 1.767273
-2.133186 -8.455088 -0.456998
-2.213039 -8.765145 2.087096
-2.223911 -8.808206 -0.158573
-2.212415 -8.756227 2.419958
-2.239715 -8.812454 0.158712
-2.250897 -8.843517 0.478246
-2.252916 -8.838547 0.797998
-1.806265 -7.086262 -1.158241
-2.256016 -8.844254 1.120710
-0.272498 -1.067495 -0.135275
-2.253912 -8.823151 1.442326
-2.152498 -8.420024 -0.760347
-2.251823 -8.808558 1.767273
-2.247839 -8.786583 -0.475315
-2.243062 -8.761534 2.087996
-2.257622 -8.812012 -0.158782
-2.240566 -8.739096 2.417370
-2.271461 -8.808455 0.158782
-2.282751 -8.839474 0.478455
-2.283211 -8.834886 0.798347
-1.838904 -7.110513 -1.163247
-2.284387 -8.826716 1.119492
-0.297126 -1.147248 -0.145512
-2.288167 -8.828614 1.444516
-2.277382 -8.787001 -0.794163
-2.282064 -8.798743 1.766891
-2.286022 -8.807680 -0.476885
-2.274610 -8.757422 2.088896
-2.288871 -8.806012 -0.158817
-2.273004 -8.738700 2.419441
-2.307255 -8.819818 0.159131
-2.311062 -8.821791 0.477932
-2.313026 -8.823007 0.797998
-1.854690 -7.069658 -1.157615
-2.315688 -8.820608 1.119736
-0.278935 -1.061727 -0.134787
-2.320477 -8.826304 1.445455
-2.321211 -8.829098 -0.798695
-2.314262 -8.796420 1.768036
-2.319805 -8.811235 -0.477513
-2.303675 -8.743777 2.087546
-2.324184 -8.815372 -0.159131
-2.304972 -8.736316 2.420993
-2.335978 -8.803979 0.158991
-2.342868 -8.817531 0.478141
-2.345858 -8.822581 0.798695
-1.887482 -7.093684 -1.162621
-2.349529 -8.823980 1.121198
-0.312283 -1.172000 -0.148924
-2.349237 -8.810516 1.444203
-2.354070 -8.828643 -0.799393
-2.350014 -8.807257 1.771852
-2.353123 -8.812733 -0.478037
-2.335190 -8.739448 2.088446
-2.354425 -8.805273 -0.159096
-2.339447 -8.743147 2.425135
-2.371370 -8.813149 0.159306
-2.375710 -8.817014 0.478560
-2.371972 -8.797027 0.797126
-1.913263 -7.090867 -1.163247
-2.378764 -8.809976 1.120467
-0.291518 -1.078917 -0.137225
-2.378946 -8.798448 1.443577
-2.383314 -8.814601 -0.798869
-2.381256 -8.800895 1.772234
-2.384915 -8.808320 -0.478246
-2.368739 -8.742529 2.091145
-2.386193 -8.800861 -0.159166
-2.364389 -8.714418 2.419441
-2.400015 -8.797103 0.159166
-2.408052 -8.814446 0.478874
-2.411072 -8.819443 0.799915
-1.950512 -7.129874 -1.170756
-2.411598 -8.809278 1.121442
-0.294234 -1.074064 -0.136737
-2.413821 -8.805331 1.446080
-2.414594 -8.808149 -0.799044
-2.408846 -8.781169 1.769944
-2.418291 -8.809572 -0.478769
-2.401823 -8.743603 2.093395
-2.416899 -8.792480 -0.159166
-2.395818 -8.709837 2.420476
-2.431241 -8.790598 0.159201
-2.438806 -8.805987 0.478874
-2.441843 -8.810973 0.799915
-1.974332 -7.119215 -1.170130
-2.441272 -8.796981 1.120954
-2.448118 -8.815681 -1.123392
-2.445602 -8.800658 1.446706
-2.449061 -8.813105 -0.800264
-2.442114 -8.782165 1.771852
-2.447420 -8.795304 -0.478455
-2.433375 -8.738919 2.094294
-2.449723 -8.791693 -0.159306
-2.430356 -8.716308 2.424617
-2.467308 -8.801312 0.159550
-2.471149 -8.803188 0.479188
-2.472044 -8.800478 0.799741
-1.990619 -7.081852 -1.165124
-2.474114 -8.796048 1.121929
-2.478877 -8.807082 -1.123392
-2.478449 -8.799674 1.447958
-2.481429 -8.810256 -0.800787
-2.472221 -8.771697 1.771471
-2.478650 -8.788630 -0.478560
-2.463864 -8.730372 2.094294
-2.482570 -8.790787 -0.159445
-2.463920 -8.718925 2.427723
-2.499656 -8.798417 0.159655
-2.501862 -8.794510 0.479188
-2.506023 -8.803292 0.800787
-2.482899 -8.716290 -1.435443
-2.506980 -8.794995 1.122904
-2.511782 -8.806011 -1.124367
-2.505355 -8.777673 1.445768
-2.512168 -8.801540 -0.800787
-2.509834 -8.787555 1.776432
-2.510959 -8.785686 -0.478874
-2.494324 -8.721719 2.094294
-2.514342 -8.785912 -0.159515
-2.495403 -8.713987 2.428758
-2.531459 -8.793482 0.159724
-2.535865 -8.797237 0.479816
-2.536736 -8.794492 0.800787
-2.516598 -8.718957 -1.437320
-2.540419 -8.795726 1.124123
-2.584944 -8.944033 -1.143134
-2.539273 -8.780259 1.447645
-2.561695 -8.857792 -0.806714
-2.538857 -8.773084 1.775287
-2.543833 -8.784540 -0.479293
-2.529092 -8.727933 2.097893
-2.543881 -8.773241 -0.159445
-2.529575 -8.718209 2.432382
-2.562697 -8.786511 0.159759
-2.568798 -8.796001 0.480235
-0.159605 -0.546515 -0.110669
-2.568538 -8.789407 0.801136
-2.541472 -8.691159 -1.434191
-2.572778 -8.792521 1.124854
-2.621728 -8.954005 -1.145572
-2.572682 -8.780821 1.449209
-2.594839 -8.856444 -0.807411
-2.568359 -8.760400 1.774524
-2.579543 -8.792856 -0.480235
-2.558446 -8.715312 2.096994
-2.577871 -8.775820 -0.159655
-2.564349 -8.724154 2.436523
-2.592221 -8.773677 0.159690
-2.600053 -8.788896 0.480339
-2.603161 -8.793760 0.802356
-2.575161 -8.693599 -1.436069
-2.602326 -8.779680 1.124367
-2.663691 -8.980960 -1.150203
-2.606690 -8.783149 1.451086
-2.626872 -8.851153 -0.807759
-2.603395 -8.766436 1.777577
-2.604529 -8.764652 -0.479188
-2.591073 -8.713801 2.098794
-2.611911 -8.778267 -0.159864
-2.592581 -8.707744 2.434452
-2.625123 -8.772238 0.159829
-2.626703 -8.766375 0.479607
-2.634984 -8.788437 0.802704
-2.602086 -8.673204 -1.434191
-2.635241 -8.778148 1.125342
-2.693882 -8.967803 -1.149715
-2.639607 -8.781563 1.452338
-2.648002 -8.809492 -0.804796
-2.636807 -8.766696 1.779485
-2.637987 -8.765070 -0.479711
-2.620350 -8.700971 2.097893
-2.643114 -8.771011 -0.159899
-2.628539 -8.717137 2.439628
-2.659789 -8.776417 0.160073
-2.664826 -8.781997 0.480967
-2.666226 -8.781093 0.802879
-2.643830 -8.701871 -1.440449
-2.665865 -8.768896 1.125342
-2.716504 -8.929859 -1.146059
-2.667944 -8.764736 1.451086
-2.670615 -8.773510 -0.802356
-2.670252 -8.766829 1.781393
-2.670895 -8.763451 -0.480130
-2.655254 -8.706682 2.101493
-2.676050 -8.769382 -0.160039
-2.658387 -8.706061 2.439111
-2.693340 -8.776638 0.160248
-2.695465 -8.772641 0.480967
-2.695104 -8.766019 0.802356
-2.679997 -8.711469 -1.443577
-2.702300 -8.778508 1.127779
-2.747657 -8.920322 -1.146059
-2.700267 -8.761034 1.452025
-2.700636 -8.762231 -0.802181
-2.704310 -8.768711 1.783683
-2.703824 -8.761708 -0.480549
-2.687930 -8.704808 2.103292
-2.704282 -8.752345 -0.159899
-2.687619 -8.693036 2.438075
-2.722179 -8.761455 0.160143
-2.728444 -8.770808 0.481386
-2.728056 -8.764168 0.803053
-2.706865 -8.690744 -1.441700
-2.735287 -8.776603 1.128754
-2.792963 -8.956159 -1.151909
-2.733775 -8.760983 1.453589
-2.733580 -8.760359 -0.802879
-2.729635 -8.742352 1.780248
-2.739158 -8.767468 -0.481386
-2.719462 -8.699093 2.104192
-2.736607 -8.748577 -0.160004
-2.720833 -8.692821 2.440664
-2.755747 -8.761436 0.160318
-2.760842 -8.766946 0.481700
-2.760428 -8.760292 0.803576
-2.732434 -8.666172 -1.439197
-2.764115 -8.761323 1.128023
-2.817037 -8.923638 -1.148984
-2.767315 -8.760805 1.455153
-2.776745 -8.790660 -0.806539
-2.765462 -8.749618 1.783683
-2.765529 -8.744523 -0.480653
-2.753926 -8.702554 2.107341
-2.773167 -8.758037 -0.160353
-2.755244 -8.696162 2.444287
-2.788739 -8.759385 0.160457
-2.791429 -8.757255 0.481700
-2.792201 -8.754399 0.803925
-2.773477 -8.690454 -1.444829
-2.796493 -8.757294 1.128754
-2.855420 -8.936442 -1.151909
-2.799684 -8.756738 1.456092
-2.798312 -8.752447 -0.803925
-2.793593 -8.732431 1.782156
-2.799690 -8.746229 -0.481281
-2.777749 -8.672473 2.102393
-2.804941 -8.752110 -0.160423
-2.785582 -8.686491 2.444287
-2.819912 -8.751501 0.160492
-2.824433 -8.755061 0.482119
-2.827639 -8.759768 0.805319
-2.743081 -8.492744 -1.413542
-2.829486 -8.755034 1.129729
-2.758330 -8.529774 -1.100724
-2.829018 -8.743153 1.455467
-2.830688 -8.748313 -0.804447
-2.830104 -8.741306 1.785972
-2.835127 -8.751604 -0.482119
-2.814615 -8.683115 2.107341
-2.834857 -8.740364 -0.160388
-2.817080 -8.680390 2.445323
-2.855403 -8.756814 0.160772
-2.856215 -8.748946 0.482328
-2.859437 -8.753632 0.805668
-2.760435 -8.445564 -1.407285
-2.860030 -8.745104 1.129729
-2.751662 -8.408783 -1.086343
-2.860748 -8.736979 1.456092
-2.861207 -8.738379 -0.804447
-2.860601 -8.731373 1.785972
-2.868146 -8.749246 -0.482538
-2.846121 -8.676941 2.108241
-2.869092 -8.741817 -0.160597
-2.846158 -8.666833 2.444287
-2.886578 -8.748693 0.160806
-2.889244 -8.746508 0.482747
-2.888100 -8.737923 0.805145
-2.855647 -8.634678 -1.440449
-2.894280 -8.746375 1.131191
-2.941356 -8.883437 -1.148984
-2.894335 -8.736316 1.457657
-2.892945 -8.732121 -0.804796
-2.894150 -8.730653 1.787880
-2.901185 -8.746764 -0.482956
-2.879462 -8.676200 2.110491
-2.903369 -8.743134 -0.160806
-2.876393 -8.656845 2.444287
-2.919632 -8.746149 0.160946
-2.923555 -8.747735 0.483375
-2.923638 -8.742904 0.806539
-2.902067 -8.673363 -1.448583
-2.924792 -8.736218 1.131191
-2.988741 -8.922055 -1.155321
-2.928580 -8.737397 1.459534
-2.927841 -8.735192 -0.806016
-2.928978 -8.733526 1.790552
-2.930429 -8.732796 -0.482747
-2.914072 -8.679029 2.113640
-2.935146 -8.736737 -0.160876
-2.909055 -8.654077 2.446358
-2.948865 -8.732116 0.160876
-2.954714 -8.739368 0.483480
-2.957969 -8.743969 0.807585
-2.961457 -8.749251 -1.462975
-2.956544 -8.729716 1.131679
-3.019867 -8.911568 -1.155321
-2.962232 -8.736474 1.461098
-2.986464 -8.807942 -0.813686
-2.961338 -8.728827 1.791697
-2.963462 -8.730078 -0.483166
-2.942468 -8.663268 2.112290
-2.972059 -8.745373 -0.161225
-2.940490 -8.647528 2.447393
-2.985792 -8.740693 0.161225
-2.986262 -8.737082 0.483898
-2.989763 -8.737361 0.807934
-0.362160 -1.057783 -0.177084
-2.992145 -8.734366 1.133629
-3.050688 -8.905261 -1.155809
-2.990546 -8.724734 1.460785
-3.017193 -8.797464 -0.813686
-2.996249 -8.731435 1.794368
-2.998458 -8.732903 -0.483898
-2.973080 -8.658993 2.113640
-2.999094 -8.729795 -0.161121
-2.972918 -8.648690 2.450499
-3.014760 -8.730744 0.161225
-3.014567 -8.725244 0.483794
-3.018720 -8.727399 0.807934
-0.351453 -1.015508 -0.170201
-3.023041 -8.730023 1.134360
-3.087997 -8.917604 -1.158734
-3.020109 -8.716637 1.461098
-2.943890 -8.491861 -0.786319
-3.028404 -8.730725 1.796276
-3.030021 -8.730459 -0.484317
-3.004334 -8.656449 2.115440
-3.031962 -8.731136 -0.161330
-3.002849 -8.642433 2.451534
-3.043696 -8.720698 0.161225
-3.050275 -8.729752 0.484631
-3.057508 -8.745551 0.810548
-3.056566 -8.733067 1.136066
-3.110577 -8.882416 -1.155565
-3.055744 -8.720955 1.463601
-3.032648 -8.655040 -0.802356
-3.055392 -8.715075 1.795131
-3.062920 -8.731673 -0.484945
-3.041631 -8.666137 2.120389
-3.063083 -8.722386 -0.161365
-3.039404 -8.650126 2.456711
-3.076115 -8.715677 0.161330
-3.082059 -8.722817 0.484840
-3.087354 -8.732946 0.810374
-3.083719 -8.712988 1.134847
-3.097830 -8.748002 -1.139478
-3.089464 -8.719545 1.465165
-3.125388 -8.820933 -0.818741
-3.089073 -8.713610 1.797039
-3.089376 -8.709633 -0.484317
-3.072515 -8.657302 2.120839
-3.098865 -8.726715 -0.161644
-3.072166 -8.646745 2.458781
-3.111225 -8.718070 0.161574
-3.112489 -8.712006 0.484840
-3.118489 -8.723992 0.810548
-3.117458 -8.711515 1.136066
-3.123881 -8.719865 1.467043
-3.124109 -8.715711 1.799711
-3.121107 -8.702557 -0.484526
-3.104033 -8.650193 2.121738
-3.130660 -8.719609 -0.161714
-3.106248 -8.646876 2.461887
-3.145709 -8.718444 0.161784
-3.144238 -8.704844 0.485050
-3.154508 -8.723746 0.811594
-0.360221 -0.995642 -0.167698
-3.150550 -8.708047 1.137041
-3.152954 -8.705194 1.466417
-2.720720 -7.507720 -0.698640
-3.156033 -8.704202 1.799711
-2.730678 -7.526994 -0.419630
-3.137045 -8.642423 2.122638
-3.159030 -8.702989 -0.161609
-3.142349 -8.652324 2.466546
-3.181071 -8.716248 0.161958
-3.184347 -8.715775 0.486306
-3.184940 -8.712682 0.811594
-0.412548 -1.127952 -0.190224
-3.186538 -8.707626 1.138503
-3.188236 -8.702853 1.467981
-2.744169 -7.490693 -0.697943
-3.190450 -8.704191 1.802000
-2.751434 -7.502415 -0.418792
-3.173907 -8.649714 2.127137
-3.193664 -8.698861 -0.161749
-3.170043 -8.629869 2.463440
-3.210093 -8.701338 0.161889
-3.217518 -8.712099 0.486724
-3.220859 -8.716462 0.812989
-0.387713 -1.048687 -0.177084
-3.221046 -8.707621 1.139966
-2.803640 -7.575160 -0.991773
-3.221340 -8.699080 1.469233
-2.768225 -7.475464 -0.697420
-3.218767 -8.687480 1.800855
-2.777606 -7.492765 -0.418792
-3.204081 -8.638582 2.127137
-3.229575 -8.702658 -0.162028
-3.204855 -8.631428 2.467063
-3.241145 -8.691954 0.161923
-3.249184 -8.708867 0.487143
-3.254053 -8.712632 0.813686
-0.395520 -1.058430 -0.178961
-3.250032 -8.692605 1.139478
-0.433308 -1.158319 -0.151849
-3.254321 -8.699450 1.471110
-2.795000 -7.467621 -0.697595
-3.253205 -8.687222 1.803145
-2.797437 -7.466191 -0.417850
-3.240371 -8.643767 2.131186
-3.264031 -8.706881 -0.162307
-3.238209 -8.633413 2.470687
-3.274886 -8.694257 0.162168
-3.278154 -8.693736 0.486934
-3.286557 -8.706812 0.814209
-2.907600 -7.702873 -1.304038
-3.283048 -8.692923 1.140941
-0.420306 -1.112309 -0.145999
-3.288162 -8.697277 1.472674
-2.833739 -7.491361 -0.700732
-3.282690 -8.678223 1.803527
-2.828542 -7.473685 -0.418792
-3.264877 -8.622040 2.128487
-3.294405 -8.695433 -0.162307
-3.271749 -8.631090 2.473275
-3.308770 -8.692117 0.162342
-3.311326 -8.689704 0.487352
-3.321090 -8.710760 0.815603
-3.316203 -8.688828 1.141916
-0.418521 -1.095999 -0.144050
-3.318501 -8.685746 1.472674
-3.317168 -8.677714 1.805817
-2.880299 -7.530923 -0.422561
-3.301919 -8.628791 2.132986
-3.326167 -8.687616 -0.162377
-3.305314 -8.628636 2.475863
-3.344836 -8.695445 0.162622
-3.347379 -8.693003 0.488190
-3.350044 -8.695395 0.815255
-3.353655 -8.695721 1.144353
-0.442354 -1.146387 -0.150874
-3.349511 -8.675952 1.472987
-3.348938 -8.674467 -0.813512
-3.351682 -8.677072 1.808106
-3.364478 -8.705674 -0.489132
-3.335533 -8.626301 2.135236
-3.359357 -8.683413 -0.162517
-3.331926 -8.608039 2.473275
-3.373719 -8.679989 0.162552
-3.384222 -8.698018 0.489132
-3.384712 -8.694788 0.816301
-3.385431 -8.687659 1.144841
-0.436258 -1.118943 -0.147462
-3.385518 -8.678930 1.475490
-3.382092 -8.670149 -0.814209
-3.380524 -8.661660 1.807343
-3.394845 -8.693877 -0.489132
-3.367752 -8.620050 2.136585
-3.390377 -8.673496 -0.162552
-3.365471 -8.605351 2.475863
-3.406920 -8.675605 0.162691
-3.417486 -8.693587 0.489551
-3.416501 -8.686629 0.816649
-2.967126 -7.540206 -1.283388
-3.416462 -8.677637 1.145085
-0.453257 -1.150659 -0.151849
-3.423036 -8.685438 1.478619
-3.434253 -8.713900 -0.819438
-3.414338 -8.658939 1.809251
-3.421508 -8.672685 -0.488609
-3.403545 -8.622744 2.140184
-3.425039 -8.672768 -0.162761
-3.401169 -8.607924 2.480004
-3.443084 -8.678529 0.162971
-3.448548 -8.683461 0.489655
-3.451216 -8.685760 0.817695
-0.437849 -1.101385 -0.187721
-3.447465 -8.667504 1.145328
-0.448463 -1.126937 -0.148924
-3.453333 -8.673436 1.478619
-3.512620 -8.817863 -0.830420
-3.445997 -8.650615 1.810014
-3.448802 -8.653266 -0.488190
-3.433623 -8.610811 2.140184
-3.458257 -8.668188 -0.162901
-3.429762 -8.592411 2.478969
-3.476331 -8.673883 0.163110
-3.480326 -8.675077 0.489865
-3.487482 -8.684145 0.818741
-0.452194 -1.125434 -0.192102
-3.484361 -8.671994 1.147522
-0.452394 -1.125365 -0.148924
-3.481376 -8.655830 1.477680
-3.505445 -8.711282 -0.821530
-3.483545 -8.652498 1.813067
-3.487957 -8.659094 -0.489237
-3.469530 -8.609012 2.142884
-3.489987 -8.659774 -0.162971
-3.467681 -8.600096 2.484663
-3.516357 -8.681471 0.163494
-3.515100 -8.669667 0.490283
-3.515528 -8.666380 0.818218
-0.447205 -1.101885 -0.188347
-3.517616 -8.662844 1.148009
-0.456515 -1.123699 -0.148924
-3.520516 -8.661313 1.480809
-3.522327 -8.665770 -0.818392
-3.516685 -8.647559 1.814594
-3.521173 -8.654266 -0.489655
-3.505437 -8.611289 2.146483
-3.520950 -8.645072 -0.162936
-3.498450 -8.585539 2.484145
-3.540583 -8.654337 0.163215
-3.548368 -8.664738 0.490702
-3.550290 -8.665117 0.819264
-0.428571 -1.045484 -0.178961
-3.552352 -8.661531 1.149472
-0.486057 -1.184540 -0.157211
-3.554481 -8.658109 1.482373
-3.582066 -8.725302 -0.825191
-3.549832 -8.642495 1.816120
-3.560469 -8.664090 -0.490911
-3.537699 -8.604406 2.147833
-3.558713 -8.651223 -0.163285
-3.538691 -8.598286 2.491392
-3.577642 -8.658560 0.163529
-3.583187 -8.667688 0.491539
-3.586609 -8.667400 0.820658
-3.042904 -7.349848 -1.259923
-3.586364 -8.658249 1.150690
-0.468909 -1.131488 -0.150387
-3.588465 -8.659048 1.484563
-3.589607 -8.657532 -0.819961
-3.583740 -8.639119 1.818028
-3.590692 -8.651608 -0.490911
-3.569954 -8.597405 2.149183
-3.594283 -8.655995 -0.163599
-3.572373 -8.598991 2.495016
-3.610184 -8.655875 0.163704
-3.613420 -8.655128 0.491539
-0.508491 -1.217377 -0.256447
-3.619916 -8.662181 0.821356
-3.055835 -7.312376 -1.255230
-3.617353 -8.651804 1.151422
-0.466530 -1.115276 -0.148437
-3.623245 -8.657402 1.486441
-3.625963 -8.659652 -0.821356
-3.616919 -8.638053 1.820318
-3.619361 -8.639654 -0.490911
-3.600704 -8.590911 2.150532
-3.631436 -8.659992 -0.163913
-3.605357 -8.593596 2.497086
-3.645035 -8.654278 0.163913
-3.645163 -8.646143 0.491749
-0.494221 -1.172267 -0.247288
-3.649395 -8.651965 0.821530
-3.083645 -7.307126 -1.256169
-3.653709 -8.653754 1.153372
-0.470420 -1.113641 -0.148437
-3.652673 -8.642882 1.486127
-3.701948 -8.755212 -0.831640
-3.648579 -8.628991 1.821081
-3.659614 -8.650880 -0.492272
-3.637506 -8.594441 2.154581
-3.659304 -8.641740 -0.163808
-3.641361 -8.595188 2.501227
-3.679135 -8.650703 0.164088
-3.682362 -8.649905 0.492691
-3.680301 -8.636698 0.821356
-3.108082 -7.290323 -1.255230
-3.690900 -8.657381 1.155565
-0.477420 -1.119295 -0.149412
-3.685923 -8.637347 1.487379
-3.687893 -8.637792 -0.821704
-3.678638 -8.611950 1.820318
-3.697576 -8.652102 -0.493109
-3.673578 -8.591803 2.157280
-3.695735 -8.643624 -0.164088
-3.669822 -8.578873 2.500192
-0.339213 -0.789920 -0.230349
-3.711606 -8.638997 0.164122
-0.427878 -0.995435 -0.250146
-3.718775 -8.647360 0.493319
-2.665004 -6.196999 -1.311239
-3.719088 -8.643929 0.823273
-3.119453 -7.246770 -1.249599
-3.724176 -8.647442 1.156053
-0.481519 -1.117538 -0.149412
-3.726156 -8.643734 1.490821
-3.722755 -8.635843 -0.822750
-3.717229 -8.618886 1.824516
-3.729336 -8.642810 -0.493319
-3.709727 -8.593240 2.160880
-3.732150 -8.641034 -0.164297
-3.703538 -8.570684 2.501745
-0.345042 -0.795821 -0.232420
-3.746513 -8.636996 0.164332
-0.422041 -0.972484 -0.244747
-3.749733 -8.636158 0.493423
-2.686619 -6.187659 -1.311239
-3.753206 -8.640033 0.824145
-3.154178 -7.257576 -1.253353
-3.753548 -8.632569 1.155809
-3.784353 -8.699265 -1.164827
-3.758671 -8.636107 1.491759
-3.818076 -8.772598 -0.837044
-3.749644 -8.611258 1.825661
-3.761877 -8.635232 -0.493633
-3.740479 -8.582026 2.161330
-3.767884 -8.640785 -0.164541
-3.738842 -8.570099 2.505368
-0.366410 -0.837085 -0.244843
-3.787067 -8.647677 0.164786
-0.423869 -0.967435 -0.243847
-3.779855 -8.623016 0.493423
-2.712930 -6.189031 -1.313529
-3.791347 -8.645126 0.825888
-3.214414 -7.326115 -1.267119
-3.785253 -8.623050 1.156296
-0.497292 -1.132325 -0.151849
-3.793562 -8.633785 1.493636
-3.855087 -8.773810 -0.838438
-3.792321 -8.626873 1.831766
-3.796016 -8.631189 -0.494156
-3.775907 -8.581402 2.164479
-3.804469 -8.642221 -0.164821
-3.772627 -8.565836 2.507957
-0.370891 -0.839335 -0.245878
-3.818039 -8.636235 0.164821
-0.439856 -0.994464 -0.251045
-3.814782 -8.620728 0.494051
-2.740873 -6.193886 -1.316582
-3.826339 -8.642770 0.826934
-3.208768 -7.244411 -1.254917
-3.822569 -8.626119 1.158490
-0.489977 -1.105176 -0.148437
-3.822875 -8.618685 1.493324
-3.888921 -8.767584 -0.839135
-3.824004 -8.617171 1.832530
-3.835036 -8.637967 -0.495308
-3.803465 -8.562826 2.163129
-3.834613 -8.628889 -0.164821
-3.805644 -8.559676 2.510027
-0.365949 -0.820393 -0.240702
-3.853051 -8.633812 0.165030
-0.440146 -0.985805 -0.249246
-3.853812 -8.627419 0.495203
-0.512460 -1.147229 -0.244236
-3.856484 -8.629362 0.826934
-3.139700 -7.022176 -1.218312
-3.857520 -8.623595 1.159953
-3.863891 -8.633793 -1.161415
-3.862623 -8.626924 1.497078
-3.922758 -8.761230 -0.839833
-3.853257 -8.601979 1.832148
-3.868433 -8.631817 -0.495726
-3.837318 -8.558389 2.165379
-3.868801 -8.624575 -0.164995
-3.832335 -8.539289 2.507957
-0.381501 -0.847295 -0.248984
-3.883988 -8.622132 0.165065
-0.445186 -0.987816 -0.250146
-3.886365 -8.619377 0.495517
-0.516461 -1.145433 -0.244236
-3.891499 -8.626743 0.827980
-3.199947 -7.090395 -1.232078
-3.894134 -8.624551 1.161902
-3.952026 -8.748697 -1.178720
-3.890273 -8.607987 1.496139
-3.899162 -8.627656 -0.828328
-3.886496 -8.595633 1.833675
-3.907594 -8.638279 -0.496878
-3.869580 -8.550268 2.166729
-3.907958 -8.631055 -0.165379
-3.862119 -8.525860 2.507957
-0.373266 -0.821335 -0.241737
-3.916543 -8.613984 0.165170
-0.448631 -0.986256 -0.250146
-3.923875 -8.622118 0.496459
-2.834860 -6.229173 -1.330320
-3.928192 -8.627614 0.829374
-3.324579 -7.298497 -1.270248
-3.924215 -8.610905 1.161902
-4.011363 -8.798066 -1.187251
-3.929315 -8.614125 1.499581
-3.932561 -8.621243 -0.829025
-3.920552 -8.590944 1.835583
-3.935236 -8.619136 -0.496564
-3.907499 -8.554434 2.171227
-3.946372 -8.635550 -0.165728
-3.902300 -8.535167 2.514686
-0.382574 -0.834075 -0.245878
-3.959098 -8.627522 0.165693
-0.452071 -0.984684 -0.250146
-3.958949 -8.619259 0.497087
-2.845114 -6.194263 -1.324978
-3.960780 -8.619280 0.829897
-3.955908 -8.600761 1.162390
-4.036242 -8.771388 -1.185545
-3.965970 -8.614711 1.502084
-4.030954 -8.755868 -0.843319
-3.961193 -8.600389 1.840544
-3.966969 -8.608974 -0.496773
-3.944679 -8.556668 2.175277
-3.973141 -8.614458 -0.165588
-3.947447 -8.554823 2.524521
-0.388729 -0.839747 -0.247949
-3.987510 -8.610021 0.165623
-0.457144 -0.986636 -0.251045
-3.990869 -8.613332 0.497506
-2.881581 -6.216356 -1.331847
-4.002579 -8.630706 0.832337
-3.528426 -7.604819 -1.327816
-3.995935 -8.608507 1.165315
-4.066978 -8.761555 -1.186033
-3.999505 -8.612263 1.503961
-4.121935 -8.871840 -0.855869
-3.996155 -8.597190 1.842833
-4.001207 -8.604130 -0.497296
-3.974675 -8.547076 2.176177
-4.000843 -8.599422 -0.165554
-3.982316 -8.555696 2.528662
-0.376799 -0.806946 -0.238631
-4.020271 -8.605808 0.165798
-0.460414 -0.985115 -0.251045
-4.024484 -8.610907 0.498134
-2.920474 -6.245892 -1.340242
-4.029489 -8.613776 0.831989
-3.205296 -6.848797 -1.197662
-4.030353 -8.607793 1.167021
-4.099378 -8.755212 -1.187008
-4.030557 -8.604320 1.504900
-4.023665 -8.585704 -0.829548
-4.022975 -8.580337 1.842070
-4.034807 -8.601664 -0.497924
-4.007962 -8.544434 2.178876
-4.035284 -8.598779 -0.165798
-4.009845 -8.540693 2.528145
-0.381120 -0.809187 -0.239666
-4.049638 -8.594240 0.165833
-0.475312 -1.008260 -0.257344
-4.059629 -8.607645 0.498762
-2.950634 -6.253415 -1.344059
-4.061430 -8.607574 0.832686
-3.244012 -6.872071 -1.203607
-4.067353 -8.612330 1.169458
-4.146874 -8.776745 -1.191882
-4.059723 -8.588410 1.504587
-4.057940 -8.576888 1.844360
-4.069079 -8.596552 -0.498448
-4.045267 -8.546244 2.182925
-4.073834 -8.602714 -0.166147
-4.042942 -8.533628 2.530215
-0.394038 -0.828721 -0.245878
-4.086265 -8.590175 0.166042
-0.473979 -0.995954 -0.254645
-4.094585 -8.599920 0.499180
-3.007308 -6.313456 -1.359323
-4.101522 -8.610619 0.834429
-3.283623 -6.890450 -1.208926
-4.100600 -8.600948 1.169946
-4.180725 -8.765071 -1.192370
-4.101383 -8.594867 1.508341
-4.020621 -8.421841 -0.816475
-4.090195 -8.563729 1.844741
-4.101422 -8.583383 -0.498552
-4.079924 -8.538393 2.184725
-4.106199 -8.589528 -0.166182
-4.081694 -8.534438 2.534874
-0.402088 -0.837721 -0.248984
-4.122050 -8.584151 0.166217
-0.474251 -0.987184 -0.252845
-4.126308 -8.589177 0.499390
-3.037832 -6.320615 -1.363140
-4.138235 -8.606300 0.835475
-3.452719 -7.177429 -1.261488
-4.133818 -8.589438 1.170433
-4.207851 -8.743268 -1.191395
-4.140787 -8.600076 1.511783
-4.029243 -8.364676 -0.812292
-4.126882 -8.563548 1.847794
-4.133961 -8.574411 -0.498866
-4.106318 -8.517078 2.182925
-4.146583 -8.596757 -0.166601
-4.116498 -8.530578 2.537980
-0.404864 -0.836383 -0.248984
-4.160081 -8.590233 0.166601
-0.482620 -0.996128 -0.255544
-4.160864 -8.588028 0.500122
-0.568597 -1.173061 -0.253394
-4.169357 -8.597909 0.835998
-4.144728 -8.543321 -1.503961
-4.165746 -8.582826 1.171408
-4.252424 -8.761412 -1.195782
-4.166692 -8.580967 1.510844
-4.149240 -8.541233 -0.830769
-4.166413 -8.572771 1.852755
-4.168486 -8.573229 -0.499599
-4.137949 -8.510425 2.184725
-4.176816 -8.586555 -0.166670
-4.146454 -8.520353 2.539015
-0.400855 -0.821147 -0.244843
-4.192055 -8.583577 0.166740
-0.484210 -0.991020 -0.254645
-4.197211 -8.590334 0.501064
-0.575932 -1.178225 -0.254921
-4.198722 -8.585826 0.836172
-4.200293 -8.581447 1.173114
-4.286689 -8.757961 -1.197245
-4.196863 -8.570651 1.511470
-4.263442 -8.702770 -0.847851
-4.200867 -8.571248 1.855427
-4.203925 -8.573706 -0.500436
-4.173009 -8.510654 2.188324
-4.207029 -8.576248 -0.166740
-4.170431 -8.497885 2.536427
-0.395044 -0.802481 -0.239666
-4.222263 -8.573217 0.166810
-0.490939 -0.996402 -0.256444
-4.230089 -8.585325 0.501588
-0.588516 -1.193918 -0.258737
-4.229814 -8.577215 0.836695
-3.669035 -7.436796 -1.313424
-4.234877 -8.579930 1.174821
-3.551322 -7.195038 -0.985192
-4.239255 -8.585025 1.516476
-4.224916 -8.548471 1.853519
-4.245612 -8.586573 -0.502007
-4.215029 -8.524718 2.195522
-4.244312 -8.580173 -0.167089
-4.208012 -8.503056 2.542121
-0.415174 -0.835630 -0.250019
-4.259888 -8.570218 0.167054
-0.489381 -0.984126 -0.253745
-4.268361 -8.579749 0.502216
-0.598345 -1.202195 -0.261027
-4.264774 -8.568790 0.837392
-3.685702 -7.402079 -1.309669
-4.269836 -8.571460 1.175796
-3.670122 -7.364347 -1.010297
-4.273951 -8.572222 1.517102
-3.693308 -7.404396 -0.723916
-4.264722 -8.546238 1.856572
-3.720091 -7.451577 -0.436482
-4.252082 -8.517189 2.197772
-4.284376 -8.578124 -0.167369
-4.242357 -8.490292 2.543156
-0.407843 -0.813379 -0.243808
-4.302031 -8.575997 0.167473
-0.489488 -0.975359 -0.251945
-4.297986 -8.560477 0.502007
-0.597460 -1.189468 -0.258737
-4.306883 -8.574466 0.839484
-3.709259 -7.381459 -1.308418
-4.303007 -8.559299 1.176283
-3.708685 -7.373900 -1.013466
-4.311556 -8.568851 1.519292
-3.724901 -7.399706 -0.724787
-4.310145 -8.558605 1.862677
-3.719520 -7.382599 -0.433237
-4.289409 -8.513729 2.200921
-4.322987 -8.576651 -0.167648
-4.284755 -8.497109 2.549885
-0.412566 -0.815327 -0.244843
-4.337047 -8.567307 0.167613
-0.496582 -0.980512 -0.253745
-4.333256 -8.556112 0.502635
-0.594509 -1.173365 -0.255684
-4.346388 -8.574616 0.841053
-3.745223 -7.385433 -1.311547
-4.341535 -8.557632 1.178233
-3.747366 -7.383269 -1.016634
-4.342335 -8.555510 1.519605
-3.747100 -7.379554 -0.724090
-4.354221 -8.571514 1.868783
-3.751602 -7.382034 -0.433970
-4.324117 -8.504900 2.202721
-4.351086 -8.557943 -0.167578
-4.326651 -8.506207 2.557132
-0.418922 -0.820764 -0.246913
-4.374525 -8.570689 0.167962
-0.498058 -0.975389 -0.252845
-4.376725 -8.567615 0.504205
-0.614684 -1.202749 -0.262553
-4.370849 -8.548750 0.840007
-3.787678 -7.408150 -1.317804
-4.377121 -8.557326 1.180183
-3.784491 -7.395543 -1.020047
-4.379375 -8.554366 1.522107
-3.769204 -7.359335 -0.723393
-4.406785 -8.604207 1.879087
-3.778793 -7.374885 -0.434284
-4.360298 -8.506120 2.206770
-4.385495 -8.551600 -0.167753
-4.353672 -8.485896 2.555579
-0.418106 -0.812500 -0.244843
-4.404413 -8.555367 0.167962
-0.508598 -0.987504 -0.256444
-4.411177 -8.561162 0.504728
-0.616870 -1.197214 -0.261790
-4.406477 -8.548376 0.841402
-4.381197 -8.495687 -1.513973
-4.416067 -8.559637 1.182620
-3.824850 -7.410510 -1.023946
-4.415553 -8.551313 1.524298
-3.802729 -7.364499 -0.725136
-4.429585 -8.574818 1.876034
-3.813684 -7.379393 -0.435331
-4.392649 -8.496042 2.208120
-4.426343 -8.557552 -0.168171
-4.391257 -8.486089 2.560238
-0.412040 -0.793889 -0.239666
-4.440701 -8.552364 0.168206
-0.503059 -0.968430 -0.251945
-4.448403 -8.559891 0.505565
-0.633720 -1.219442 -0.267133
-4.450076 -8.559459 0.844016
-4.427231 -8.511889 -1.519605
-4.442254 -8.537127 1.181645
-4.539071 -8.719474 -1.206994
-4.457235 -8.558625 1.528365
-4.453289 -8.551048 -0.843493
-4.464933 -8.569750 1.878324
-3.870806 -7.426253 -0.438889
-4.429487 -8.494480 2.211719
-4.463588 -8.556233 -0.168451
-4.422640 -8.474134 2.561274
-0.439894 -0.840369 -0.254160
-4.476094 -8.547440 0.168416
-0.506436 -0.966668 -0.251945
-4.474546 -8.537233 0.505147
-0.634327 -1.210267 -0.265606
-4.482703 -8.549167 0.844539
-4.463342 -8.508627 -1.521795
-4.481249 -8.539145 1.184083
-4.567633 -8.700062 -1.206507
-4.487085 -8.543013 1.528365
-4.488672 -8.546034 -0.844539
-4.500297 -8.564541 1.880614
-4.492407 -8.545904 -0.505984
-4.460018 -8.480691 2.212169
-4.499014 -8.551218 -0.168660
-4.466588 -8.485998 2.569556
-0.433806 -0.821744 -0.248984
-4.512440 -8.544141 0.168660
-0.520732 -0.985570 -0.257344
-4.509921 -8.532158 0.505775
-0.625703 -1.183746 -0.260263
-4.523695 -8.554603 0.846631
-4.531810 -8.566331 -1.534935
-4.524030 -8.548016 1.187495
-4.607263 -8.701609 -1.208944
-4.521500 -8.536027 1.529929
-4.604274 -8.692293 -0.860576
-4.528327 -8.545310 1.879850
-4.528762 -8.542521 -0.506717
-4.497810 -8.480566 2.216218
-4.531646 -8.540762 -0.168765
-4.497091 -8.472059 2.570073
-0.431225 -0.809993 -0.245878
-4.549757 -8.542457 0.168939
-0.522336 -0.980307 -0.256444
-4.551889 -8.539275 0.507135
-0.639067 -1.198879 -0.264080
-4.558216 -8.547549 0.847502
-4.559449 -8.542679 1.188957
-4.643219 -8.695979 -1.210406
-4.556854 -8.530646 1.531806
-4.560427 -8.537335 -0.846805
-4.563680 -8.539841 1.882140
-4.564201 -8.537230 -0.507345
-4.531062 -8.471687 2.218017
-4.567092 -8.535470 -0.168974
-4.527546 -8.458014 2.570591
-0.441360 -0.822100 -0.250019
-4.580495 -8.528285 0.168974
-0.525755 -0.978478 -0.256444
-4.586398 -8.532129 0.507659
-0.637670 -1.186266 -0.261790
-4.588025 -8.531587 0.847502
-0.653255 -1.214242 -0.218383
-4.597708 -8.542442 1.191151
-4.688604 -8.707684 -1.214306
-4.593162 -8.526862 1.533997
-4.595870 -8.531889 -0.847851
-4.597188 -8.530771 1.883667
-4.601556 -8.535311 -0.508182
-4.562456 -8.459249 2.218917
-4.602556 -8.530035 -0.169184
-4.564387 -8.455758 2.574732
-0.438709 -0.810361 -0.246913
-4.617853 -8.526312 0.169253
-0.529167 -0.976636 -0.256444
-4.628526 -8.538896 0.509020
-0.622160 -1.147787 -0.253776
-4.626326 -8.531281 0.849071
-0.634883 -1.170282 -0.210874
-4.629393 -8.529832 1.191639
-4.722760 -8.698242 -1.215281
-4.629498 -8.522927 1.536187
-4.637035 -8.536803 -0.849943
-4.623188 -8.507771 1.882140
-4.631322 -8.519196 -0.508182
-4.601268 -8.460392 2.223416
-4.635171 -8.519187 -0.169288
-4.604032 -8.458439 2.580426
-0.456345 -0.835955 -0.255196
-4.655258 -8.524180 0.169533
-0.532573 -0.974783 -0.256444
-4.659262 -8.524439 0.509124
-0.626163 -1.145608 -0.253776
-4.666592 -8.534310 0.850989
-0.633276 -1.157661 -0.208996
-4.662951 -8.520584 1.192613
-4.764534 -8.702599 -1.218206
-4.673454 -8.532703 1.540880
-4.672549 -8.531050 -0.850989
-4.650971 -8.488138 1.881377
-4.666792 -8.513486 -0.508810
-4.638268 -8.457948 2.227015
-4.676422 -8.523993 -0.169707
-4.634459 -8.444010 2.580944
-0.451808 -0.820817 -0.251054
-4.692698 -8.521893 0.169812
-0.532211 -0.966091 -0.254645
-4.692324 -8.517689 0.509648
-0.617839 -1.121063 -0.248815
-4.700200 -8.524948 0.851686
-0.623956 -1.131227 -0.204616
-4.704175 -8.525112 1.195538
-4.797203 -8.693703 -1.219181
-4.702677 -8.518889 1.541193
-4.708078 -8.525152 -0.852035
-4.669179 -8.451230 1.876797
-4.700346 -8.504136 -0.509229
-4.675717 -8.459576 2.231514
-4.703696 -8.506688 -0.169672
-4.669917 -8.442119 2.585085
-0.443281 -0.799043 -0.244843
-4.731607 -8.525517 0.170196
-0.539196 -0.971136 -0.256444
-4.728300 -8.516050 0.510485
-0.618693 -1.113859 -0.247670
-4.729412 -8.511057 0.851860
-0.626744 -1.127426 -0.204303
-4.737241 -8.518141 1.196757
-4.835652 -8.695096 -1.221618
-4.732822 -8.506701 1.541818
-4.742137 -8.519938 -0.853080
-4.706731 -8.452853 1.880614
-4.740185 -8.509440 -0.510485
-4.710383 -8.455940 2.234664
-4.737720 -8.501525 -0.169882
-4.708234 -8.445147 2.590779
-0.445929 -0.797569 -0.244843
-4.757901 -8.506289 0.170126
-0.550026 -0.982947 -0.260043
-4.770679 -8.522151 0.511846
-0.623343 -1.113514 -0.248052
-4.766372 -8.510972 0.853429
-0.631445 -1.127064 -0.204616
-4.776139 -8.521433 1.199438
-4.873742 -8.692016 -1.223568
-4.774086 -8.510799 1.545573
-4.809354 -8.573672 -0.860053
-4.738577 -8.444048 1.882140
-4.780110 -8.514573 -0.511741
-4.757049 -8.470031 2.242762
-4.780099 -8.507599 -0.170335
-4.749990 -8.450553 2.597508
-0.463888 -0.822933 -0.253125
-4.794440 -8.501822 0.170370
-0.550581 -0.975929 -0.258694
-4.806288 -8.515882 0.512474
-0.624331 -1.106202 -0.246907
-4.806827 -8.513366 0.855346
-0.644119 -1.140333 -0.207432
-4.806832 -8.506437 1.199682
-4.906006 -8.678407 -1.224056
-4.814460 -8.512999 1.549014
-4.812769 -8.510008 -0.855346
-4.776726 -8.442833 1.885575
-4.811769 -8.501313 -0.511950
-4.790425 -8.460158 2.244562
-4.821597 -8.511740 -0.170754
-4.785174 -8.444005 2.600614
-0.459122 -0.807873 -0.248984
-4.837925 -8.509372 0.170859
-0.556875 -0.979083 -0.260043
-4.835985 -8.499053 0.512474
-0.634014 -1.114255 -0.249197
-4.845386 -8.512118 0.856915
-0.637343 -1.119195 -0.203991
-4.845339 -8.505130 1.201876
-4.940202 -8.668126 -1.225031
-4.846104 -8.499573 1.549640
-4.849851 -8.502695 -0.856392
-4.812975 -8.438046 1.888246
-4.847354 -8.494872 -0.512578
-4.817995 -8.440000 2.243662
-4.861194 -8.512223 -0.171103
-4.822285 -8.440671 2.604755
-0.460159 -0.802832 -0.247949
-4.872571 -8.501106 0.171034
-0.554473 -0.966990 -0.257344
-4.873573 -8.495979 0.513311
-0.627345 -1.093193 -0.244999
-4.877544 -8.496030 0.857090
-0.637505 -1.110000 -0.202739
-4.879942 -8.496772 1.203094
-4.978341 -8.664599 -1.226981
-4.881650 -8.492881 1.551517
-4.887446 -8.499532 -0.857787
-4.852681 -8.435665 1.891680
-4.888419 -8.494360 -0.513625
-4.852786 -8.429039 2.245461
-4.886887 -8.488271 -0.170964
-4.856540 -8.432157 2.607343
-0.447494 -0.774458 -0.239666
-4.914705 -8.502234 0.171418
-0.563867 -0.975073 -0.260043
-4.909680 -8.486704 0.513834
-0.637056 -1.101192 -0.247288
-4.913160 -8.489299 0.858135
-0.640386 -1.106058 -0.202426
-4.919011 -8.492571 1.205044
-5.022008 -8.666905 -1.229905
-4.918689 -8.485186 1.553394
-4.919085 -8.485868 -0.858135
-4.893916 -8.439054 1.896260
-4.928062 -8.494520 -0.514672
-4.894897 -8.433959 2.251310
-4.927002 -8.485866 -0.171278
-4.886443 -8.412629 2.606826
-0.467697 -0.802939 -0.248984
-4.947372 -8.490211 0.171522
-0.571193 -0.979833 -0.261843
-4.950342 -8.488492 0.514986
-0.646830 -1.109138 -0.249578
-4.951798 -8.487585 0.859704
-0.643247 -1.102110 -0.202113
-4.956633 -8.489061 1.206994
-5.060240 -8.663034 -1.231856
-4.955255 -8.479903 1.555584
-4.955713 -8.480686 -0.859356
-4.921362 -8.418529 1.895497
-4.969783 -8.497954 -0.515928
-4.934147 -8.433641 2.255809
-4.968715 -8.489326 -0.171697
-4.919684 -8.402189 2.608896
-0.478322 -0.814629 -0.253125
-4.983057 -8.483233 0.171732
-0.567698 -0.966073 -0.258694
-4.987570 -8.487528 0.515928
-0.650698 -1.106873 -0.249578
-4.992507 -8.489141 0.861622
-0.645087 -1.096453 -0.201488
-4.991271 -8.480263 1.208213
-5.098507 -8.659002 -1.233805
-4.998383 -8.488957 1.560278
-4.999443 -8.487370 -0.861796
-4.964674 -8.424980 1.900839
-5.004488 -8.489158 -0.516451
-4.969496 -8.426438 2.258509
-5.002934 -8.483136 -0.171906
-4.956354 -8.400804 2.613555
-0.469355 -0.793004 -0.246913
-5.020327 -8.482152 0.172046
-0.575863 -0.972569 -0.260943
-5.018187 -8.471784 0.516033
-0.658561 -1.111351 -0.251105
-5.031251 -8.487087 0.863190
-0.656778 -1.107902 -0.203991
-5.020377 -8.465371 1.208457
-5.032015 -8.478253 1.561529
-5.003610 -8.427038 1.905037
-5.025472 -8.460495 -0.515719
-5.000396 -8.414939 2.259858
-5.042734 -8.482811 -0.172255
-4.993548 -8.396734 2.617696
-0.479898 -0.804717 -0.251054
-5.059125 -8.480032 0.172360
-0.581252 -0.973900 -0.261843
-5.058534 -8.475678 0.517289
-0.656204 -1.099047 -0.248815
-5.071628 -8.490882 0.865282
-0.662668 -1.108994 -0.204616
-5.067210 -8.476762 1.212600
-4.813981 -8.049954 -1.151665
-5.063145 -8.466606 1.562468
-4.814677 -8.047925 -0.820484
-5.037026 -8.416262 1.906564
-4.843622 -8.089901 -0.494156
-5.041758 -8.417494 2.265257
-5.072892 -8.469473 -0.172325
-5.037253 -8.406644 2.625978
-0.486685 -0.809660 -0.253125
-5.096490 -8.478633 0.172674
-0.580461 -0.965287 -0.260043
-5.096325 -8.471660 0.518126
-0.655987 -1.090021 -0.247288
-5.103291 -8.476541 0.865631
-0.666342 -1.106790 -0.204616
-5.105533 -8.476916 1.215037
-4.875481 -8.091757 -1.159953
-5.105925 -8.470875 1.566535
-4.832450 -8.014009 -0.818741
-5.079102 -8.423049 1.911906
-4.840505 -8.024199 -0.491121
-5.084747 -8.425755 2.272006
-5.112758 -8.468833 -0.172674
-5.082547 -8.415466 2.634260
-0.489649 -0.807871 -0.253125
-5.133155 -8.465841 0.172814
-0.589217 -0.971382 -0.262293
-5.138735 -8.471708 0.519277
-0.668125 -1.101037 -0.250341
-5.142597 -8.471404 0.867025
-0.666485 -1.097470 -0.203365
-5.147321 -8.472519 1.217231
-4.873526 -8.018691 -1.152153
-5.144122 -8.463919 1.568725
-4.866966 -8.004755 -0.819613
-5.111406 -8.403484 1.911906
-4.881664 -8.022614 -0.492167
-5.119087 -8.409499 2.272905
-5.156240 -8.470534 -0.173093
-5.118379 -8.405033 2.636849
-0.474339 -0.776482 -0.243808
-5.163286 -8.452185 0.172884
-0.597516 -0.977736 -0.264542
-5.177652 -8.469055 0.520219
-0.671965 -1.098698 -0.250341
-5.176295 -8.460199 0.867723
-0.670121 -1.095254 -0.203365
-5.180571 -8.463868 1.218450
-4.914600 -8.026188 -1.155565
-5.182919 -8.461072 1.571541
-4.901124 -7.997910 -0.820658
-5.151555 -8.406575 1.916486
-4.909283 -8.008086 -0.492272
-5.155097 -8.405767 2.276505
-5.189960 -8.459302 -0.173233
-5.153752 -8.396993 2.639954
-0.489062 -0.794648 -0.250019
-5.203243 -8.451138 0.173233
-0.584573 -0.949097 -0.257344
-5.206136 -8.449229 0.520115
-0.680754 -1.104820 -0.252250
-5.213731 -8.458252 0.869291
-0.682235 -1.106359 -0.205868
-5.217380 -8.457560 1.220156
-5.324151 -8.627270 -1.244774
-5.220725 -8.456375 1.574044
-5.214401 -8.446134 -0.868420
-5.180869 -8.388541 1.916486
-5.165013 -8.359607 -0.514986
-5.193628 -8.402639 2.280554
-5.238388 -8.471749 -0.173861
-5.193192 -8.395382 2.645131
-0.491833 -0.792936 -0.250019
-5.248527 -8.458411 0.173756
-0.602271 -0.970230 -0.263643
-5.246134 -8.447972 0.521161
-0.679428 -1.094098 -0.250341
-5.254790 -8.458617 0.871209
-0.688178 -1.107326 -0.206494
-5.257352 -8.456156 1.222593
-5.359475 -8.617060 -1.245992
-5.259604 -8.453195 1.576860
-5.261746 -8.456638 -0.871383
-5.224643 -8.393741 1.921828
-5.275453 -8.472075 -0.523046
-5.221897 -8.382806 2.280104
-5.264755 -8.448320 -0.173756
-5.229621 -8.388679 2.648754
-0.504837 -0.807595 -0.255196
-5.292862 -8.463777 0.174245
-0.607722 -0.971426 -0.264542
-5.288306 -8.449924 0.522418
-0.687409 -1.098377 -0.251868
-5.288512 -8.446980 0.871906
-0.697282 -1.113288 -0.208058
-5.293161 -8.447845 1.224056
-5.393738 -8.605027 -1.246967
-5.296425 -8.446499 1.579050
-5.296525 -8.446660 -0.872255
-5.260171 -8.385431 1.924118
-5.308179 -8.458683 -0.523360
-5.266668 -8.389283 2.286852
-5.299531 -8.438359 -0.173931
-5.258871 -8.370373 2.648754
-0.491178 -0.779676 -0.246913
-5.320241 -8.441866 0.174175
-0.611109 -0.969299 -0.264542
-5.328422 -8.448308 0.523464
-0.696475 -1.104274 -0.253776
-5.328598 -8.445316 0.873649
-0.696946 -1.104166 -0.206806
-5.335336 -8.449458 1.226981
-5.440706 -8.612999 -1.250867
-5.333263 -8.439649 1.581240
-5.332364 -8.438226 -0.873301
-5.301998 -8.386931 1.928697
-5.347282 -8.455296 -0.524302
-5.300088 -8.377435 2.288652
-5.336440 -8.431635 -0.174175
-5.293224 -8.360126 2.651342
-0.508392 -0.800789 -0.254160
-5.361470 -8.441813 0.174559
-0.608218 -0.957290 -0.261843
-5.368192 -8.449134 0.524616
-0.701379 -1.103493 -0.254158
-5.367665 -8.441797 0.875218
-0.702917 -1.105060 -0.207432
-5.369059 -8.437483 1.227956
-5.370766 -8.436914 1.584056
-5.339681 -8.381618 1.931750
-5.376762 -8.436580 -0.524302
-5.342919 -8.380245 2.294501
-5.372972 -8.427382 -0.174454
-5.329229 -8.355556 2.655483
-0.509102 -0.795755 -0.253125
-5.399134 -8.439146 0.174873
-0.611389 -0.955268 -0.261843
-5.395497 -8.426982 0.524406
-0.707344 -1.104344 -0.254921
-5.407849 -8.439784 0.876961
-0.710840 -1.109376 -0.208684
-5.404508 -8.431330 1.229662
-4.685896 -7.307449 -1.065869
-5.410852 -8.434741 1.587184
-4.680932 -7.294103 -0.758255
-5.373806 -8.373780 1.934040
-5.416578 -8.437191 -0.525453
-5.376997 -8.372318 2.297200
-5.411001 -8.422035 -0.174733
-5.376119 -8.364532 2.664284
-0.515924 -0.800558 -0.255196
-5.438311 -8.435373 0.175187
-0.623170 -0.966230 -0.265442
-5.437874 -8.428235 0.525662
-0.706745 -1.095394 -0.253394
-5.448773 -8.441893 0.879053
-0.723280 -1.120163 -0.211187
-5.446831 -8.432424 1.232587
-4.737234 -7.331063 -1.071719
-5.442405 -8.419122 1.587810
-4.705095 -7.278541 -0.758255
-5.417929 -8.378051 1.939383
-5.459014 -8.438354 -0.526709
-5.424187 -8.381311 2.304848
-5.443629 -8.408131 -0.174838
-5.417888 -8.365170 2.670495
-0.512403 -0.789031 -0.252090
-5.481885 -8.438139 0.175641
-0.624415 -0.960781 -0.264542
-5.475970 -8.422597 0.526500
-0.712704 -1.096212 -0.254158
-5.482553 -8.429502 0.879750
-0.729341 -1.120943 -0.211812
-5.485979 -8.428332 1.234780
-4.728132 -7.261250 -1.063919
-5.483621 -8.418280 1.591252
-4.725036 -7.253725 -0.757383
-5.462147 -8.382116 1.944725
-5.500435 -8.437653 -0.527861
-5.462994 -8.377017 2.308898
-5.482777 -8.404152 -0.175152
-5.455500 -8.359152 2.674636
-0.517270 -0.790471 -0.253125
-5.512403 -8.420626 0.175676
-0.639509 -0.976528 -0.269491
-5.518472 -8.423480 0.527756
-0.720830 -1.100286 -0.255684
-5.521773 -8.425311 0.881319
-0.734332 -1.120043 -0.212125
-5.522987 -8.420751 1.236487
-4.768696 -7.267937 -1.067332
-5.522727 -8.413949 1.594067
-4.759245 -7.248016 -0.758604
-5.491373 -8.362998 1.944725
-5.538627 -8.431755 -0.528698
-5.498620 -8.367668 2.311597
-5.523065 -8.401672 -0.175501
-5.494199 -8.354584 2.679295
-0.513781 -0.778894 -0.250019
-5.548368 -8.411347 0.175885
-0.628961 -0.953145 -0.263643
-5.557745 -8.419167 0.528698
-0.724858 -1.097637 -0.255684
-5.566894 -8.426626 0.883585
-0.736254 -1.114048 -0.211499
-5.560009 -8.413013 1.238193
-4.837828 -7.317483 -1.077081
-5.566231 -8.416039 1.598135
-4.791113 -7.241328 -0.759649
-5.524155 -8.346089 1.945489
-5.573905 -8.418059 -0.529117
-5.541090 -8.365330 2.316546
-5.565610 -8.402348 -0.175920
-5.532932 -8.349848 2.683954
-0.533606 -0.802838 -0.258301
-5.590230 -8.407608 0.176234
-0.636767 -0.957324 -0.265442
-5.597417 -8.412042 0.529535
-0.736298 -1.106541 -0.258355
-5.609520 -8.427047 0.885677
-0.746708 -1.121336 -0.213377
-5.601812 -8.409099 1.240630
-5.716667 -8.578266 -1.265735
-5.609093 -8.413662 1.601576
-5.612088 -8.418154 -0.885154
-5.572863 -8.356154 1.952358
-5.606581 -8.403536 -0.529431
-5.574585 -8.352421 2.318346
-5.607473 -8.398522 -0.176269
-5.568864 -8.337544 2.686542
-0.538555 -0.804181 -0.259337
-5.629564 -8.402994 0.176549
-0.642274 -0.958333 -0.266342
-5.637866 -8.409042 0.530582
-0.735783 -1.097442 -0.256829
-5.643343 -8.414031 0.886374
-0.745114 -1.110521 -0.211812
-5.651043 -8.419163 1.245017
-5.760962 -8.579682 -1.268904
-5.642834 -8.400589 1.602828
-5.651438 -8.413398 -0.886723
-5.612947 -8.352946 1.956174
-5.648137 -8.402147 -0.530582
-5.605881 -8.336143 2.319245
-5.641221 -8.385534 -0.176409
-5.607641 -8.332479 2.691200
-0.534876 -0.792688 -0.256231
-5.676760 -8.409812 0.177107
-0.651069 -0.964160 -0.268592
-5.679485 -8.407515 0.531733
-0.741808 -1.098120 -0.257592
-5.678256 -8.402536 0.887245
-0.756730 -1.119369 -0.214002
-5.684848 -8.405962 1.245992
-5.795323 -8.566098 -1.269879
-5.687624 -8.403744 1.607208
-5.688589 -8.405169 -0.887943
-5.650876 -8.346309 1.959227
-5.693112 -8.405531 -0.532047
-5.645877 -8.332659 2.323745
-5.685043 -8.387311 -0.176863
-5.642115 -8.320849 2.693789
-0.535467 -0.787621 -0.255196
-5.709456 -8.394906 0.177212
-0.658815 -0.968326 -0.270391
-5.716663 -8.399198 0.532466
-0.747845 -1.098770 -0.258355
-5.714282 -8.392545 0.888291
-0.755073 -1.108557 -0.212438
-5.727567 -8.405753 1.248917
-5.831899 -8.555656 -1.271341
-5.726940 -8.398527 1.610024
-5.727996 -8.400076 -0.889511
-5.684399 -8.333020 1.960753
-5.735929 -8.405404 -0.533303
-5.682621 -8.324166 2.326894
-5.725562 -8.383929 -0.177212
-5.686382 -8.323436 2.701036
-0.538213 -0.785747 -0.255196
-5.747767 -8.388122 0.177491
-0.659988 -0.962806 -0.269491
-5.758036 -8.399962 0.533722
-0.751676 -1.096153 -0.258355
-5.757065 -8.392263 0.890383
-0.756702 -1.102657 -0.211812
-5.760244 -8.390618 1.249648
-5.875213 -8.554886 -1.274266
-5.769296 -8.400661 1.614091
-5.767436 -8.394812 -0.891080
-5.715679 -8.316362 1.961517
-5.769759 -8.391915 -0.533722
-5.727101 -8.326759 2.333192
-5.762398 -8.378078 -0.177491
-5.725997 -8.322039 2.706730
-0.551925 -0.799763 -0.260372
-5.793725 -8.395349 0.178049
-0.658748 -0.954197 -0.267692
-5.789592 -8.383099 0.533931
-0.757730 -1.096753 -0.259119
-5.796520 -8.386868 0.891952
