# This PCD file was generated using the MATLAB® pcwrite function
# from Computer Vision Toolbox®.
# .PCD v.7 - Point Cloud Data file format
VERSION .7
FIELDS x y z
SIZE 4 4 4
TYPE F F F
COUNT 1 1 1
WIDTH 1608
HEIGHT 1
VIEWPOINT 0 0 0 1 0 0 0
POINTS 1608
DATA ascii
-20.447678 -2.779174 1.081470
-11.874526 -1.613943 -2.329396
-15.839869 -2.147267 -2.531736
-20.590612 -2.783958 -2.551213
-21.814468 -2.941683 -1.925793
-21.331163 -2.865138 -0.375681
-7.868979 -1.044356 -2.126975
-20.136341 -2.672456 0.354563
-9.508545 -1.260267 -2.214418
-21.292810 -2.818378 1.125642
-11.872577 -1.569380 -2.327870
-15.871134 -2.092294 -2.535490
-20.828505 -2.742122 -2.579487
-22.318466 -2.930360 -1.969371
-20.859066 -2.731338 -1.102509
-21.404486 -2.798952 -0.376797
-7.872577 -1.016881 -2.126975
-21.018637 -2.711196 0.369921
-9.513101 -1.225408 -2.214418
-21.227720 -2.730633 1.121664
-11.862405 -1.525923 -2.324817
-15.905770 -2.040395 -2.539870
-21.090452 -2.698010 -2.610685
-22.325104 -2.848034 -1.969023
-20.392973 -2.597934 -1.077388
-20.141033 -2.558694 -0.354389
-7.880084 -0.988502 -2.128010
-20.869240 -2.617903 0.367129
-9.509584 -1.191224 -2.212619
-11.864021 -1.481951 -2.324054
-15.873939 -1.977205 -2.533613
-21.300673 -2.649360 -2.635547
-32.359520 -4.013389 -2.852782
-20.981148 -2.594751 -1.107952
-21.118336 -2.607975 -0.371422
-7.871813 -0.960961 -2.124904
-9.505947 -1.157080 -2.210819
-11.888359 -1.444969 -2.327870
-15.911784 -1.928356 -2.538619
-21.396503 -2.585474 -2.646271
-32.455727 -3.916082 -2.860103
-20.993605 -2.525638 -1.108162
-20.058712 -2.409614 -0.352643
-7.882793 -0.934387 -2.126975
-31.462912 -3.729455 0.553032
-9.521343 -1.126925 -2.213518
-11.885531 -1.402541 -2.326343
-15.918092 -1.875579 -2.538619
-21.452278 -2.520064 -2.652121
-32.512733 -3.807864 -2.863938
-21.179295 -2.469261 -0.372190
-7.901202 -0.910009 -2.131116
-9.517476 -1.092795 -2.211719
-11.882316 -1.362225 -2.324817
-15.944169 -1.822246 -2.541748
-21.508280 -2.450559 -2.657971
-36.698952 -4.168350 -3.231386
-29.079445 -3.297762 -1.533758
-21.068565 -2.381838 -0.370096
-7.881444 -0.878474 -2.124904
-9.528978 -1.060428 -2.213518
-20.696070 -2.299491 1.091309
-11.895035 -1.319528 -2.326343
-15.919325 -1.760321 -2.536742
-21.496971 -2.373287 -2.655533
-31.500776 -3.466588 -2.772599
-19.999357 -2.190286 -0.351177
-7.888305 -0.851373 -2.125940
-9.548303 -1.027161 -2.217118
-11.895663 -1.277581 -2.325580
-15.905731 -1.702639 -2.533613
-21.832785 -2.333255 -2.695994
-27.603813 -2.940250 -2.428682
-21.184107 -2.245232 -0.371841
-7.906455 -0.826817 -2.130081
-9.541965 -0.994481 -2.214868
-11.895929 -1.237720 -2.324817
-15.915220 -1.650291 -2.534239
-22.515696 -2.330745 -2.779353
-29.779596 -3.072166 -2.619204
-20.196814 -2.072887 -0.354389
-7.889933 -0.798648 -2.124904
-9.539393 -0.962251 -2.213518
-11.911899 -1.197366 -2.327107
-15.904880 -1.595931 -2.531736
-18.209764 -1.820788 -2.247027
-29.333326 -2.912341 -1.544853
-7.904344 -0.770849 -2.128010
-9.546735 -0.927655 -2.214418
-11.912298 -1.153320 -2.326343
-15.887027 -1.535345 -2.527981
-18.097757 -1.742617 -2.232403
-18.535767 -1.778263 -1.629115
-29.407423 -2.810898 -1.548202
-7.895576 -0.740791 -2.124904
-9.555892 -0.893203 -2.215768
-11.912342 -1.111366 -2.325580
-15.935822 -1.481128 -2.534864
-18.139601 -1.679568 -2.236790
-18.408939 -1.701266 -1.617436
-19.238131 -1.771124 -1.012491
-7.905809 -0.713920 -2.126975
-9.560892 -0.860015 -2.216218
-11.916149 -1.069777 -2.325580
-15.897607 -1.421621 -2.527981
-18.167105 -1.618176 -2.239471
-18.454456 -1.640524 -1.620923
-19.287966 -1.707834 -1.014794
-30.833611 -2.719286 -0.540292
-7.915952 -0.686989 -2.129046
-9.558012 -0.826132 -2.214868
-11.935458 -1.029528 -2.328633
-15.906411 -1.366457 -2.528607
-18.121218 -1.550351 -2.233134
-18.372721 -1.568638 -1.613253
-31.675335 -2.687693 -0.554882
-7.926003 -0.659994 -2.131116
-9.547105 -0.793302 -2.211719
-11.923326 -0.986564 -2.325580
-15.926602 -1.315001 -2.531110
-18.386028 -1.505150 -1.613950
-7.912742 -0.632475 -2.126975
-54.721878 -4.364363 0.958207
-9.561471 -0.760902 -2.214418
-11.918704 -0.946397 -2.324054
-15.927158 -1.259091 -2.530484
-18.083046 -1.419994 -1.586932
-7.914901 -0.604851 -2.126975
-54.764694 -4.175461 0.958696
-9.562125 -0.727373 -2.213968
-11.941512 -0.906270 -2.327870
-15.943275 -1.204380 -2.532362
-18.044184 -1.353585 -1.583097
-31.801455 -2.363255 -0.556627
-7.916964 -0.577218 -2.126975
-9.574324 -0.694695 -2.216218
-11.936769 -0.864016 -2.326343
-15.931620 -1.147584 -2.529859
-18.074635 -1.292433 -1.585363
-7.930494 -0.550382 -2.130081
-9.566970 -0.660599 -2.213968
-11.947548 -0.822883 -2.327870
-15.923702 -1.091155 -2.527981
-18.194813 -1.240400 -2.239228
-55.242249 -3.756345 8.769717
-18.114817 -1.231766 -1.588501
-38.098011 -2.563869 -0.666507
-7.920801 -0.521934 -2.126975
-9.559496 -0.626563 -2.211719
-11.954266 -0.781429 -2.328633
-15.947126 -1.036845 -2.531110
-18.194864 -1.179799 -2.238740
-55.230747 -3.571603 8.765963
-18.166721 -1.171607 -1.592684
-7.937913 -0.496629 -2.131116
-9.588750 -0.596552 -2.218017
-11.960710 -0.742025 -2.329396
-15.946535 -0.983713 -2.530484
-18.143198 -1.116043 -2.231915
-55.234398 -3.387972 8.764711
-18.110847 -1.107708 -1.587455
-7.935659 -0.470075 -2.130081
-9.582894 -0.564295 -2.216218
-11.955266 -0.701898 -2.327870
-15.973374 -0.932208 -2.534239
-18.139057 -1.052249 -2.230941
-18.134312 -1.048794 -1.589198
-7.929536 -0.441943 -2.128010
-9.606210 -0.532024 -2.221167
-11.953722 -0.659948 -2.327107
-15.972586 -0.876228 -2.533613
-17.964224 -0.979201 -2.209004
-18.082159 -0.982460 -1.584317
-7.942606 -0.414865 -2.131116
-9.571032 -0.496573 -2.212619
-11.959874 -0.618420 -2.327870
-15.987383 -0.821079 -2.535490
-17.943743 -0.915269 -2.206079
-18.081659 -0.915981 -1.583969
-7.928637 -0.385002 -2.126975
-9.578546 -0.463443 -2.213968
-11.965982 -0.574769 -2.328633
-15.998178 -0.762853 -2.536742
-17.982519 -0.854324 -2.210466
-18.080765 -0.852666 -1.583620
-7.953092 -0.358366 -2.133187
-9.587967 -0.428678 -2.215768
-11.952226 -0.532297 -2.325580
-15.984956 -0.706302 -2.534239
-18.068825 -0.792064 -2.220703
-18.115618 -0.787780 -1.586409
-7.931189 -0.328258 -2.126975
-9.585511 -0.395049 -2.214868
-11.969789 -0.489130 -2.328633
-15.995332 -0.648033 -2.535490
-18.091314 -0.729782 -2.223141
-18.227749 -0.728918 -1.595996
-7.936041 -0.303485 -2.128010
-9.588717 -0.363333 -2.215318
-11.975189 -0.451668 -2.329396
-16.017029 -0.598516 -2.538619
-18.101570 -0.670083 -2.224116
-18.054741 -0.665194 -1.580657
-7.933191 -0.275648 -2.126975
-9.586031 -0.329726 -2.214418
-11.972769 -0.409733 -2.328633
-15.979537 -0.541264 -2.532362
-18.016502 -0.603966 -2.213391
-18.092794 -0.603362 -1.583794
-83.684654 -2.732249 -1.461499
-7.941829 -0.248196 -2.129046
-9.591019 -0.296383 -2.215318
-11.974127 -0.367937 -2.328633
-16.012918 -0.486441 -2.537367
-18.046993 -0.538775 -1.579611
-83.653709 -2.438951 -1.460801
-7.954233 -0.220794 -2.132151
-9.593943 -0.262957 -2.215768
-11.963563 -0.325813 -2.326343
-16.030315 -0.430971 -2.539870
-18.058723 -0.476042 -1.580482
-83.641731 -2.146415 -1.460452
-7.939505 -0.192650 -2.128010
-9.592854 -0.229420 -2.215318
-11.968554 -0.284144 -2.327107
-16.043573 -0.375289 -2.541748
-18.084177 -0.413545 -1.582574
-83.644386 -1.868944 -1.460382
-7.943993 -0.165017 -2.129046
-9.613045 -0.198009 -2.219817
-11.993026 -0.242843 -2.331686
-16.017078 -0.321529 -2.537367
-17.947699 -0.354017 -2.204129
-18.244871 -0.353504 -1.596519
-83.642403 -1.576806 -1.460243
-7.944496 -0.138672 -2.129046
-9.594193 -0.164118 -2.215318
-11.981987 -0.202872 -2.329396
-16.026005 -0.265743 -2.538619
-18.117537 -0.294104 -2.224847
-18.343609 -0.291369 -1.605060
-83.657387 -1.285001 -1.460417
-7.960404 -0.109766 -2.133187
-9.586913 -0.130521 -2.213518
-11.986577 -0.159006 -2.330160
-16.018970 -0.206905 -2.537367
-18.124409 -0.230936 -2.225578
-83.663368 -0.992996 -1.460452
-7.949148 -0.081861 -2.130081
-9.606814 -0.095576 -2.218017
-11.983132 -0.117125 -2.329396
-16.035397 -0.151135 -2.539870
-18.109251 -0.164360 -2.223628
-83.670326 -0.700982 -1.460522
-7.945522 -0.054084 -2.129046
-9.607078 -0.063717 -2.218017
-11.983468 -0.075295 -2.329396
-16.035809 -0.097959 -2.539870
-18.149399 -0.104535 -2.228503
-18.407415 -0.099596 -1.610464
-19.275282 -0.100927 -1.010189
-83.336319 -0.407269 -1.454658
-7.945658 -0.027735 -2.129046
-9.595550 -0.030147 -2.215318
-11.995432 -0.035591 -2.331686
-16.036053 -0.041986 -2.539870
-18.197296 -0.041289 -2.234353
-19.271523 -0.033636 -1.009979
-83.577194 -0.116701 -1.458847
-7.945706 0.001386 -2.129046
-9.587801 0.003345 -2.213518
-12.003335 0.008378 -2.333213
-16.071657 0.016831 -2.545502
-18.375986 0.022446 -2.256289
-18.592957 0.029206 -1.626675
-20.126345 0.038639 -1.054779
-83.647079 0.175187 -1.460068
-7.945653 0.029121 -2.129046
-9.595520 0.038518 -2.215318
-11.995379 0.050244 -2.331686
-16.020140 0.072695 -2.537367
-83.604034 0.452346 -4.381567
-83.683868 0.481988 -1.460732
-7.953230 0.056912 -2.131116
-9.599224 0.072041 -2.216218
-11.983351 0.092029 -2.329396
-16.098803 0.129250 -2.549882
-24.068401 0.201635 -2.955332
-82.896950 0.737883 -4.344618
-83.639687 0.773710 -1.459999
-7.956846 0.084715 -2.132151
-9.591120 0.105463 -2.214418
-11.979031 0.133811 -2.328633
-16.090353 0.185354 -2.548631
-24.139006 0.286497 -2.964106
-83.646652 1.051194 -1.460173
-7.944912 0.112326 -2.129046
-9.606305 0.137491 -2.218017
-11.982417 0.175683 -2.329396
-16.089651 0.238711 -2.548631
-24.066471 0.365459 -2.955332
-83.662476 1.343492 -1.460522
-7.952222 0.138806 -2.131116
-9.586283 0.170674 -2.213518
-11.977842 0.215347 -2.328633
-16.096619 0.295018 -2.549882
-24.136497 0.450800 -2.964106
-83.551918 1.604269 -4.379578
-83.669273 1.635738 -1.460732
-7.951689 0.166564 -2.131116
-9.599266 0.204428 -2.216668
-11.984869 0.257325 -2.330160
-16.059940 0.350429 -2.544250
-24.063334 0.533460 -2.955332
-82.862923 1.880435 -4.343780
-83.671043 1.927974 -1.460871
-7.962647 0.194601 -2.134222
-9.588754 0.237693 -2.214418
-11.979973 0.299058 -2.329396
-16.082317 0.407086 -2.548005
-24.061325 0.617460 -2.955332
-83.671806 2.220244 -1.461011
-7.950333 0.222072 -2.131116
-9.611240 0.271822 -2.219817
-11.994555 0.341321 -2.332449
-16.084749 0.463332 -2.548631
-24.059023 0.701447 -2.955332
-83.675537 2.512662 -1.461220
-7.937923 0.249460 -2.128010
-9.602443 0.305123 -2.218017
-11.985442 0.382940 -2.330923
-16.051441 0.518456 -2.543625
-24.048491 0.785166 -2.954357
-83.521378 2.770689 -4.379578
-83.682243 2.805267 -1.461499
-7.940866 0.277300 -2.129046
-9.589634 0.338228 -2.215318
-11.991881 0.425054 -2.332449
-16.073223 0.575335 -2.547379
-23.997992 0.867380 -2.948507
-82.892456 3.039511 -4.347130
-83.671944 3.097358 -1.461499
-7.943710 0.305166 -2.130081
-9.584500 0.371551 -2.214418
-11.966783 0.465991 -2.327870
-16.079016 0.631748 -2.548631
-23.994820 0.951144 -2.948507
-83.688591 3.390524 -1.461988
-7.958038 0.333540 -2.134222
-9.579251 0.404839 -2.213518
-11.984697 0.508593 -2.331686
-16.049078 0.686685 -2.544250
-24.046885 1.037298 -2.955332
-83.655396 3.652480 -4.388371
-83.712212 3.684216 -1.462616
-7.945246 0.360789 -2.131116
-9.601140 0.439343 -2.218917
-11.982849 0.550422 -2.331686
-16.062372 0.743433 -2.546753
-24.114500 1.124555 -2.964106
-83.682037 3.946334 -4.390464
-83.791412 3.966148 -1.464222
-7.940079 0.388335 -2.130081
-9.582112 0.470320 -2.214868
-11.961246 0.591280 -2.327870
-16.075603 0.797478 -2.549257
-24.110638 1.204516 -2.964106
-83.777054 4.258613 -1.464222
-7.938748 0.414661 -2.130081
-9.586250 0.504072 -2.216218
-11.986668 0.632388 -2.333213
-16.049049 0.852330 -2.545502
-7.937252 0.442372 -2.130081
-9.572759 0.536874 -2.213518
-11.972626 0.673567 -2.330923
-16.069645 0.909683 -2.549257
-24.200737 1.378455 -2.976293
-83.721329 4.841997 -1.463803
-7.935659 0.470076 -2.130081
-9.574717 0.570518 -2.214418
-11.962362 0.714886 -2.329396
-16.070312 0.966013 -2.549882
-24.096703 1.456927 -2.964106
-83.667511 5.102646 -4.392976
-83.735855 5.136171 -1.464362
-7.922402 0.497046 -2.126975
-9.564887 0.603449 -2.212619
-11.959794 0.756636 -2.329396
-16.055014 1.021350 -2.548005
-24.091471 1.541032 -2.964106
-83.495728 5.384795 -4.384916
-83.709427 5.427897 -1.464222
-7.920619 0.524698 -2.126975
-9.574390 0.637608 -2.215318
-11.949245 0.797856 -2.327870
-16.063179 1.078177 -2.549882
-24.085943 1.625124 -2.964106
-82.896545 5.636789 -4.354456
-83.733856 5.723066 -1.464990
-7.930302 0.553149 -2.130081
-9.552666 0.669662 -2.210819
-11.942471 0.839287 -2.327107
-16.059317 1.134242 -2.549882
-24.080126 1.709185 -2.964106
-83.753273 6.018207 -1.465688
-7.920616 0.580264 -2.128010
-9.550270 0.703003 -2.210819
-11.951216 0.881836 -2.329396
-16.082838 1.192338 -2.554262
-24.074013 1.793231 -2.964106
-83.635918 6.273925 -4.395488
-83.791573 6.315014 -1.466735
-7.941656 0.609683 -2.134222
-9.567188 0.737832 -2.215318
-11.940235 0.922943 -2.327870
-16.086456 1.249082 -2.555514
-24.067606 1.877254 -2.964106
-82.769264 6.499538 -4.351107
-83.769020 6.607465 -1.466735
-7.897115 0.634000 -2.122834
-9.545129 0.769660 -2.210819
-11.933027 0.964301 -2.327107
-16.089872 1.305866 -2.556765
-24.060907 1.961249 -2.964106
-83.745445 6.899836 -1.466735
-7.910255 0.662851 -2.126975
-9.550152 0.803628 -2.212619
-11.949151 1.007596 -2.330923
-16.097029 1.363023 -2.558642
-24.053915 2.045232 -2.964106
-83.720848 7.192102 -1.466735
-7.911742 0.690795 -2.128010
-9.549230 0.837127 -2.213068
-11.926003 1.047583 -2.327107
-16.092173 1.419200 -2.558642
-24.117813 2.135487 -2.972881
-83.661507 7.451871 -4.401873
-7.893891 0.717012 -2.123869
-9.532665 0.869217 -2.209919
-11.934005 1.090281 -2.329396
-16.091055 1.475725 -2.559268
-24.039049 2.213104 -2.964106
-83.032402 7.688047 -4.370158
-7.906726 0.746013 -2.128010
-9.535393 0.903038 -2.211269
-11.918400 1.130816 -2.327107
-16.109404 1.534136 -2.563023
-24.031178 2.297004 -2.964106
-7.884848 0.771726 -2.122834
-9.536061 0.936698 -2.212169
-11.926103 1.173566 -2.329396
-16.107880 1.590744 -2.563648
-23.951902 2.373827 -2.955332
-7.889793 0.800024 -2.124904
-9.540488 0.970769 -2.213968
-11.910215 1.213995 -2.327107
-16.066856 1.643344 -2.558017
-24.014986 2.460526 -2.964106
-7.894783 0.826989 -2.126975
-9.523650 1.000976 -2.210819
-11.910028 1.253896 -2.327870
-16.073107 1.697860 -2.559894
-24.006693 2.540150 -2.964106
-7.891997 0.853165 -2.126975
-9.508656 1.031291 -2.208120
-11.905805 1.293384 -2.327870
-16.071314 1.751579 -2.560519
-23.997683 2.623928 -2.964106
-7.888817 0.882083 -2.126975
-9.524363 1.066646 -2.212619
-11.924397 1.339640 -2.332449
-16.076567 1.811796 -2.562397
-23.889750 2.696554 -2.951920
-7.874175 0.908288 -2.123869
-9.512646 1.100649 -2.210819
-11.907947 1.379903 -2.330160
-16.066219 1.867447 -2.561771
-7.863283 0.934855 -2.121799
-9.514552 1.134542 -2.212169
-11.918653 1.423324 -2.333213
-16.051756 1.922581 -2.560519
-23.968386 2.879268 -2.964106
-61.145988 7.377807 -3.227768
-7.882982 0.965115 -2.128010
-9.498927 1.166323 -2.209469
-11.933096 1.467312 -2.337029
-16.017500 1.975217 -2.556139
-23.879385 2.953176 -2.954357
-61.119862 7.591218 -3.227768
-7.864232 0.990694 -2.123869
-9.496733 1.199715 -2.209919
-11.931798 1.509451 -2.337792
-16.053621 2.036582 -2.563023
-23.821671 3.030501 -2.948507
-61.291107 7.829831 -3.238235
-7.876052 1.020123 -2.128010
-9.506014 1.234615 -2.213068
-11.926456 1.551089 -2.337792
-16.026827 2.090053 -2.559894
-7.857124 1.045573 -2.123869
-9.486194 1.265728 -2.209469
-11.913186 1.591674 -2.336265
-16.023348 2.146509 -2.560519
-23.729109 3.187215 -2.939733
-7.857254 1.073516 -2.124904
-9.491372 1.300156 -2.211719
-11.899777 1.632182 -2.334739
-15.976619 2.197047 -2.554262
-23.816162 3.283583 -2.951920
-53.031010 7.339788 -2.805731
-7.849633 1.100400 -2.123869
-9.490634 1.333822 -2.212619
-11.917336 1.676993 -2.339318
-15.968852 2.252802 -2.554262
-23.804556 3.366698 -2.951920
-52.953648 7.517559 -2.803010
-7.857217 1.129441 -2.126975
-9.474348 1.365275 -2.209919
-11.891979 1.715777 -2.335502
-15.976530 2.310793 -2.556765
-23.694431 3.435529 -2.939733
-52.931038 7.702932 -2.803219
-7.841759 1.155172 -2.123869
-9.485191 1.398960 -2.213518
-11.885918 1.757277 -2.335502
-15.945333 2.360290 -2.553011
-23.808578 3.532732 -2.955332
-53.023731 7.896069 -2.809499
-7.824514 1.179155 -2.120246
-9.489884 1.433515 -2.215768
-11.868378 1.794922 -2.333213
-15.952621 2.418301 -2.555514
-23.670498 3.596732 -2.939733
-7.824169 1.207050 -2.121281
-9.494452 1.468121 -2.218017
-11.885321 1.839946 -2.337792
-15.928467 2.471548 -2.553011
-23.657799 3.679331 -2.939733
-7.814183 1.233451 -2.119728
-9.477722 1.499427 -2.215318
-11.851679 1.877120 -2.332449
-15.927546 2.528373 -2.554262
-7.823180 1.262875 -2.123352
-9.493590 1.535925 -2.220267
-11.868309 1.922246 -2.337029
-15.871825 2.576360 -2.546753
-23.631536 3.844404 -2.939733
-7.824442 1.291119 -2.124904
-44.865063 7.411263 0.793735
-9.482403 1.568101 -2.218917
-11.849907 1.961739 -2.334739
-15.874430 2.633687 -2.548631
-23.617971 3.926871 -2.939733
-45.165257 7.509456 7.251677
-44.808563 7.474271 -2.380763
-45.189194 7.545857 10.577198
-7.812268 1.317137 -2.122834
-9.473308 1.598889 -2.218017
-11.846859 2.003743 -2.335502
-15.881187 2.688953 -2.551134
-23.604822 4.005164 -2.939733
-44.673275 7.604033 -2.374901
-7.804049 1.342382 -2.121799
-44.943645 7.738874 0.796039
-9.471510 1.632610 -2.218917
-11.820802 2.039680 -2.331686
-15.844454 2.739661 -2.546753
-23.590696 4.087542 -2.939733
-43.034622 7.472039 8.490237
-44.729103 7.774302 -2.379297
-7.810493 1.372985 -2.124904
-9.454238 1.663633 -2.216218
-11.832581 2.086404 -2.335502
-15.810965 2.793587 -2.542999
-23.576284 4.169865 -2.939733
-44.759308 7.948668 -2.382438
-7.807555 1.400580 -2.125422
-9.436568 1.696207 -2.213518
-11.802039 2.123520 -2.330923
-15.808890 2.850167 -2.544250
-7.817821 1.430607 -2.129563
-9.442393 1.729595 -2.216218
-11.813865 2.168248 -2.334739
-15.830441 2.908283 -2.549257
-40.640224 7.473536 5.073665
-23.546598 4.334351 -2.939733
-40.934513 7.549822 8.091065
-7.803537 1.454754 -2.126975
-9.424805 1.760399 -2.213518
-39.700653 7.422600 2.116676
-11.783452 2.203083 -2.330160
-15.761942 2.952617 -2.539870
-23.461088 4.403336 -2.930958
-39.608715 7.441198 6.383152
-39.090862 7.372155 -0.694361
-7.787024 1.479821 -2.123869
-38.912247 7.401783 0.691395
-9.418602 1.793287 -2.213518
-39.184013 7.467660 2.090508
-11.791119 2.247143 -2.333213
-15.763185 3.009838 -2.541748
-23.390982 4.474766 -2.924133
-38.876297 7.444178 6.269268
-38.395115 7.352039 -3.420166
-39.067806 7.502056 9.184302
-38.448269 7.390045 -0.683401
-7.793191 1.509196 -2.126975
-9.404634 1.824669 -2.211719
-11.814038 2.294273 -2.339318
-15.748704 3.064090 -2.541122
-23.375219 4.556384 -2.924133
-38.268429 7.466355 6.175408
-37.618298 7.339511 -3.353230
-38.372013 7.507422 9.026836
-37.711842 7.385104 -0.670766
-7.791666 1.537138 -2.128010
-9.394382 1.856728 -2.210819
-11.782847 2.330929 -2.334739
-15.722410 3.115968 -2.538619
-40.582539 8.050281 5.080002
-37.587265 7.469749 6.069658
-37.006199 7.354274 -3.300936
-37.753113 7.523258 8.887366
-37.015148 7.382916 -0.658828
-7.786252 1.564328 -2.128010
-9.384024 1.888741 -2.209919
-37.053066 7.457742 1.980812
-11.766940 2.370494 -2.333213
-15.738545 3.176302 -2.542999
-36.942799 7.462395 4.627623
-23.272795 4.705300 -2.915359
-36.934956 7.467519 5.968288
-36.394459 7.364854 -3.248643
-36.959694 7.485950 7.330119
-37.306458 7.569742 8.788387
-36.382938 7.382353 -0.648008
-7.776960 1.590722 -2.126975
-36.263542 7.417450 0.646088
-9.385345 1.921412 -2.211719
-36.655052 7.510870 1.960924
-11.770133 2.413921 -2.335502
-15.704705 3.223710 -2.539244
-36.816738 7.564089 4.614948
-23.257063 4.782451 -2.915359
-36.258568 7.462593 5.863165
-35.783104 7.371254 -3.196350
-35.767555 7.374558 -1.913926
-36.387962 7.509085 8.577833
-35.804688 7.395244 -0.638165
-7.771642 1.616505 -2.126975
-9.388120 1.956149 -2.213968
-36.657318 7.638078 1.962389
-11.758220 2.452138 -2.334739
-15.697223 3.279322 -2.539870
-36.809540 7.696620 4.617386
-23.240229 4.863599 -2.915359
-35.846920 7.501865 5.800591
-35.173439 7.367339 -3.144056
-35.674286 7.478744 7.085120
-35.206009 7.386981 -1.885246
-35.789387 7.515915 8.442863
-35.157639 7.383245 -0.627065
-7.765953 1.643621 -2.126975
-35.108829 7.430592 0.626402
-9.360611 1.982829 -2.209019
-36.661686 7.772625 1.964064
-11.745748 2.492349 -2.333976
-15.678535 3.329713 -2.538619
-36.807117 7.823599 4.620311
-23.150190 4.924944 -2.906096
-35.167480 7.487904 5.694841
-34.590202 7.371308 -3.094203
-35.096294 7.479159 6.975214
-34.571880 7.373703 -1.852588
-35.638481 7.607707 8.413169
-34.603653 7.393116 -0.617641
-35.360996 7.561369 9.689150
-7.752614 1.669093 -2.124904
-34.494907 7.432847 0.615930
-9.353280 2.017124 -2.209019
-36.699337 7.921265 1.967623
-11.733138 2.532506 -2.333213
-15.666225 3.387156 -2.538619
-36.844166 7.972717 4.628598
-23.011696 4.983716 -2.890985
-34.410049 7.458573 5.576577
-34.104725 7.392392 -3.053066
-34.473869 7.478705 6.856912
-28.271585 6.138365 -1.516173
-33.974487 7.388997 -0.606890
-7.754289 1.697796 -2.126975
-33.937443 7.436794 0.606436
-9.357604 2.052266 -2.211719
-36.624641 8.039045 1.965111
-11.720392 2.572606 -2.332449
-15.662023 3.443517 -2.539870
-34.059261 7.494643 4.282001
-22.738260 5.007649 -2.858811
-33.920830 7.476595 5.501488
-28.169662 6.208962 -2.523682
-33.952927 7.489892 6.758455
-28.222685 6.230980 -1.514707
-33.538456 7.416877 -0.599560
-34.268574 7.584604 9.404449
-7.721915 1.718979 -2.119728
-9.350383 2.084918 -2.211719
-36.650936 8.179022 1.968041
-11.699843 2.610936 -2.330160
-33.406204 7.461048 2.994671
-15.642198 3.496444 -2.538619
-33.505978 7.495611 4.215705
-22.422323 5.020200 -2.821276
-33.574547 7.523257 5.449552
-28.208086 6.320761 -2.529085
-33.374866 7.484630 6.648549
-28.189072 6.326834 -1.514079
-36.475731 8.193402 8.630921
-32.966084 7.411088 -0.589787
-7.723404 1.747628 -2.121799
-32.858833 7.441224 0.588076
-9.343049 2.117542 -2.211719
-38.971191 8.839732 2.094276
-11.671511 2.647418 -2.326343
-32.991367 7.489399 2.959809
-15.614485 3.547523 -2.536116
-32.956970 7.493688 4.149895
-22.067865 5.021796 -2.778865
-33.551929 7.641286 5.450177
-28.197506 6.421843 -2.530131
-32.885307 7.495502 6.556197
-28.197969 6.432302 -1.515754
-36.469704 8.325882 8.636321
-32.581310 7.444160 -0.583364
-33.141338 7.578201 9.109396
-7.728553 1.777175 -2.124904
-32.372757 7.450032 0.579839
-9.312811 2.144897 -2.206320
-39.006264 8.990967 2.097835
-11.677503 2.691671 -2.329396
-32.576744 7.514937 2.924947
-15.598158 3.601118 -2.535490
-32.466419 7.501431 4.091398
-21.655657 5.007559 -2.729142
-31.940630 7.391692 -2.868295
-32.392258 7.502164 6.463083
-31.891590 7.392071 -1.715677
-36.523949 8.472511 8.656116
-32.775970 7.615153 9.016221
-7.718540 1.803261 -2.123869
-31.859758 7.449171 0.571113
-9.305267 2.177392 -2.206320
-11.675684 2.734205 -2.330923
-32.065353 7.514958 2.881369
-15.604725 3.660056 -2.538619
-31.964626 7.503114 4.031438
-21.348169 5.015030 -2.692582
-33.536228 7.884379 5.456435
-31.453032 7.394619 -2.826809
-31.876642 7.500072 6.365388
-31.465109 7.409049 -1.694115
-36.494152 8.599954 8.656116
-32.094887 7.575079 8.836083
-7.719718 1.831978 -2.125940
-31.424982 7.463310 0.563783
-9.312778 2.213463 -2.209919
-38.973637 9.270448 2.099509
-11.662249 2.774036 -2.330160
-15.557266 3.706260 -2.532987
-31.463223 7.501393 3.971478
-21.071795 5.027784 -2.659920
-33.604572 8.024327 5.472078
-31.027824 7.409033 -2.790901
-31.372892 7.497227 6.269984
-30.941778 7.399911 -1.667319
-31.494658 7.537940 7.476473
-31.598589 7.574484 8.706674
-7.698250 1.855294 -2.121799
-30.932194 7.460426 0.555405
-9.293628 2.243214 -2.207220
-39.026459 9.427079 2.104115
-11.641043 2.811965 -2.327870
-30.946976 7.481139 2.785497
-15.571113 3.767046 -2.537367
-31.012388 7.508418 3.917856
-20.957653 5.077930 -2.647734
-33.618591 8.151821 5.478961
-30.533192 7.403675 -2.748718
-30.938248 7.507618 6.188318
-30.492655 7.405116 -1.644500
-30.994749 7.532778 7.363997
-33.368000 8.115734 -0.599420
-31.433054 7.650921 8.668367
-7.687975 1.881235 -2.120763
-30.451464 7.457056 0.547238
-9.293312 2.277497 -2.209019
-39.033787 9.565945 2.106209
-11.634971 2.853515 -2.328633
-30.533680 7.494137 2.750635
-15.523337 3.812899 -2.531736
-30.546471 7.508582 3.862283
-20.939800 5.151056 -2.647734
-33.645081 8.276473 5.487722
-30.054457 7.398773 -2.707929
-30.603039 7.539480 6.126495
-30.129200 7.428320 -1.626288
-30.597433 7.549435 7.275817
-33.352551 8.229218 -0.599630
-7.696360 1.911785 -2.124904
-30.088882 7.474116 0.541164
-9.274362 2.305481 -2.206320
-39.097061 9.726249 2.111442
-11.628749 2.895061 -2.329396
-30.120678 7.504342 2.715773
-15.495275 3.860532 -2.529233
-30.062984 7.495541 3.804274
-20.737703 5.174332 -2.624335
-33.627487 8.396738 5.489599
-29.090965 7.269370 -2.623388
-30.177883 7.540973 6.046356
-29.073603 7.270422 -1.570602
-30.126087 7.539210 7.169640
-33.366299 8.356278 -0.600398
-7.674992 1.933522 -2.120763
-29.612755 7.465688 0.533066
-9.258699 2.335932 -2.204520
-38.967770 9.831409 2.106209
-11.630506 2.936491 -2.331686
-29.659067 7.493881 2.676378
-15.500856 3.919440 -2.532362
-29.659447 7.504992 3.756501
-20.592508 5.214528 -2.608248
-33.633923 8.516934 5.495231
-29.039658 7.358947 -2.620947
-29.648981 7.518862 5.945609
-29.140968 7.395446 -1.575626
-29.687832 7.539752 7.071561
-32.187134 8.174494 -0.579664
-7.683168 1.964129 -2.124904
-29.169361 7.456868 0.525527
-9.269782 2.371452 -2.209019
-39.014477 9.988187 2.110605
-11.608773 2.974148 -2.329396
-29.350952 7.525115 2.650929
-15.487774 3.970818 -2.532362
-29.265215 7.508584 3.709703
-20.586639 5.285750 -2.609710
-29.138510 7.486909 4.764994
-28.894159 7.429509 -2.610140
-29.175154 7.501760 5.855547
-28.849358 7.423357 -1.561182
-29.315424 7.548745 6.988779
-28.885826 7.443492 -0.520675
-32.534428 8.389744 9.002762
-7.665392 1.986688 -2.121799
-28.783123 7.465259 0.519035
-9.257675 2.402819 -2.208120
-38.994835 10.128329 2.111442
-11.579844 3.007693 -2.325580
-28.809048 7.488082 2.604213
-15.462347 4.021876 -2.530484
-28.908403 7.524687 3.667780
-20.579590 5.360576 -2.611173
-28.810179 7.509858 4.715561
-28.536453 7.443826 -2.580159
-28.803045 7.513368 5.786092
-28.517935 7.444304 -1.544644
-28.926889 7.556457 6.902398
-28.542377 7.461335 -0.514951
-29.006254 7.588006 8.033743
-7.646852 2.011820 -2.118693
-28.424263 7.478174 0.513031
-9.245461 2.434128 -2.207220
-28.541531 7.519679 1.546842
-11.561150 3.048110 -2.324054
-28.511703 7.522471 2.579810
-15.451323 4.079527 -2.531110
-28.471228 7.517100 3.615620
-20.576105 5.436442 -2.613123
-28.539341 7.545748 4.675514
-28.148188 7.447577 -2.547388
-28.581732 7.567631 5.747167
-28.096605 7.444430 -1.523291
-28.461990 7.546558 6.798021
-28.319004 7.508646 -0.511390
-28.632284 7.597059 7.937463
-7.636047 2.037505 -2.117657
-28.068220 7.494606 0.507097
-9.232713 2.466989 -2.206320
-28.136911 7.518208 1.526326
-11.561819 3.091494 -2.326343
-28.419832 7.604434 2.573883
-15.414090 4.127306 -2.527355
-28.121349 7.535094 3.574672
-20.548374 5.509760 -2.612148
-28.028202 7.515371 4.596045
-27.760246 7.448716 -2.514617
-28.547558 7.665318 5.745641
-27.692396 7.440880 -1.502775
-28.077913 7.549722 6.712540
-28.300346 7.609530 -0.511530
-28.650362 7.709006 7.949886
-7.651267 2.070201 -2.123869
-27.645573 7.480054 0.499907
-9.205670 2.492500 -2.201821
-27.755791 7.520274 1.507066
-11.547169 3.130803 -2.325580
-28.423880 7.711939 2.576672
-15.400318 4.178399 -2.527355
-27.670914 7.512838 3.520562
-20.522326 5.575794 -2.611173
-27.666309 7.521950 4.540980
-27.388025 7.451430 -2.483241
-28.533348 7.763037 5.747931
-27.305271 7.434033 -1.483096
-27.703007 7.547506 6.628858
-28.312199 7.718791 -0.512228
-27.784595 7.580160 7.716949
-7.640634 2.094541 -2.122834
-27.249033 7.474941 0.493205
-9.211948 2.528746 -2.205420
-27.368608 7.512879 1.487388
-11.529150 3.166998 -2.324054
-28.482679 7.829391 2.584342
-15.400878 4.236323 -2.529859
-27.280880 7.509287 3.474252
-20.483599 5.642120 -2.608735
-27.298412 7.519231 4.484664
-27.048161 7.455380 -2.454654
-28.472010 7.853195 5.741061
-26.974964 7.445336 -1.466558
-27.319590 7.545594 6.543376
-28.294155 7.814765 -0.512368
-27.439037 7.583739 7.627915
-7.623970 2.118613 -2.120246
-26.888849 7.472100 0.487132
-9.199757 2.558236 -2.204520
-26.999716 7.513069 1.468756
-11.506678 3.204063 -2.321764
-28.432146 7.922350 2.582250
-15.363909 4.281009 -2.526104
-26.961353 7.517606 3.436716
-20.457129 5.707882 -2.607760
-26.940945 7.522044 4.430224
-26.634352 7.441459 -2.419443
-28.540352 7.973983 5.760142
-26.580812 7.431495 -1.446461
-26.949112 7.539536 6.460594
-28.301365 7.923188 -0.512996
-27.073837 7.584620 7.533705
-7.607604 2.141266 -2.117657
-26.527687 7.471585 0.481058
-9.190771 2.590332 -2.204520
-26.658077 7.518354 1.451590
-11.502981 3.246343 -2.323290
-28.428728 8.023086 2.584342
-15.364082 4.338904 -2.528607
-26.571997 7.509098 3.390405
-20.437078 5.779256 -2.607760
-26.557182 7.514930 4.371405
-26.312996 7.450785 -2.392599
-28.571381 8.095655 5.772354
-26.272856 7.449332 -1.431179
-26.637653 7.552766 6.392210
-28.288929 8.026291 -0.513275
-26.671797 7.572499 7.429142
-7.603421 2.170194 -2.118693
-26.169401 7.474307 0.475055
-9.188710 2.626144 -2.206320
-26.315416 7.525938 1.434424
-11.502329 3.291723 -2.325580
-28.491072 8.153541 2.592709
-15.348075 4.395192 -2.528607
-26.261869 7.525509 3.354332
-20.419577 5.855218 -2.608248
-26.229460 7.526129 4.321972
-25.940805 7.448205 -2.361223
-25.926741 7.453963 -1.413804
-26.370066 7.581419 6.334622
-26.309700 7.574008 7.335968
-7.587991 2.195901 -2.116622
-25.838348 7.482283 0.469540
-9.152819 2.652210 -2.200021
-26.008905 7.536593 1.419142
-11.475685 3.327480 -2.322527
-15.297714 4.441501 -2.522975
-26.032049 7.563008 3.328496
-20.390354 5.927804 -2.607273
-25.899530 7.529410 4.271913
-25.627686 7.455231 -2.335077
-29.590948 8.613767 5.990640
-25.601423 7.457285 -1.397475
-25.997858 7.577682 6.251840
-25.971535 7.574927 7.249004
-7.583987 2.223462 -2.117657
-25.514040 7.480168 0.464094
-9.155193 2.685839 -2.202721
-25.648987 7.529455 1.400929
-11.456466 3.365304 -2.321001
-29.487160 8.667353 2.688929
-15.301854 4.497774 -2.526104
-25.736395 7.569752 3.293885
-20.343924 5.987542 -2.603861
-25.535799 7.520431 4.216222
-25.318659 7.461291 -2.309278
-29.573519 8.715178 5.992929
-25.270041 7.451756 -1.380727
-25.524010 7.531490 6.143863
-25.626272 7.571389 7.159970
-7.572868 2.247500 -2.116622
-25.215567 7.488339 0.459138
-9.134554 2.714452 -2.200021
-25.317554 7.523442 1.384181
-11.449006 3.404396 -2.321764
-29.442980 8.760544 2.687535
-15.259556 4.543272 -2.521724
-25.420639 7.573391 3.256837
-20.330509 6.060783 -2.604836
-25.188902 7.509132 4.163034
-25.007389 7.459779 -2.283132
-29.573017 8.827341 5.999035
-24.956816 7.454174 -1.365026
-25.187620 7.527906 6.069180
-25.775331 7.703557 -0.469574
-25.271570 7.557802 7.067831
-7.553877 2.270583 -2.113516
-24.872700 7.476362 0.453344
-9.131101 2.746410 -2.201371
-25.042511 7.536943 1.370574
-11.422014 3.439808 -2.318711
-29.461823 8.878213 2.692067
-15.233060 4.590427 -2.519847
-25.060886 7.556786 3.213939
-20.336906 6.136197 -2.608248
-24.905350 7.519369 4.120484
-24.683664 7.457140 -2.255939
-29.566132 8.932174 6.003614
-24.652836 7.452515 -1.349744
-24.901381 7.532399 6.006193
-32.102577 9.716799 -0.585458
-24.967699 7.561967 6.990185
-7.555146 2.299750 -2.116105
-24.573492 7.484745 0.448387
-9.106060 2.775314 -2.197772
-24.691267 7.525320 1.352780
-11.417450 3.481949 -2.320238
-29.464949 8.991475 2.695204
-15.246360 4.655458 -2.524853
-24.588785 7.512849 3.156904
-20.291496 6.203735 -2.605323
-24.584255 7.516163 4.071677
-24.367891 7.454658 -2.229444
-29.536955 9.041623 6.004378
-24.342722 7.456257 -1.334253
-24.720823 7.576784 5.969301
-32.083755 9.833479 -0.585738
-24.667803 7.565250 6.913575
-7.552611 2.327814 -2.117657
-24.277178 7.482544 0.443431
-9.093082 2.804347 -2.196872
-24.405300 7.531368 1.338545
-11.420233 3.526416 -2.323290
-29.448612 9.098971 2.696599
-15.219512 4.702494 -2.522975
-24.294430 7.511087 3.122293
-20.255642 6.266298 -2.603373
-24.301233 7.522485 4.029127
-24.094307 7.463038 -2.206783
-24.043148 7.451798 -1.319180
-24.706728 7.662184 5.972001
-32.110355 9.964379 -0.586855
-24.394022 7.574546 6.844212
-7.544849 2.352848 -2.117657
-23.995117 7.487431 0.438754
-9.085098 2.836652 -2.197322
-24.089090 7.525982 1.322634
-11.389735 3.558414 -2.319474
-15.191693 4.752053 -2.521098
-23.995260 7.510459 3.087194
-20.188183 6.322721 -2.597523
-23.992079 7.518660 3.982196
-23.803257 7.459486 -2.182380
-23.807369 7.469902 -1.307666
-24.679832 7.748380 5.972001
-32.079185 10.077611 -0.586924
-24.076248 7.568115 6.762424
-7.518169 2.373353 -2.112481
-23.713320 7.490434 0.434076
-9.080715 2.870110 -2.198672
-23.799879 7.526913 1.308190
-11.347295 3.588678 -2.313368
-29.473375 9.326861 2.704617
-15.201379 4.813401 -2.525478
-23.749380 7.524622 3.058921
-20.177341 6.396752 -2.598986
-23.709614 7.521130 3.939646
-23.496000 7.453368 -2.156582
-23.749933 7.538483 4.843496
-23.491806 7.461064 -1.291756
-24.656351 7.835664 5.972900
-32.085743 10.202851 -0.587692
-23.773546 7.564250 6.684779
-7.507998 2.398996 -2.111964
-23.507984 7.515920 0.430795
-9.061362 2.898819 -2.196422
-23.527493 7.526677 1.294582
-11.338438 3.629462 -2.314131
-29.459612 9.435765 2.706360
-15.120526 4.845934 -2.514841
-23.450769 7.520189 3.023822
-20.154890 6.467146 -2.598986
-23.455069 7.526082 3.901476
-23.227024 7.457380 -2.134270
-23.458050 7.536071 4.789306
-23.218433 7.463562 -1.278149
-24.608440 7.915119 5.967951
-32.089802 10.321443 -0.588390
-23.498234 7.562555 6.614380
-7.503255 2.426378 -2.112999
-23.285053 7.529846 0.427165
-9.042429 2.925853 -2.194173
-23.250256 7.527558 1.280766
-11.348113 3.676280 -2.318711
-29.449242 9.545906 2.708452
-15.081823 4.888740 -2.511086
-23.225548 7.532995 2.997986
-20.152214 6.540075 -2.601423
-23.191929 7.531033 3.862055
-22.996204 7.471919 -2.115444
-23.186466 7.533739 4.738932
-22.954233 7.462711 -1.264960
-25.371502 8.253486 6.159610
-32.091606 10.445774 -0.589089
-23.321068 7.595477 6.571934
-7.497003 2.451848 -2.113516
-23.034367 7.537688 0.423046
-9.021049 2.953760 -2.191473
-23.011261 7.539026 1.269042
-11.332128 3.712670 -2.317948
-29.489368 9.667097 2.715076
-15.042143 4.933968 -2.507332
-23.138756 7.594214 2.990186
-20.068914 6.590557 -2.593624
-22.891506 7.521917 3.816376
-22.713877 7.463550 -2.091738
-22.943684 7.543499 4.694665
-22.704172 7.469137 -1.252609
-25.357344 8.346879 6.163209
-32.096737 10.571495 -0.589856
-23.088919 7.609108 6.513958
-7.493901 2.479821 -2.115069
-22.795298 7.547649 0.419137
-9.014381 2.986460 -2.192373
-22.749725 7.541372 1.256063
-11.296737 3.744788 -2.313368
-29.474354 9.776248 2.716819
-15.021077 4.985204 -2.506706
-23.138483 7.683691 2.993599
-20.015644 6.650556 -2.589724
-22.625174 7.522008 3.776329
-22.457026 7.466106 -2.070472
-22.701118 7.551652 4.650397
-22.427814 7.465083 -1.238792
-25.394615 8.457511 6.179405
-32.105171 10.698635 -0.590694
-22.783648 7.596781 6.435277
-7.474209 2.502285 -2.111964
-22.503355 7.538250 0.414250
-9.011294 3.020383 -2.194173
-22.496031 7.544531 1.243502
-11.283596 3.784199 -2.313368
-14.962387 5.023771 -2.499823
-19.984777 6.717857 -2.588749
-22.355379 7.519069 3.735656
-22.210464 7.474643 -2.050251
-22.425283 7.546938 4.599260
-22.204765 7.477045 -1.227906
-25.368631 8.547341 6.180305
-32.082790 10.815750 -0.590973
-22.412855 7.560183 6.337961
-7.454009 2.525943 -2.108858
-22.260998 7.543592 0.410271
-8.993314 3.049317 -2.192373
-22.216112 7.537028 1.229476
-11.280806 3.829316 -2.315658
-14.850358 5.046797 -2.484180
-23.088036 7.846318 2.994086
-19.968727 6.790129 -2.589724
-22.123285 7.527069 3.701240
-21.969223 7.478936 -2.030380
-22.141012 7.541724 4.546597
-21.946571 7.479768 -1.215136
-25.355577 8.646561 6.184804
-32.109188 10.949625 -0.592160
-22.166925 7.563511 6.275845
-7.454283 2.555079 -2.111446
-22.006214 7.547286 0.406083
-8.972860 3.079097 -2.190123
-21.985641 7.544518 1.218172
-11.256228 3.864845 -2.313368
-29.511808 10.138688 2.730067
-14.720566 5.060076 -2.465408
-23.032843 7.921848 2.990674
-19.917425 6.854229 -2.586311
-21.883938 7.530970 3.665573
-21.731993 7.482928 -2.010857
-21.921511 7.552458 4.506909
-21.701298 7.480827 -1.202994
-25.373138 8.751537 6.196502
-32.101021 11.072075 -0.592719
-21.902990 7.558908 6.208551
-7.454445 2.584248 -2.114034
-21.784571 7.552101 0.402452
-8.962602 3.108833 -2.190123
-21.736525 7.543945 1.205821
-11.231542 3.900249 -2.311079
-29.468714 10.239019 2.729369
-14.543233 5.053103 -2.438501
-23.955204 8.328022 3.114006
-19.872089 6.912415 -2.583387
-21.644835 7.533298 3.629906
-21.495007 7.485352 -1.991334
-21.644194 7.537304 4.455009
-21.472675 7.481777 -1.191690
-25.362379 8.842047 6.201001
-32.107491 11.199861 -0.593556
-21.734201 7.585664 6.168176
-7.434895 2.605120 -2.110928
-21.527853 7.547379 0.398194
-8.951694 3.140102 -2.190123
-21.498989 7.545693 1.194097
-11.203726 3.932272 -2.308026
-29.513550 10.364413 2.736690
-14.391320 5.056693 -2.415974
-23.955952 8.422125 3.117906
-19.832857 6.976465 -2.581437
-21.454437 7.551090 3.602373
-21.278368 7.489121 -1.973555
-21.432571 7.547598 4.416847
-21.250519 7.487651 -1.180804
-25.375473 8.946069 6.211799
-32.098373 11.322513 -0.594115
-21.689371 7.655061 6.162999
-7.418474 2.628475 -2.108858
-21.309132 7.554327 0.394634
-8.942515 3.171982 -2.190573
-21.269238 7.548542 1.182793
-11.193633 3.972667 -2.308789
-21.238596 7.541846 1.971811
-14.228395 5.055313 -2.391570
-23.978781 8.524309 3.124730
-19.800903 7.042997 -2.580462
-21.275341 7.571623 3.576718
-21.030603 7.484525 -1.952986
-21.184156 7.543333 4.371053
-21.032349 7.493418 -1.170128
-25.373457 9.045061 6.218997
-32.085026 11.443894 -0.594604
-21.684353 7.738511 6.169211
-7.398341 2.650445 -2.105752
-21.079329 7.555797 0.390864
-8.931389 3.203176 -2.190573
-21.047253 7.552585 1.171907
-11.187090 4.014369 -2.310315
-21.002121 7.540533 1.952289
-14.065656 5.052855 -2.367167
-23.967562 8.614674 3.127168
-19.772459 7.110728 -2.579974
-21.066629 7.580300 3.546057
-20.793076 7.485968 -1.933463
-20.965588 7.548076 4.331364
-20.788092 7.488272 -1.157985
-20.945471 7.549093 5.140131
-32.123890 11.584315 -0.596070
-20.988485 7.572875 5.978720
-7.395842 2.680176 -2.107822
-20.842260 7.553020 0.386955
-8.905497 3.229018 -2.186974
-20.810476 7.549726 1.160184
-11.164919 4.052665 -2.308789
-20.775837 7.545361 1.933812
-13.924504 5.059851 -2.346517
-20.769327 7.547105 2.713299
-19.743788 7.178348 -2.579487
-20.839556 7.580854 3.512267
-20.587082 7.493085 -1.916729
-20.716413 7.544253 4.285570
-20.561592 7.491931 -1.146890
-20.826120 7.592439 5.117637
-20.596634 7.508777 -0.382661
-20.776804 7.578569 5.925921
-7.391883 2.707970 -2.109375
-20.596642 7.549529 0.382906
-8.886284 3.258953 -2.185175
-20.581484 7.548047 1.148879
-11.154390 4.092967 -2.309552
-20.573563 7.553290 1.917426
-13.762127 5.055298 -2.322114
-20.551477 7.553324 2.688438
-19.672632 7.234222 -2.573637
-20.612732 7.579926 3.478477
-20.385036 7.500234 -1.900344
-20.535194 7.559546 4.253514
-20.374134 7.504298 -1.137888
-20.594696 7.589618 5.067247
-20.412687 7.522544 -0.379729
-20.605221 7.597576 5.884511
-7.386009 2.735098 -2.110410
-20.308960 7.520571 0.378019
-8.880910 3.290437 -2.186524
-20.382717 7.555975 1.139249
-11.114264 4.122320 -2.304209
-20.401371 7.570996 1.903830
-13.626760 5.056922 -2.302090
-20.358831 7.559247 2.666502
-19.648537 7.299416 -2.573637
-20.282482 7.538960 3.427167
-20.164518 7.499114 -1.882215
-20.303919 7.550956 4.210773
-20.161949 7.502164 -1.127421
-20.339300 7.572202 5.010560
-20.187670 7.519757 -0.376030
-20.383068 7.596598 5.828605
-7.364233 2.754838 -2.106787
-20.091557 7.519914 0.374459
-8.873020 3.322782 -2.187424
-20.176670 7.559806 1.129201
-11.100533 4.159154 -2.304209
-20.152277 7.554683 1.882913
-13.509151 5.066994 -2.285195
-20.202223 7.581444 2.649440
-19.608067 7.362380 -2.571687
-20.060032 7.536072 3.394003
-19.975410 7.504282 -1.866876
-20.097342 7.554090 4.173375
-19.956171 7.505009 -1.117373
-20.144947 7.580010 4.969169
-20.065853 7.554247 -0.374249
-20.280499 7.639102 5.806864
-7.359993 2.782576 -2.108340
-19.874407 7.517841 0.370899
-8.866836 3.355804 -2.188774
-19.955906 7.556628 1.118315
-11.085948 4.197874 -2.304209
-19.954376 7.560035 1.866876
-13.435967 5.093113 -2.275809
-20.196053 7.659661 2.652121
-19.563686 7.423733 -2.569250
-19.856314 7.538739 3.363967
-19.740475 7.494759 -1.847353
-19.879976 7.551697 4.133687
-19.739426 7.502244 -1.106696
-19.947145 7.585176 4.926878
-20.063658 7.633494 -0.374703
-20.300652 7.727713 5.820323
-7.333993 2.802045 -2.103681
-19.664993 7.517197 0.367478
-8.836865 3.379771 -2.184275
-19.766577 7.559978 1.109104
-11.093229 4.244969 -2.308789
-19.734354 7.555556 1.848748
-13.436554 5.147049 -2.278938
-20.193289 7.739347 2.655289
-19.519119 7.484870 -2.566812
-19.650452 7.535232 3.333306
-19.569099 7.507953 -1.833757
-19.659214 7.546463 4.093235
-19.522942 7.498063 -1.096020
-19.722269 7.578568 4.877839
-20.058767 7.707871 -0.375087
-7.325969 2.828326 -2.104199
-19.464600 7.514668 0.364197
-8.829245 3.410464 -2.185175
-19.546316 7.554051 1.098218
-11.052709 4.273753 -2.303446
-19.533190 7.556821 1.832362
-13.393619 5.181601 -2.274557
-20.226755 7.829194 2.663089
-19.412741 7.518015 -2.556088
-19.469309 7.543828 3.307025
-19.338428 7.496999 -1.814583
-19.524248 7.569036 4.070338
-19.330379 7.497759 -1.086599
-19.558956 7.590345 4.843646
-20.057837 7.787976 -0.375576
-20.298000 7.885303 5.834816
-7.323750 2.855411 -2.106270
-19.266857 7.515709 0.360986
-8.815472 3.440552 -2.184725
-19.342545 7.549118 1.088169
-11.053105 4.316094 -2.306499
-19.359560 7.563552 1.818417
-13.334975 5.212497 -2.267674
-20.191906 7.896864 2.662114
-19.234797 7.526418 -2.536101
-19.241831 7.529171 3.272609
-19.150198 7.497165 -1.799243
-19.282001 7.552651 4.025307
-19.136728 7.499601 -1.077179
-19.325520 7.577473 4.792357
-20.028179 7.852983 -0.375506
-20.307711 7.966682 5.845170
-7.302953 2.876711 -2.103164
-19.085541 7.517997 0.358054
-8.807639 3.471196 -2.185624
-19.174866 7.560910 1.080214
-11.023361 4.348887 -2.303446
-19.188488 7.574022 1.804821
-13.233095 5.223327 -2.253282
-20.198841 7.976906 2.666502
-19.050957 7.527427 -2.515140
-19.061123 7.535285 3.246328
-18.931225 7.487759 -1.781115
-19.107147 7.557341 3.994014
-18.937183 7.493938 -1.067340
-19.126343 7.572649 4.749167
-20.069429 7.950101 -0.376797
-20.301329 8.046062 5.851381
-7.282097 2.897898 -2.100058
-18.875792 7.515403 0.354633
-8.796667 3.504177 -2.186074
-18.965199 7.558672 1.069956
-10.993525 4.381523 -2.300393
-18.984268 7.570111 1.788087
-13.169827 5.254230 -2.245774
-20.210032 8.067070 2.671864
-18.868387 7.535355 -2.494666
-18.930651 7.564057 3.228808
-18.756958 7.494656 -1.767170
-18.889732 7.551526 3.954326
-18.750109 7.499509 -1.058338
-18.939241 7.578992 4.709575
-20.069864 8.035495 -0.377356
-20.314741 8.137658 5.863804
-7.273730 2.924020 -2.100575
-18.693598 7.518567 0.351701
-8.766305 3.527586 -2.181576
-18.812714 7.574104 1.062839
-10.985448 4.422803 -2.301920
-18.787701 7.567851 1.772050
-13.144078 5.297212 -2.244522
-20.203842 8.146476 2.674789
-18.679964 7.535822 -2.473217
-18.889479 7.624172 3.226305
-18.553318 7.488491 -1.750436
-18.703058 7.552725 3.920743
-18.560856 7.499074 -1.049127
-18.757296 7.582244 4.670884
-20.080620 8.121247 -0.378089
-20.336353 8.228809 5.878299
-7.267059 2.950846 -2.101611
-18.522732 7.525067 0.348978
-8.750325 3.556697 -2.180676
-18.645550 7.582546 1.054884
-10.980854 4.465561 -2.304209
-18.628300 7.579319 1.759500
-13.125507 5.343062 -2.244522
-20.208372 8.230429 2.679176
-18.495451 7.536557 -2.452255
-18.866405 7.691554 3.226930
-18.385536 7.499258 -1.737188
-18.527515 7.557169 3.889451
-18.379234 7.500423 -1.040334
-18.561125 7.578430 4.628592
-20.085468 8.204909 -0.378717
-20.328968 8.308513 5.884511
-7.250833 2.975261 -2.100058
-18.355753 7.531985 0.346326
-8.737857 3.587220 -2.180676
-18.430527 7.570185 1.044207
-10.935360 4.493838 -2.298104
-18.434549 7.579358 1.743812
-13.087568 5.383619 -2.241393
-20.223581 8.319044 2.685026
-18.314829 7.537610 -2.431781
-18.835791 7.755859 3.226305
-18.219244 7.505708 -1.723940
-18.343596 7.560682 3.856632
-18.189135 7.500731 -1.031123
-18.378300 7.582492 4.589901
-20.095528 8.290983 -0.379450
-21.342690 8.809894 6.186811
-7.224341 2.993897 -2.095399
-18.146997 7.524149 0.342905
-8.724650 3.619221 -2.180676
-18.241644 7.567128 1.034996
-10.905101 4.525962 -2.295051
-18.238693 7.573368 1.727775
-13.075992 5.432302 -2.242645
-22.590590 9.389679 3.003836
-18.136780 7.542185 -2.411794
-18.808601 7.821562 3.226305
-18.031054 7.501909 -1.708601
-18.179342 7.567327 3.827629
-18.022717 7.505821 -1.023168
-18.200615 7.583638 4.552109
-30.624846 12.760433 -0.579106
-21.336769 8.894747 6.194057
-7.208501 3.016858 -2.093846
-17.989132 7.528702 0.340392
-8.719791 3.651145 -2.182475
-18.067747 7.569020 1.026622
-10.874751 4.557927 -2.291998
-18.065155 7.575348 1.713831
-13.050619 5.472579 -2.241393
-22.570312 9.469149 3.005298
-17.965242 7.540820 -2.392295
-18.773901 7.884110 3.225053
-17.854136 7.501520 -1.694308
-18.027447 7.574337 3.800915
-17.854111 7.505181 -1.015004
-18.031660 7.583514 4.516117
-30.653843 12.898278 -0.580502
-7.205575 3.043753 -2.095917
-17.804333 7.524503 0.337390
-8.681865 3.670936 -2.176177
-17.894062 7.569787 1.018248
-10.859576 4.593964 -2.291998
-17.889479 7.571534 1.699537
-13.024159 5.515019 -2.240142
-17.799904 7.544614 -2.373771
-17.708097 7.509347 -1.682803
-17.917763 7.601943 3.783361
-17.673374 7.501902 -1.006211
-17.854410 7.582424 4.478325
-30.641766 13.019272 -0.581130
-17.903286 7.610558 5.212616
-7.198460 3.070402 -2.096952
-17.645535 7.530100 0.334877
-8.665413 3.699686 -2.175277
-17.720592 7.569438 1.009875
-10.857918 4.638013 -2.295051
-17.738359 7.580693 1.687684
-12.993933 5.555787 -2.238265
-22.536510 9.640537 3.009686
-17.623810 7.542654 -2.353785
-19.760738 8.461294 3.404640
-17.544415 7.512293 -1.669730
-17.746746 7.602599 3.752831
-17.522245 7.510045 -0.999093
-17.697090 7.588634 4.445483
-30.662289 13.154544 -0.582387
-17.745243 7.616621 5.174311
-7.198344 3.100098 -2.100058
-17.479570 7.531507 0.332224
-8.659605 3.732997 -2.177076
-17.554678 7.571140 1.001920
-10.816422 4.665004 -2.289708
-17.569101 7.580991 1.674087
-12.978087 5.602676 -2.238890
-22.550100 9.739616 3.016023
-17.447952 7.539555 -2.333798
-19.752838 8.539626 3.408394
-17.362637 7.506285 -1.654913
-17.604776 7.614620 3.728408
-17.349287 7.507702 -0.990720
-17.511333 7.581454 4.405442
-30.641874 13.272623 -0.582875
-17.555471 7.607847 5.126688
-7.173306 3.119042 -2.095917
-17.321148 7.535042 0.329711
-8.650095 3.764758 -2.177976
-17.377989 7.566984 0.993337
-10.796473 4.701162 -2.288945
-17.381792 7.572249 1.658748
-12.947585 5.643212 -2.237013
-22.537804 9.827788 3.018948
-17.294163 7.544850 -2.316736
-19.769978 8.629075 3.416529
-17.186594 7.501495 -1.640620
-17.419760 7.606886 3.694825
-17.180218 7.505848 -0.982555
-17.357981 7.587124 4.373498
-30.650318 13.403538 -0.583923
-17.387222 7.607130 5.085277
-7.158838 3.142509 -2.094882
-17.148266 7.531131 0.326918
-8.635118 3.794146 -2.177526
-17.221146 7.566723 0.985800
-10.794375 4.745141 -2.291998
-17.223940 7.575125 1.646198
-12.927809 5.688370 -2.237013
-22.517895 9.912799 3.020898
-17.130972 7.541374 -2.298212
-19.773798 8.708916 3.422161
-17.043615 7.510026 -1.629464
-17.267353 7.612207 3.668112
-17.025991 7.509359 -0.975228
-17.195431 7.584090 4.338856
-30.660589 13.529325 -0.584970
-17.234655 7.608572 5.048007
-7.139545 3.162320 -2.092293
-16.998878 7.532865 0.324545
-8.606455 3.815650 -2.173477
-17.068148 7.567121 0.978473
-10.767813 4.776134 -2.289708
-17.074888 7.577247 1.634344
-12.899848 5.727202 -2.235449
-22.542952 10.013204 3.028697
-16.982502 7.543344 -2.281638
-19.773689 8.787276 3.427167
-16.883896 7.506607 -1.616565
-17.019585 7.570487 3.620792
-16.869617 7.507308 -0.967692
-17.043781 7.584814 4.306913
-17.539230 7.808970 -0.335121
-17.082270 7.609086 5.010737
-7.137838 3.189920 -2.094882
-16.846018 7.532060 0.322102
