# This PCD file was generated using the MATLAB® pcwrite function
# from Computer Vision Toolbox®.
# .PCD v.7 - Point Cloud Data file format
VERSION .7
FIELDS x y z
SIZE 4 4 4
TYPE F F F
COUNT 1 1 1
WIDTH 1667
HEIGHT 1
VIEWPOINT 0 0 0 1 0 0 0
POINTS 1667
DATA ascii
-19.294453 24.510059 -0.544480
-6.017571 7.646965 2.607343
-4.099714 5.222926 -1.779122
-12.959085 16.515444 0.366431
-4.850530 6.183888 -1.814455
-8.703071 11.099439 0.739193
-5.922526 7.553279 -1.865731
-6.258591 7.984740 0.887594
-5.940605 7.581784 -1.525549
-5.967268 7.618552 1.188226
-5.985519 7.644601 -1.192126
-5.960985 7.616004 1.531806
-5.943555 7.593734 -0.843668
-5.966634 7.625964 1.882140
-5.954193 7.612800 -0.506507
-5.967893 7.633061 2.236913
-19.159515 24.514240 -0.543084
-5.964674 7.634434 2.595955
-4.067208 5.218918 -1.772911
-12.943136 16.614218 0.367617
-4.825324 6.196168 -1.813105
-8.704762 11.181757 0.742647
-5.888890 7.564610 -1.863441
-6.231904 8.008113 0.887768
-5.897124 7.580644 -1.521169
-5.926017 7.620530 1.185301
-5.939306 7.640370 -1.188226
-5.924668 7.624285 1.529303
-5.902342 7.595554 -0.841576
-5.925527 7.628138 1.877560
-5.912886 7.614606 -0.505251
-5.924485 7.632293 2.230615
-19.012539 24.501974 -0.541339
-5.926149 7.639943 2.590779
-4.058425 5.245306 -1.777052
-12.940112 16.730480 0.369188
-4.796515 6.203723 -1.810406
-8.708428 11.267381 0.746311
-5.856448 7.577352 -1.861533
-6.200255 8.025089 0.887245
-5.851305 7.576170 -1.516163
-5.877542 7.612887 1.180914
-5.945345 7.703488 -1.194807
-5.883537 7.626153 1.525549
-5.853885 7.587718 -0.838438
-5.879679 7.623903 1.871455
-5.865537 7.608311 -0.503472
-5.884719 7.635949 2.225666
-18.887838 24.517506 -0.540222
-5.890014 7.648339 2.586638
-4.042443 5.262506 -1.778087
-12.944968 16.858021 0.371003
-4.770083 6.214246 -1.808606
-8.705518 11.345249 0.749451
-5.816813 7.580616 -1.857335
-7.399372 9.646533 1.063649
-5.816411 7.585574 -1.513973
-5.838858 7.617600 1.178477
-5.899103 7.698982 -1.190907
-5.844871 7.630961 1.522420
-5.814038 7.590706 -0.836521
-5.833936 7.619438 1.865349
-5.823164 7.608120 -0.502111
-5.840269 7.633228 2.218917
-18.751120 24.516569 -0.538756
-5.853895 7.656574 2.582497
-4.017018 5.267369 -1.774981
-12.952725 16.990566 0.372923
-4.746001 6.227758 -1.807707
-8.698538 11.418468 0.752277
-5.772469 7.577451 -1.851611
-7.406697 9.726193 1.069575
-5.771948 7.582256 -1.509280
-5.801411 7.623720 1.176283
-5.808496 7.635788 -1.177989
-5.795477 7.621442 1.516476
-5.780268 7.601440 -0.835475
-5.801362 7.631944 1.863441
-5.785697 7.614087 -0.501169
-5.798262 7.633396 2.213068
-18.600121 24.495878 -0.536871
-5.817791 7.664649 2.578356
-3.995110 5.276737 -1.773428
-12.952466 17.113810 0.374633
-4.724231 6.244288 -1.807707
-8.705615 11.510886 0.756359
-5.735327 7.583460 -1.848176
-7.405140 9.794902 1.074282
-5.732346 7.585021 -1.505838
-5.763996 7.629668 1.174089
-5.777020 7.649683 -1.177014
-5.759319 7.629012 1.513973
-5.741695 7.605667 -0.833732
-5.761679 7.634908 1.859243
-5.745851 7.616699 -0.500018
-5.759851 7.638029 2.208570
-18.473579 24.506361 -0.535684
-5.779373 7.669484 2.573179
-3.973185 5.286017 -1.771875
-12.945498 17.229265 0.376169
-4.702407 6.260739 -1.807707
-8.711779 11.598777 0.760232
-5.700571 7.592444 -1.845505
-7.401998 9.862123 1.078814
-5.680941 7.571802 -1.499268
-5.718272 7.624331 1.170189
-5.695504 7.596742 -1.165802
-5.719767 7.629104 1.510219
-5.692411 7.595371 -0.830420
-5.723223 7.639261 1.855427
-5.704860 7.617527 -0.498762
-5.716805 7.636247 2.202271
-18.353867 24.516256 -0.534567
-5.733074 7.660765 2.563861
-3.954710 5.299853 -1.771875
-12.950492 17.355429 0.377984
-4.665307 6.254432 -1.801408
-8.708245 11.678754 0.763477
-5.663472 7.598130 -1.842070
-7.399671 9.931037 1.083520
-5.643996 7.574760 -1.496139
-5.673983 7.617781 1.166290
-5.708220 7.666538 -1.173602
-5.674232 7.623668 1.505213
-5.649211 7.592817 -0.827980
-5.681449 7.636147 1.850084
-5.662882 7.613966 -0.497296
-5.684472 7.645781 2.199572
-18.225227 24.522400 -0.533311
-5.693623 7.663674 2.558168
-3.931361 5.305179 -1.769287
-12.952913 17.485695 0.379834
-4.641128 6.267546 -1.800508
-8.700702 11.754027 0.766408
-5.630069 7.605822 -1.839399
-7.405808 10.008371 1.089272
-5.608124 7.581709 -1.493636
-5.635557 7.621578 1.163852
-5.684965 7.691205 -1.174333
-5.638197 7.630719 1.502710
-5.613348 7.597086 -0.826411
-5.632600 7.625926 1.842833
-5.619662 7.611190 -0.495831
-5.635763 7.635785 2.191023
-18.120516 24.560127 -0.532752
-5.645052 7.653961 2.548332
-3.905951 5.309532 -1.766181
-12.958135 17.621021 0.381789
-4.619220 6.283709 -1.800508
-8.706929 11.848703 0.770595
-5.581398 7.595368 -1.832148
-7.410929 10.088759 1.095199
-5.567593 7.582133 -1.489882
-5.592472 7.618802 1.160440
-5.658081 7.711003 -1.174333
-5.589326 7.620090 1.496765
-5.573830 7.598963 -0.824493
-5.593174 7.628127 1.838636
-5.578890 7.611432 -0.494575
-5.592948 7.633405 2.184725
-18.096123 24.707115 -0.534567
-5.604603 7.654916 2.542121
-3.878278 5.310653 -1.762040
-12.956682 17.748514 0.383569
-4.597259 6.299794 -1.800508
-8.706710 11.935500 0.774258
-5.536338 7.589429 -1.826042
-7.405017 10.154810 1.099557
-5.532948 7.590346 -1.487692
-5.556492 7.625441 1.158490
-5.619444 7.714660 -1.171896
-5.545252 7.615599 1.492072
-5.527335 7.590991 -0.821530
-5.552650 7.628556 1.834056
-5.545238 7.621168 -0.493947
-5.552515 7.633968 2.179326
-19.084597 26.248411 -0.566470
-5.555134 7.643177 2.531768
-3.856314 5.319468 -1.760487
-12.952149 17.872972 0.385279
-4.579812 6.322116 -1.802308
-8.713019 12.032146 0.778550
-5.497144 7.591219 -1.821844
-7.403407 10.227399 1.104612
-5.485573 7.580810 -1.482060
-5.518204 7.628706 1.156053
-5.519203 7.632885 -1.156540
-5.509376 7.622103 1.489569
-5.490297 7.595707 -0.819961
-5.517937 7.636754 1.831385
-5.506908 7.624286 -0.492900
-5.521268 7.646986 2.177526
-19.039663 26.379734 -0.567866
-5.518250 7.648421 2.527109
-3.836594 5.331327 -1.759970
-12.951571 18.004114 0.387129
-4.546340 6.322243 -1.797809
-8.716434 12.125732 0.782632
-5.459155 7.594419 -1.818028
-6.052712 8.423239 0.907466
-5.447555 7.583867 -1.478932
-5.466071 7.612447 1.150690
-5.490208 7.648879 -1.156053
-5.475829 7.631657 1.487692
-5.457944 7.606731 -0.819090
-5.467218 7.622466 1.823371
-5.462803 7.619116 -0.491330
-5.484326 7.651955 2.173477
-5.484273 7.654702 -0.164367
-5.479143 7.650362 2.521415
-3.817962 5.344687 -1.759970
-12.951392 18.137096 0.389014
-4.517452 6.328556 -1.795109
-5.626478 7.885115 0.507659
-5.428052 7.607035 -1.816502
-6.024427 8.445939 0.907640
-5.411876 7.589968 -1.476429
-5.432554 7.621781 1.149228
-5.426612 7.616265 -1.148253
-5.437698 7.634634 1.484563
-5.417490 7.606262 -0.816998
-5.442857 7.644701 1.824134
-5.417643 7.612105 -0.489655
-5.433861 7.637706 2.164029
-5.429703 7.634691 -0.163529
-5.443448 7.656847 2.517274
-3.798164 5.356406 -1.759452
-12.957392 18.280079 0.391108
-4.495331 6.344288 -1.795109
-5.580446 7.878630 0.505984
-5.378768 7.593896 -1.808869
-5.992608 8.463663 0.907291
-5.361383 7.574955 -1.469859
-5.394449 7.624494 1.146791
-5.404580 7.641642 -1.149228
-5.399609 7.637440 1.481435
-5.381702 7.612112 -0.815603
-5.387810 7.623573 1.814594
-5.379515 7.614656 -0.488609
-5.398171 7.643894 2.160430
-5.379956 7.620924 -0.162831
-5.398867 7.650544 2.508992
-3.778332 5.368051 -1.758934
-12.955645 18.413507 0.392993
-4.473160 6.359940 -1.795109
-5.540277 7.880089 0.504833
-5.346583 7.604593 -1.806961
-5.949282 8.464968 0.905200
-5.329232 7.585540 -1.468294
-5.356394 7.627031 1.144353
-5.332251 7.595472 -1.139478
-5.359301 7.636837 1.477680
-5.331065 7.596601 -0.811943
-5.354402 7.632689 1.812304
-5.344877 7.621939 -0.487876
-5.363624 7.651521 2.157280
-5.337254 7.616730 -0.162342
-5.355505 7.645608 2.501227
-3.751826 5.370123 -1.755311
-12.961127 18.558628 0.395122
-4.448699 6.372320 -1.794210
-5.502680 7.882042 0.503786
-5.312139 7.611941 -1.804290
-5.909435 8.470977 0.903631
-5.281250 7.573311 -1.462350
-5.316113 7.626142 1.141428
-5.346560 7.672672 -1.148253
-5.327168 7.644844 1.475803
-5.295403 7.602087 -0.810548
-5.318749 7.638444 1.809251
-5.301122 7.615963 -0.486306
-5.320189 7.646203 2.150532
-5.303973 7.622896 -0.162098
-5.317986 7.645881 2.495533
-3.738563 5.391123 -1.757899
-12.963332 18.693525 0.397077
-4.419773 6.375826 -1.791060
-5.461483 7.881501 0.502530
-5.274358 7.614298 -1.800474
-5.871892 8.480085 0.902411
-5.249362 7.581038 -1.460472
-5.274980 7.620877 1.138016
-5.323348 7.693624 -1.148741
-5.292583 7.652022 1.473613
-5.254107 7.599219 -0.808282
-5.282228 7.639892 1.805435
-5.259941 7.610497 -0.484840
-5.278187 7.639755 2.143784
-5.265970 7.624909 -0.161749
-5.281388 7.650089 2.490875
-3.716281 5.397127 -1.755828
-12.964898 18.835844 0.399137
-4.393070 6.384794 -1.789261
-5.422618 7.884063 0.501483
-5.244627 7.625278 -1.798947
-5.851642 8.511003 0.903631
-5.215033 7.587921 -1.458282
-5.232606 7.616339 1.134604
-5.260500 7.659794 -1.140941
-5.258015 7.659049 1.471423
-5.216471 7.598534 -0.806365
-5.252192 7.653428 1.804290
-5.220916 7.610693 -0.483689
-5.231650 7.629202 2.135685
-5.226883 7.625103 -0.161365
-5.247006 7.657325 2.487251
-3.695239 5.406876 -1.754793
-12.962234 18.973454 0.401091
-4.371857 6.401698 -1.789711
-5.382679 7.884798 0.500332
-5.194735 7.609487 -1.790933
-5.883663 8.621893 0.913218
-5.175158 7.586495 -1.454528
-5.199280 7.624715 1.133141
-5.270624 7.732240 -1.148984
-5.214565 7.652869 1.466730
-5.179820 7.601876 -0.804796
-5.207763 7.645752 1.798184
-5.179703 7.607410 -0.482328
-5.195121 7.632918 2.131636
-5.185613 7.621807 -0.160911
-5.208296 7.658020 2.481557
-3.672007 5.413346 -1.752723
-12.962135 19.116240 0.403151
-4.345112 6.410467 -1.787911
-5.343922 7.887003 0.499285
-5.163737 7.621071 -1.789407
-5.892634 8.700116 0.919319
-5.143108 7.596334 -1.452963
-5.162621 7.628021 1.130948
-5.208005 7.697980 -1.141185
-5.180072 7.659571 1.464540
-5.138741 7.598457 -0.802530
-5.167850 7.644366 1.793605
-5.145287 7.613862 -0.481596
-5.161899 7.641318 2.128937
-5.138830 7.610032 -0.160283
-5.159914 7.644131 2.471204
-3.653087 5.426132 -1.752723
-12.960087 19.257587 0.405175
-4.324883 6.428830 -1.788811
-5.306325 7.890694 0.498343
-5.129433 7.627647 -1.786736
-5.821105 8.659451 0.912869
-5.100032 7.589648 -1.448270
-5.124892 7.629519 1.128510
-5.175570 7.707870 -1.139966
-5.142296 7.661204 1.461411
-5.095532 7.591534 -0.799915
-5.119255 7.629754 1.785972
-5.106442 7.613529 -0.480444
-5.126514 7.646340 2.125338
-5.102217 7.612973 -0.159969
-5.123525 7.647651 2.466546
-3.629832 5.432425 -1.750652
-12.957210 19.399155 0.407200
-4.294842 6.432541 -1.785661
-5.263229 7.885910 0.496878
-5.085340 7.619377 -1.780630
-5.747720 8.615080 0.906071
-5.060358 7.587682 -1.444516
-5.081710 7.622587 1.124854
-5.137627 7.709370 -1.137529
-5.106759 7.665956 1.458908
-5.065687 7.604302 -0.799393
-5.069737 7.613263 1.777958
-5.059916 7.601380 -0.478560
-5.092233 7.652833 2.122188
-5.064535 7.614088 -0.159620
-5.087173 7.651008 2.461887
-3.616184 5.453113 -1.753240
-11.548099 17.420839 0.364825
-4.268055 6.440997 -1.783862
-5.218021 7.877594 0.495203
-5.048952 7.622352 -1.777195
-5.702210 8.611834 0.903631
-5.020755 7.585534 -1.440762
-5.040833 7.618756 1.121686
-5.088781 7.694144 -1.132654
-5.077791 7.680439 1.458282
-5.031421 7.610301 -0.798172
-5.034472 7.617807 1.774905
-5.023441 7.603999 -0.477618
-5.049382 7.646167 2.115440
-5.023606 7.610024 -0.159166
-5.049793 7.652597 2.456711
-3.596066 5.464088 -1.752723
-11.528986 17.524523 0.366152
-4.247688 6.459112 -1.784762
-5.179521 7.879069 0.494156
-5.007217 7.616961 -1.771852
-5.668834 8.626690 0.903108
-4.982319 7.584852 -1.437320
-5.008761 7.628007 1.120467
-5.041194 7.680330 -1.128023
-5.035781 7.674994 1.453902
-4.999362 7.619488 -0.797301
-5.000316 7.623842 1.772234
-4.989199 7.609797 -0.476885
-5.004504 7.636038 2.107791
-4.982768 7.605767 -0.158712
-5.013522 7.655633 2.452052
-3.561126 5.452345 -1.744958
-11.520212 17.645033 0.367827
-4.225114 6.473901 -1.784762
-5.148715 7.892082 0.493842
-4.972020 7.621239 -1.768800
-5.780169 8.863380 0.925768
-4.945023 7.585649 -1.434191
-4.973432 7.632141 1.118517
-5.007855 7.687899 -1.126560
-4.993867 7.669352 1.449522
-4.953164 7.606841 -0.794163
-4.962961 7.624798 1.768418
-4.951715 7.610424 -0.475839
-4.970379 7.642026 2.104642
-4.949646 7.613056 -0.158503
-4.970979 7.648788 2.444287
-3.548375 5.474471 -1.748064
-11.505309 17.757299 0.369328
-4.200373 6.485338 -1.783862
-8.720650 13.464605 0.840725
-4.941116 7.631957 -1.767273
-5.889923 9.100947 0.948429
-4.905639 7.582961 -1.430437
-4.934905 7.631118 1.115836
-4.973712 7.691127 -1.124610
-4.961974 7.675915 1.447645
-4.909281 7.597310 -0.791374
-4.924600 7.623934 1.764220
-4.919705 7.619273 -0.475315
-4.938669 7.648643 2.101943
-4.915699 7.615985 -0.158224
-4.934068 7.647375 2.438593
-3.531249 5.487831 -1.748582
-11.504772 17.886179 0.371213
-4.169357 6.484480 -1.779813
-8.720235 13.562329 0.845016
-4.908351 7.636738 -1.764602
-5.640009 8.778478 0.912869
-4.872992 7.587554 -1.428247
-4.890270 7.617373 1.111449
-4.898849 7.630736 -1.113398
-4.929022 7.680691 1.445455
-4.876528 7.601810 -0.790154
-4.891870 7.628656 1.761549
-4.878241 7.610324 -0.473745
-4.896449 7.638730 2.094744
-4.881783 7.618776 -0.157944
-4.902428 7.653935 2.435488
-3.513029 5.499512 -1.748582
-11.511048 18.027037 0.373342
-4.149929 6.501555 -1.780712
-8.716890 13.661717 0.849308
-4.878774 7.646354 -1.763075
-5.543371 8.691303 0.901888
-4.838248 7.588680 -1.425431
-4.855378 7.618481 1.109255
-4.907379 7.703040 -1.121442
-4.892633 7.682852 1.442639
-4.841662 7.602812 -0.788585
-4.850734 7.619992 1.755824
-4.839040 7.604552 -0.472384
-4.853023 7.629466 2.087546
-4.843359 7.617208 -0.157560
-4.860137 7.646543 2.427723
-3.493812 5.511741 -1.748582
-11.507985 18.161705 0.375297
-4.126167 6.514354 -1.780263
-8.721503 13.774745 0.854437
-4.836301 7.638455 -1.757351
-5.503407 8.695450 0.900319
-4.804338 7.593836 -1.423241
-4.817086 7.616928 1.106574
-4.861365 7.689921 -1.117054
-4.846793 7.669826 1.437007
-4.807644 7.607876 -0.787365
-4.823054 7.635220 1.755443
-4.804999 7.609578 -0.471652
-4.819081 7.634822 2.084397
-4.802866 7.612083 -0.157107
-4.827231 7.653659 2.424617
-3.465292 5.509186 -1.743923
-11.513709 18.311800 0.377565
-4.105475 6.532018 -1.781162
-8.716928 13.874446 0.858728
-4.793940 7.630356 -1.751627
-5.455009 8.685924 0.897355
-4.771498 7.600523 -1.421364
-4.787301 7.628653 1.105842
-4.858757 7.745521 -1.122661
-4.809494 7.669963 1.433878
-4.769414 7.606045 -0.785448
-4.780734 7.627055 1.749719
-4.768865 7.611071 -0.470710
-4.786193 7.641689 2.081697
-4.762472 7.606768 -0.156653
-4.786139 7.647536 2.417370
-3.441950 5.514693 -1.741852
-11.504764 18.440096 0.379380
-4.079556 6.541348 -1.779813
-7.527306 12.074318 0.745683
-4.763124 7.640380 -1.750100
-5.408852 8.679546 0.894741
-4.727180 7.588630 -1.416045
-4.754349 7.635206 1.104380
-4.829593 7.759061 -1.122173
-4.773297 7.671610 1.431063
-4.733360 7.607423 -0.783879
-4.737494 7.617023 1.743613
-4.734888 7.615797 -0.469977
-4.750229 7.643455 2.077648
-4.727450 7.609755 -0.156374
-4.749225 7.647783 2.412194
-3.421661 5.525032 -1.741335
-11.509791 18.592363 0.381684
-4.046442 6.538978 -1.775314
-7.487210 12.103919 0.745892
-4.727127 7.641933 -1.746666
-5.373281 8.689902 0.893869
-4.690278 7.588281 -1.412916
-4.713058 7.628114 1.100968
-4.772227 7.726894 -1.115105
-4.741302 7.679820 1.429498
-4.698123 7.612851 -0.782659
-4.713967 7.638525 1.744758
-4.689398 7.601682 -0.468093
-4.718408 7.651696 2.075398
-4.697708 7.621105 -0.156269
-4.710338 7.644579 2.405982
-3.402400 5.539182 -1.741852
-11.513902 18.744883 0.383988
-4.019515 6.546420 -1.773514
-7.454319 12.145298 0.746834
-4.694982 7.652514 -1.745139
-5.328897 8.689156 0.891778
-4.656241 7.595315 -1.411039
-4.678104 7.630979 1.099018
-4.744191 7.741812 -1.114861
-4.704149 7.679478 1.426370
-4.667360 7.622406 -0.781961
-4.665442 7.622261 1.737125
-4.654210 7.606892 -0.467360
-4.679148 7.650649 2.070450
-4.656472 7.613573 -0.155780
-4.679595 7.654381 2.403911
-3.383043 5.551025 -1.741852
-11.515862 18.903088 0.386361
-3.996509 6.562771 -1.773964
-7.431619 12.203655 0.748823
-4.653947 7.645378 -1.739796
-5.296460 8.704302 0.891429
-4.619436 7.594643 -1.407910
-4.635664 7.624329 1.095605
-4.685166 7.705744 -1.107305
-4.660897 7.668845 1.421364
-4.630377 7.621625 -0.780218
-4.628615 7.621721 1.733309
-4.618299 7.607728 -0.466418
-4.637570 7.639472 2.063251
-4.623641 7.619524 -0.155571
-4.642827 7.654153 2.398735
-3.357618 5.550642 -1.738229
-11.521408 19.054108 0.388665
-3.973714 6.574322 -1.773514
-7.427266 12.288058 0.752486
-4.623494 7.652368 -1.737888
-5.269628 8.725227 0.891778
-4.588098 7.599776 -1.406033
-4.607279 7.634559 1.094874
-4.656511 7.716139 -1.106574
-4.627279 7.670725 1.418861
-4.586560 7.606226 -0.777081
-4.596222 7.625257 1.730638
-4.590986 7.619578 -0.466209
-4.610201 7.651470 2.062351
-4.583906 7.610832 -0.155082
-4.608452 7.654610 2.394076
-3.337205 5.558433 -1.737193
-11.521952 19.198521 0.390829
-3.948885 6.582448 -1.772164
-7.428498 12.387562 0.756987
-4.586658 7.651621 -1.734072
-5.255003 8.766580 0.894218
-4.550689 7.594614 -1.402279
-4.575814 7.639578 1.093412
-4.609152 7.698284 -1.101699
-4.592362 7.673271 1.416358
-4.554865 7.613642 -0.776209
-4.556476 7.619352 1.725677
-4.558213 7.625271 -0.465581
-4.566468 7.639079 2.054703
-4.552180 7.618205 -0.154908
-4.571797 7.654067 2.388900
-3.314832 5.567307 -1.736158
-11.516968 19.350594 0.393063
-3.920745 6.590180 -1.770365
-7.423878 12.483372 0.761174
-4.554572 7.661630 -1.732546
-5.226912 8.792631 0.894915
-4.510711 7.590865 -1.398524
-4.526496 7.620457 1.088293
-4.571786 7.699763 -1.099505
-4.554122 7.673065 1.413229
-4.518798 7.616576 -0.774815
-4.517504 7.617424 1.721479
-4.514956 7.616156 -0.464011
-4.531481 7.644032 2.051554
-4.521172 7.629677 -0.154803
-4.534853 7.655812 2.384241
-3.293424 5.577755 -1.735641
-11.511023 19.502890 0.395297
-3.895576 6.602827 -1.769915
-7.415781 12.569416 0.764838
-4.515830 7.657190 -1.727966
-4.664461 7.912362 0.803576
-4.478849 7.600538 -1.397273
-4.492488 7.626734 1.086831
-4.517348 7.671991 -1.093168
-4.523303 7.682105 1.411978
-4.479048 7.609981 -0.772548
-4.487898 7.628072 1.720334
-4.479232 7.616374 -0.463069
-4.494546 7.645468 2.047504
-4.486405 7.631619 -0.154524
-4.495377 7.649943 2.377512
-3.276861 5.594219 -1.737193
-11.523094 19.672092 0.397950
-3.868733 6.607301 -1.767665
-7.423310 12.683137 0.770176
-4.479161 7.655961 -1.724150
-4.618707 7.897640 0.800438
-4.443646 7.598298 -1.394144
-4.459159 7.627880 1.084881
-4.485871 7.676647 -1.091706
-4.482509 7.673969 1.407597
-4.446426 7.615247 -0.771503
-4.456640 7.632739 1.718044
-4.449921 7.624287 -0.462650
-4.457382 7.640133 2.042106
-4.445633 7.623051 -0.154035
-4.465728 7.660581 2.375959
-3.247614 5.586682 -1.731500
-11.518659 19.822847 0.400184
-3.841733 6.614024 -1.765866
-7.426354 12.785399 0.774886
-4.443892 7.653792 -1.720334
-4.579492 7.890509 0.798172
-4.412141 7.605218 -1.392580
-4.421553 7.624507 1.082200
-4.495246 7.751583 -1.100237
-4.447132 7.671700 1.404469
-4.407166 7.605814 -0.769062
-4.418159 7.627864 1.713465
-4.415276 7.625945 -0.461813
-4.422259 7.638007 2.037607
-4.406308 7.613520 -0.153546
-4.423853 7.646922 2.367159
-3.226175 5.592401 -1.729947
-11.511792 19.963146 0.402243
-3.817830 6.623352 -1.764966
-7.416828 12.867061 0.778340
-4.412608 7.658279 -1.718044
-4.543355 7.888389 0.796429
-4.372111 7.594130 -1.387887
-4.394263 7.635688 1.081712
-4.450701 7.733759 -1.095605
-4.414770 7.674421 1.402279
-4.374966 7.608298 -0.767842
-4.387950 7.633961 1.711557
-4.376031 7.616302 -0.460347
-4.402730 7.662769 2.040306
-4.378047 7.622890 -0.153442
-4.394624 7.654847 2.365088
-3.205691 5.599716 -1.728911
-4.502134 7.867535 0.158224
-3.786171 6.619059 -1.760467
-4.518691 7.902865 0.477095
-4.381338 7.662645 -1.715755
-4.515196 7.899951 0.796081
-4.337106 7.591434 -1.384758
-4.356122 7.627808 1.078544
-4.425647 7.752694 -1.096093
-4.377187 7.670911 1.398837
-4.344434 7.616600 -0.767145
-4.348022 7.622890 1.705832
-4.336903 7.606480 -0.458882
-4.360517 7.651000 2.033108
-4.340521 7.619014 -0.153058
-4.352583 7.643280 2.356807
-3.184190 5.609748 -1.728394
-4.480565 7.893638 0.158433
-3.764006 6.633930 -1.760917
-7.431267 13.102675 0.789436
-4.340635 7.656450 -1.710794
-4.324131 7.630435 0.767319
-4.304383 7.598687 -1.383194
-4.323596 7.632606 1.077081
-4.393666 7.759459 -1.094874
-4.346493 7.679265 1.397586
-4.327630 7.649061 -0.768888
-4.311353 7.623396 1.702398
-4.304077 7.613632 -0.458358
-4.320939 7.646574 2.027709
-4.310949 7.628895 -0.152953
-4.317323 7.643289 2.352148
-3.164590 5.620829 -1.728394
-4.288801 7.620722 0.152639
-3.739665 6.647682 -1.760917
-4.293019 7.631333 0.458882
-4.305223 7.656153 -1.707359
-4.291610 7.635063 0.766273
-4.271060 7.601609 -1.381004
-4.289762 7.638015 1.075619
-4.374916 7.792819 -1.097312
-4.309988 7.677167 1.394457
-4.280429 7.627632 -0.765227
-4.281836 7.633261 1.701253
-4.271616 7.618155 -0.457730
-4.278978 7.634409 2.020510
-4.268651 7.615985 -0.152394
-4.283065 7.644829 2.348006
-3.144009 5.630153 -1.727876
-4.261558 7.631410 0.152569
-3.713798 6.653240 -1.759117
-4.256625 7.628829 0.457835
-4.266998 7.650559 -1.702780
-4.255229 7.632596 0.764530
-4.236208 7.598478 -1.377875
-4.256680 7.638325 1.073669
-4.320071 7.755258 -1.089999
-4.277396 7.681811 1.392580
-4.254745 7.644269 -0.765402
-4.246950 7.630266 1.697437
-4.236620 7.614826 -0.456684
-4.247953 7.638340 2.017811
-4.235237 7.618606 -0.152150
-4.245095 7.639469 2.341795
-3.120639 5.632100 -1.725288
-4.217452 7.614753 0.151941
-3.689609 6.664458 -1.758667
-4.232268 7.644651 0.457940
-4.233998 7.650925 -1.699727
-4.227968 7.643178 0.764182
-4.198190 7.592474 -1.374120
-4.225188 7.644452 1.072450
-4.285292 7.756392 -1.088050
-4.242347 7.678661 1.389451
-4.219741 7.640894 -0.763659
-4.207007 7.620979 1.692094
-4.204222 7.619077 -0.456056
-4.212795 7.637764 2.013762
-4.203190 7.620350 -0.151906
-4.215072 7.645046 2.339206
-3.101892 5.644651 -1.725805
-4.188327 7.621685 0.151801
-3.656231 6.656159 -1.753268
-4.197869 7.645372 0.457102
-4.201600 7.655332 -1.697437
-4.193594 7.643916 0.762787
-4.165386 7.592501 -1.371618
-4.183590 7.628830 1.068307
-4.259549 7.770558 -1.088050
-4.206024 7.676101 1.386322
-4.203574 7.674798 -0.765576
-4.172283 7.617670 1.688278
-4.163589 7.604945 -0.454381
-4.178087 7.634598 2.009263
-4.171768 7.626204 -0.151731
-4.182797 7.649544 2.336101
-3.081246 5.653748 -1.725288
-4.156535 7.629962 0.151661
-3.629945 6.666093 -1.752369
-4.157783 7.635423 0.455637
-4.169221 7.659604 -1.695147
-4.159269 7.644505 0.761393
-4.129982 7.593832 -1.369115
-4.145170 7.624929 1.065626
-4.223455 7.772166 -1.086100
-4.175433 7.683793 1.385071
-4.152981 7.645656 -0.761218
-4.138712 7.622559 1.685988
-4.128064 7.606112 -0.453543
-4.143573 7.637868 2.006114
-4.140352 7.631931 -0.151557
-4.148704 7.650511 2.331960
-3.066083 5.672966 -1.727876
-4.126458 7.634907 0.151487
-3.609674 6.681522 -1.753268
-4.123514 7.635830 0.454800
-4.131266 7.653380 -1.690568
-4.128777 7.651963 0.760695
-4.099150 7.597055 -1.367237
-4.114209 7.628150 1.064163
-4.188240 7.768654 -1.083662
-4.134531 7.672236 1.380378
-4.098868 7.609237 -0.756163
-4.111552 7.632784 1.685225
-4.097139 7.609208 -0.452915
-4.110835 7.637838 2.002514
-4.098526 7.618162 -0.150998
-4.117400 7.656438 2.329371
-3.037214 5.664375 -1.722182
-4.093168 7.636928 0.151243
-3.581729 6.685493 -1.751019
-4.091176 7.639614 0.454171
-4.101228 7.658385 -1.688660
-4.090214 7.641022 0.758255
-4.068877 7.604352 -1.365986
-4.082874 7.633713 1.062944
-4.164838 7.790230 -1.084637
-4.099343 7.670942 1.377562
-4.059137 7.598896 -0.753723
-4.077481 7.633237 1.682172
-4.066788 7.616417 -0.452497
-4.078642 7.641828 1.999815
-4.063439 7.616543 -0.150684
-4.075193 7.641787 2.320572
-3.011898 5.666940 -1.719594
-4.055224 7.629979 0.150824
-3.557454 6.696234 -1.750569
-4.056054 7.637972 0.453229
-4.064848 7.657758 -1.685225
-4.050042 7.633081 0.755989
-4.030798 7.600016 -1.362544
-4.050623 7.637395 1.061482
-4.130184 7.790689 -1.082687
-4.065143 7.671240 1.375059
-4.026061 7.600694 -0.752503
-4.040291 7.630779 1.678356
-4.031372 7.617147 -0.451659
-4.045140 7.646389 1.997115
-4.034959 7.627144 -0.150614
-4.050302 7.659379 2.321607
-2.991198 5.675709 -1.719076
-4.022570 7.635946 0.150649
-3.523806 6.691986 -1.746070
-4.020991 7.636179 0.452287
-4.030779 7.658001 -1.682172
-4.022444 7.645411 0.755815
-3.995968 7.598306 -1.359729
-4.010597 7.629347 1.058313
-4.093289 7.789960 -1.080494
-4.035583 7.680139 1.374120
-3.996723 7.609410 -0.751980
-4.011807 7.641358 1.677593
-3.991763 7.606415 -0.450194
-4.031096 7.684624 2.003414
-3.999020 7.623475 -0.150265
-4.025333 7.676895 2.322642
-2.971367 5.686117 -1.719076
-3.991671 7.638608 0.150440
-3.500694 6.701907 -1.745620
-3.983220 7.628922 0.451031
-4.000388 7.665063 -1.680646
-3.986517 7.641738 0.754071
-3.968924 7.608013 -1.359103
-3.989863 7.651407 1.059532
-4.051838 7.773565 -1.076350
-4.006926 7.690674 1.373495
-3.964617 7.612711 -0.750934
-3.976468 7.635467 1.673395
-3.962831 7.612524 -0.449775
-3.976807 7.642629 1.989017
-3.973309 7.639161 -0.150300
-3.977126 7.649761 2.310219
-2.952496 5.695939 -1.719076
-3.961301 7.645395 0.150300
-3.474591 6.708893 -1.744270
-3.951058 7.632137 0.450403
-3.959605 7.648647 -1.674158
-3.959321 7.651379 0.753723
-3.935991 7.609537 -1.356913
-3.944898 7.630020 1.054657
-4.022853 7.784135 -1.075863
-3.966458 7.678288 1.368802
-3.940266 7.627586 -0.751108
-3.939884 7.630111 1.669197
-3.950888 7.654708 -0.451450
-3.943852 7.644341 1.985868
-3.950283 7.660094 -0.150440
-3.947741 7.658446 2.308666
-2.924649 5.690745 -1.714417
-3.927281 7.644945 0.150021
-3.450260 6.719249 -1.743821
-3.922567 7.642329 0.450194
-3.929294 7.655437 -1.672632
-3.918039 7.636788 0.750934
-3.916614 7.637292 -1.359416
-3.913710 7.634912 1.053439
-3.987512 7.782229 -1.073669
-3.930624 7.674505 1.365673
-3.908165 7.630654 -0.750062
-3.906067 7.629838 1.666144
-3.903220 7.627559 -0.449043
-3.911818 7.647653 1.983168
-3.895301 7.618641 -0.149358
-3.907799 7.646376 2.300901
-2.905642 5.702641 -1.714935
-3.884238 7.626532 0.149393
-3.422365 6.722568 -1.741571
-3.889955 7.641055 0.449357
-3.910563 7.684852 -1.676066
-3.885036 7.637986 0.749714
-3.872027 7.615699 -1.353158
-3.882541 7.639678 1.052220
-3.941444 7.758934 -1.068550
-3.896208 7.669885 1.362544
-3.867973 7.617604 -0.747448
-3.869637 7.624168 1.661946
-3.865728 7.619762 -0.447787
-3.875402 7.642144 1.978220
-3.864587 7.620817 -0.149148
-3.874562 7.643784 2.296243
-2.883975 5.709301 -1.713900
-3.850809 7.623308 0.149078
-3.396538 6.726922 -1.739771
-3.860558 7.649240 0.449043
-3.864258 7.659895 -1.667671
-3.856555 7.647944 0.749365
-3.836966 7.609097 -1.349717
-3.845568 7.629467 1.049051
-3.902293 7.745371 -1.064894
-3.867633 7.679912 1.361919
-3.836882 7.622160 -0.746576
-3.838152 7.624684 1.659275
-3.827869 7.607563 -0.446321
-3.849164 7.653212 1.977770
-3.828982 7.616393 -0.148799
-3.842650 7.646906 2.293137
-2.861567 5.711925 -1.711829
-3.822386 7.633126 0.149009
-3.373038 6.738736 -1.739771
-3.824004 7.643020 0.447891
-3.837080 7.669154 -1.666907
-3.827609 7.653562 0.748668
-3.806850 7.615376 -1.348465
-3.812703 7.630414 1.047345
-3.867251 7.742960 -1.062701
-3.833744 7.679226 1.359416
-3.802686 7.617015 -0.744833
-3.808885 7.632765 1.658130
-3.795943 7.610154 -0.445693
-3.810254 7.642184 1.971471
-3.797022 7.618972 -0.148590
-3.810767 7.649897 2.290031
-2.841609 5.721879 -1.711829
-3.792163 7.639257 0.148869
-3.345162 6.741742 -1.737522
-3.791975 7.645587 0.447263
-3.795455 7.652603 -1.660420
-3.792907 7.650811 0.747099
-3.773226 7.614459 -1.345962
-3.782518 7.636560 1.046370
-3.840201 7.756412 -1.062701
-3.798151 7.674858 1.356287
-3.774306 7.626673 -0.744484
-3.778735 7.638976 1.656604
-3.767587 7.619776 -0.445484
-3.775782 7.639715 1.967422
-3.762430 7.616046 -0.148276
-3.780617 7.656224 2.287960
-2.821620 5.731762 -1.711829
-3.757526 7.636300 0.148555
-3.322470 6.755126 -1.737972
-3.761741 7.651606 0.446844
-3.762658 7.653472 -1.657749
-3.755630 7.642546 0.745007
-3.740528 7.615171 -1.343772
-3.752341 7.642590 1.045395
-3.802606 7.748386 -1.059776
-3.768730 7.682747 1.355348
-3.737133 7.618335 -0.742393
-3.745134 7.638017 1.653551
-3.735690 7.622121 -0.444856
-3.744806 7.644097 1.965172
-3.731427 7.620152 -0.148101
-3.743679 7.648552 2.281749
-2.796513 5.731159 -1.708723
-3.723833 7.634992 0.148276
-3.298018 6.764930 -1.737522
-3.728011 7.650326 0.446007
-3.733341 7.661263 -1.656604
-3.726311 7.650237 0.744484
-3.706143 7.612196 -1.340956
-3.722167 7.648500 1.044420
-3.765983 7.741978 -1.057095
-3.729798 7.670984 1.350968
-3.699193 7.608039 -0.740127
-3.707291 7.628089 1.648590
-3.708186 7.633319 -0.444751
-3.712995 7.646603 1.962473
-3.703057 7.629535 -0.148031
-3.708523 7.644193 2.276572
-2.777330 5.742625 -1.709241
-3.691068 7.635341 0.148031
-3.267599 6.762365 -1.733923
-3.696070 7.652503 0.445379
-3.704866 7.670714 -1.655841
-3.692656 7.648842 0.743090
-3.670962 7.607296 -1.337828
-3.688545 7.647144 1.042470
-3.732902 7.742558 -1.055389
-3.696994 7.671502 1.348778
-3.673476 7.622702 -0.740301
-3.675531 7.630371 1.646300
-3.669389 7.621022 -0.443286
-3.679518 7.645471 1.958874
-3.671202 7.631600 -0.147822
-3.683493 7.660573 2.277608
-2.756434 5.750543 -1.708723
-3.662667 7.644571 0.147962
-3.241450 6.768456 -1.732573
-3.662438 7.650946 0.444542
-3.673830 7.674745 -1.653932
-3.665935 7.661685 0.743090
-3.640978 7.612936 -1.336576
-3.652413 7.640271 1.039789
-3.705854 7.755541 -1.055389
-3.665082 7.673666 1.346901
-3.640833 7.622894 -0.739081
-3.646338 7.637838 1.645155
-3.632445 7.612153 -0.442030
-3.646933 7.645957 1.955724
-3.639375 7.633540 -0.147612
-3.657563 7.675128 2.278125
-2.733856 5.754895 -1.707170
-3.633385 7.651891 0.147857
-3.219474 6.783251 -1.733473
-3.629337 7.646811 0.443600
-3.636077 7.664464 -1.648971
-3.636606 7.669035 0.742567
-3.607611 7.611320 -1.334073
-3.629118 7.660151 1.040764
-3.675359 7.761254 -1.054414
-3.627781 7.660782 1.342521
-3.608237 7.622950 -0.737861
-3.612096 7.634548 1.641721
-3.604141 7.621176 -0.441820
-3.611895 7.641023 1.951226
-3.605497 7.627488 -0.147263
-3.619710 7.661015 2.270361
-2.708815 5.753916 -1.704065
-3.610547 7.669325 0.147962
-3.196134 6.792127 -1.733023
-3.608574 7.672083 0.444332
-3.604290 7.666448 -1.646682
-3.621678 7.706927 0.745007
-3.582352 7.623241 -1.334073
-3.604542 7.673940 1.041008
-3.649604 7.773398 -1.054414
-3.590945 7.651941 1.338766
-3.578223 7.628282 -0.737163
-3.582592 7.637598 1.639813
-3.582242 7.640319 -0.442239
-3.587362 7.654723 1.951675
-3.574610 7.630970 -0.147089
-3.583117 7.652607 2.264149
-2.688901 5.761117 -1.703547
-3.597282 7.710876 0.148520
-3.169933 6.797944 -1.731673
-3.612145 7.749804 0.448101
-3.576358 7.673021 -1.645537
-3.620503 7.771268 0.750062
-3.544044 7.610629 -1.329693
-3.576056 7.682877 1.040521
-3.630822 7.804088 -1.056851
-3.559217 7.653681 1.336889
-3.548703 7.631073 -0.736292
-3.549288 7.635814 1.636760
-3.546291 7.632853 -0.441087
-3.552413 7.649523 1.947176
-3.541214 7.628893 -0.146810
-3.552316 7.656308 2.261561
-2.669586 5.772221 -1.704065
-3.599711 7.786917 0.149742
-3.141281 6.798353 -1.728974
-3.610197 7.816761 0.451241
-3.545438 7.676546 -1.643629
-3.622581 7.847173 0.756163
-3.510837 7.608603 -1.327190
-3.548386 7.693509 1.040277
-3.571976 7.748211 -1.047589
-3.525867 7.651705 1.334386
-3.511206 7.619890 -0.734026
-3.506187 7.612493 1.629127
-3.508770 7.621600 -0.439727
-3.523248 7.656566 1.945827
-3.507044 7.624856 -0.146495
-3.519114 7.654618 2.257420
-2.647813 5.777991 -1.703029
-3.601652 7.863068 0.150963
-3.111043 6.795101 -1.725375
-3.609486 7.887431 0.454590
-3.514537 7.679948 -1.641721
-3.627486 7.930432 0.762961
-3.482615 7.617219 -1.326564
-3.527286 7.718486 1.041983
-3.530884 7.729937 -1.043445
-3.490933 7.645996 1.331257
-3.480451 7.623037 -0.733154
-3.478776 7.622900 1.628746
-3.479655 7.628351 -0.439413
-3.486796 7.647541 1.940428
-3.480405 7.637052 -0.146495
-3.489168 7.659824 2.255349
-2.628425 5.788958 -1.703547
-3.598150 7.928397 0.151976
-3.085693 6.802371 -1.724475
-3.607497 7.956372 0.457835
-3.477166 7.668925 -1.636760
-3.626101 8.001117 0.768539
-3.451927 7.620334 -1.325000
-3.503595 7.737986 1.042958
-3.503063 7.740406 -1.043202
-3.455265 7.638339 1.327816
-3.452176 7.631510 -0.732805
-3.452957 7.636785 1.629127
-3.448895 7.631350 -0.438889
-3.460884 7.661440 1.940878
-3.445498 7.630929 -0.146146
-3.459232 7.664913 2.253279
-2.600278 5.780479 -1.698371
-3.607356 8.022981 0.153546
-3.061931 6.813099 -1.724475
-3.611621 8.039968 0.461917
-3.443136 7.664898 -1.633325
-3.622635 8.068253 0.773769
-3.424496 7.630535 -1.324687
-3.486311 7.771905 1.045883
-3.463842 7.725416 -1.039546
-3.421308 7.634130 1.325000
-3.415736 7.621698 -0.730714
-3.422263 7.639834 1.627219
-3.414892 7.626935 -0.437947
-3.424565 7.652130 1.935479
-3.407406 7.617355 -0.145658
-3.421417 7.652250 2.246032
-2.576151 5.780699 -1.695783
-3.602923 8.088498 0.154559
-3.037335 6.821967 -1.724025
-3.612766 8.118218 0.465685
-3.413964 7.671491 -1.632180
-3.627646 8.155486 0.780915
-3.385001 7.613562 -1.319681
-3.455938 7.776769 1.044908
-3.423959 7.708433 -1.035646
-3.392236 7.640609 1.324062
-3.384262 7.622648 -0.729668
-3.384427 7.626609 1.621876
-3.385817 7.633333 -0.437633
-3.391516 7.649785 1.931880
-3.375937 7.618232 -0.145448
-3.388425 7.650016 2.241891
-2.557749 5.790976 -1.696300
-3.604349 8.164429 0.155780
-3.004470 6.808824 -1.718176
-3.618872 8.205077 0.469977
-3.386922 7.679176 -1.631417
-3.629517 8.233103 0.787191
-3.354157 7.612092 -1.317491
-3.428531 7.784553 1.044420
-3.397580 7.717928 -1.035402
-3.363696 7.644585 1.322810
-3.354951 7.624711 -0.728796
-3.350425 7.618022 1.617679
-3.351645 7.624405 -0.436482
-3.368480 7.666343 1.933229
-3.351461 7.631216 -0.145483
-3.358380 7.650597 2.238785
-2.538292 5.801640 -1.696818
-3.609480 8.253910 0.157246
-2.979122 6.815699 -1.717276
-3.578213 8.190207 0.468407
-3.356164 7.681957 -1.629509
-3.460427 7.924365 0.756512
-3.327567 7.623753 -1.317491
-3.405304 7.805572 1.045639
-3.357922 7.700628 -1.031502
-3.334625 7.650846 1.321871
-3.329113 7.638201 -0.728971
-3.319890 7.620672 1.615771
-3.320224 7.625072 -0.435854
-3.330812 7.653038 1.926931
-3.318419 7.628199 -0.145204
-3.329341 7.656959 2.237232
-2.517258 5.808692 -1.696300
-3.428835 7.915984 0.150579
-2.952991 6.820691 -1.715927
-3.413172 7.887372 0.450403
-3.319194 7.670201 -1.624548
-3.425624 7.919939 0.754943
-3.291530 7.613563 -1.313737
-3.381976 7.826521 1.046858
-3.323151 7.694077 -1.029065
-3.295372 7.633421 1.316865
-3.293746 7.629653 -0.727053
-3.294049 7.634016 1.616152
-3.293589 7.636614 -0.435854
-3.300994 7.657459 1.925131
-3.283069 7.619534 -0.144820
-3.299538 7.661437 2.235162
-2.488586 5.797915 -1.690606
-3.387777 7.896666 0.149986
-2.924558 6.820210 -1.713227
-3.281574 7.656478 -1.619205
-4.666598 10.893243 1.036805
-3.261821 7.617744 -1.312485
-3.356977 7.843755 1.047589
-3.290807 7.692856 -1.027359
-3.264045 7.633980 1.314988
-3.259258 7.622785 -0.725310
-3.265064 7.640053 1.615008
-3.259065 7.629699 -0.434807
-3.272712 7.665352 1.924231
-3.255665 7.629109 -0.144785
-3.262919 7.649807 2.228432
-2.467575 5.804789 -1.690088
-3.352374 7.890037 0.149637
-2.903016 6.835759 -1.714577
-5.984160 14.090957 0.802310
-3.252524 7.662465 -1.618060
-4.663565 10.992002 1.044649
-3.227500 7.610897 -1.309357
-3.332677 7.862735 1.048564
-3.263935 7.704296 -1.027359
-3.237172 7.641125 1.314363
-3.228747 7.624942 -0.724438
-3.229960 7.631515 1.610810
-3.231636 7.639189 -0.434703
-3.242142 7.667754 1.921982
-3.228013 7.634337 -0.144680
-3.232271 7.648129 2.224809
-2.447296 5.813367 -1.690088
-3.320758 7.888210 0.149393
-2.875799 6.834570 -1.711877
-5.985269 14.231426 0.809114
-3.226516 7.675582 -1.618442
-4.671475 11.118423 1.055107
-3.200715 7.617915 -1.308731
-3.306582 7.873744 1.048564
-3.236830 7.711417 -1.026871
-3.207425 7.645090 1.313111
-3.201339 7.634329 -0.724264
-3.203115 7.638564 1.610046
-3.194703 7.622234 -0.433132
-3.213687 7.671273 1.920182
-3.198253 7.638181 -0.144541
-3.204807 7.657584 2.224291
-2.426519 5.817885 -1.689053
-3.293204 7.899753 0.149393
-2.842928 6.822982 -1.706479
-5.984694 14.370234 0.815813
-3.195763 7.673552 -1.615771
-4.674392 11.229504 1.064172
-3.170308 7.619922 -1.307166
-3.279079 7.885238 1.048564
-3.212941 7.729999 -1.027846
-3.173138 7.637999 1.309982
-3.170656 7.632023 -0.723044
-3.171163 7.637006 1.607375
-3.165016 7.625959 -0.432714
-3.177927 7.660844 1.914783
-3.168509 7.641910 -0.144401
-3.173621 7.658015 2.221185
-2.404722 5.822748 -1.688018
-3.261032 7.900109 0.149183
-2.821322 6.838270 -1.707828
-5.986277 14.516594 0.822931
-3.163721 7.671956 -1.613099
-4.681481 11.358115 1.074805
-3.141430 7.625463 -1.306228
-3.257583 7.911320 1.050514
-3.183674 7.735660 -1.027115
-3.138189 7.628933 1.306541
-3.139446 7.631989 -0.721998
-3.144487 7.648028 1.607375
-3.137620 7.635113 -0.432609
-3.148203 7.664682 1.912984
-3.134222 7.634424 -0.144052
-3.146139 7.667259 2.220668
-2.377800 5.815014 -1.683359
-3.231164 7.905892 0.149078
-2.795226 6.842663 -1.706479
-5.985392 14.659441 0.829839
-3.133209 7.673865 -1.611191
-4.671915 11.448177 1.081777
-3.107334 7.618091 -1.303099
-3.235941 7.937350 1.052464
-3.153654 7.739374 -1.026140
-3.105581 7.625206 1.304038
-3.102267 7.617068 -0.719558
-3.111847 7.644411 1.604322
-3.104925 7.631219 -0.431772
-3.118494 7.668403 1.911184
-3.103787 7.636056 -0.143878
-3.109901 7.654928 2.213938
-2.357488 5.823278 -1.683359
-3.196049 7.898585 0.148729
-2.770594 6.850572 -1.706029
-5.987331 14.811713 0.837271
-3.104197 7.679294 -1.610046
-4.671484 11.562322 1.091016
-3.079246 7.625227 -1.302473
-3.209702 7.952277 1.052951
-3.128107 7.754017 -1.026627
-3.075991 7.628670 1.302786
-3.070445 7.614915 -0.718338
-3.076340 7.633376 1.599743
-3.076031 7.636453 -0.431458
-3.080064 7.650318 1.903986
-3.073379 7.637568 -0.143703
-3.081000 7.660358 2.212385
-2.337148 5.831471 -1.683359
-3.163251 7.896699 0.148485
-2.740143 6.843920 -1.701980
-5.996081 14.976114 0.845435
-3.075186 7.684614 -1.608902
-4.678447 11.696953 1.102172
-3.046008 7.619422 -1.299658
-3.178975 7.956059 1.051976
-3.103963 7.772263 -1.027602
-3.049210 7.635161 1.302161
-3.041627 7.620035 -0.717815
-3.050401 7.645892 1.600124
-3.043436 7.632303 -0.430620
-3.049731 7.651971 1.901736
-3.046556 7.644003 -0.143633
-3.051289 7.659766 2.209280
-2.311790 5.827025 -1.679736
-3.134099 7.899711 0.148345
-2.715998 6.849345 -1.701080
-5.988660 15.110212 0.851820
-3.044002 7.684351 -1.606612
-4.677197 11.813245 1.111584
-3.014182 7.612951 -1.296842
-3.159881 7.985016 1.054414
-3.067952 7.756670 -1.024190
-3.021089 7.642084 1.301535
-3.012083 7.623194 -0.717117
-3.021424 7.646835 1.598216
-3.012976 7.629349 -0.429888
-3.014324 7.636665 1.895438
-3.014719 7.641569 -0.143389
-3.018865 7.655993 2.205138
-2.293868 5.838255 -1.680771
-3.102117 7.899436 0.148136
-2.690650 6.855155 -1.700180
-5.986205 15.259319 0.859043
-3.012765 7.679782 -1.603559
-4.677267 11.928856 1.120997
-2.989753 7.628942 -1.297781
-3.133434 7.999694 1.054901
-3.019870 7.713727 -1.017122
-2.987918 7.636025 1.298719
-2.988241 7.636850 -0.717466
-2.991851 7.650022 1.596690
-2.981234 7.626800 -0.429155
-2.985523 7.641694 1.894088
-2.976386 7.622242 -0.142830
-2.991418 7.664685 2.204621
-2.267872 5.831822 -1.676630
-3.070179 7.899032 0.147927
-2.664586 6.859057 -1.698830
-5.987124 15.419759 0.866893
-2.979546 7.673781 -1.600124
-4.675247 12.047268 1.130584
-2.957388 7.624600 -1.295278
-3.111233 8.025391 1.056851
-2.998665 7.739028 -1.019072
-2.956963 7.635357 1.296842
-2.952209 7.623083 -0.715200
-2.967257 7.665911 1.597835
-2.952433 7.631571 -0.428841
-2.954612 7.641164 1.891388
-2.950485 7.634451 -0.142865
-2.959078 7.660664 2.200480
-2.248197 5.841506 -1.677148
-3.037564 7.896636 0.147682
-2.640625 6.868318 -1.698830
-5.994161 15.599032 0.875790
-2.947814 7.671306 -1.597453
-4.677457 12.178828 1.141392
-2.922258 7.612748 -1.291523
-3.085335 8.041760 1.057582
-2.928989 7.638238 -1.004447
-2.927463 7.638255 1.295590
-2.921301 7.622180 -0.714154
-2.927840 7.643221 1.590966
-2.922207 7.632503 -0.428317
-2.926526 7.647792 1.890489
-2.915961 7.624157 -0.142481
-2.928179 7.660120 2.197374
-2.224353 5.840292 -1.674559
-3.007844 7.901585 0.147578
-2.611785 6.864743 -1.695681
-5.996460 15.769210 0.884164
-2.919620 7.677879 -1.596690
-4.678800 12.310553 1.152199
-2.894266 7.619208 -1.290897
-3.057948 8.054338 1.057826
-2.941041 7.750494 -1.017853
-2.897281 7.639192 1.294026
-2.891853 7.624879 -0.713457
-2.901140 7.653395 1.590966
-2.889176 7.625849 -0.427375
-2.894293 7.643381 1.886889
-2.886497 7.626810 -0.142342
-2.899373 7.664872 2.195821
-2.203273 5.846213 -1.674042
-2.979541 7.910164 0.147543
-2.586435 6.870170 -1.694781
-5.989915 15.919026 0.891386
-2.884506 7.665974 -1.592110
-4.681388 12.448025 1.163529
-2.860703 7.610773 -1.287769
-3.058439 8.141152 1.067819
-2.890944 7.699385 -1.009809
-2.869211 7.645560 1.293400
-2.862421 7.627465 -0.712760
-2.868893 7.648770 1.587913
-2.856929 7.620927 -0.426538
-2.864178 7.644312 1.884640
-2.854945 7.623731 -0.142097
-2.866503 7.658664 2.191162
-2.183528 5.855678 -1.674559
-2.947719 7.909274 0.147333
-2.558355 6.868200 -1.692082
-5.990751 16.091452 0.899864
-2.853617 7.664957 -1.589821
-4.683763 12.587534 1.175034
-2.834117 7.620713 -1.287769
-3.152417 8.481126 1.110961
-2.855753 7.687100 -1.006885
-2.835628 7.637010 1.290272
-2.837163 7.641146 -0.713108
-2.849688 7.678985 1.592110
-2.829617 7.628981 -0.426433
-2.833411 7.643301 1.881940
-2.822065 7.616773 -0.141783
-2.839754 7.668622 2.191162
-2.160399 5.856015 -1.672489
-2.918711 7.915763 0.147263
-2.531671 6.869774 -1.690282
-5.997445 16.274271 0.908971
-2.824132 7.667502 -1.588294
-4.675589 12.701032 1.184098
-2.803408 7.619435 -1.285891
-3.199529 8.700746 1.138260
-2.848763 7.751055 -1.013953
-2.808926 7.642663 1.289646
-2.797419 7.615469 -0.709796
-2.814072 7.664926 1.587149
-2.798155 7.625685 -0.425701
-2.803356 7.643997 1.879691
-2.794724 7.620458 -0.141679
-2.807661 7.659858 2.185986
-2.136631 5.854446 -1.669901
-2.885587 7.906613 0.146914
-2.510880 6.883623 -1.691632
-5.997375 16.450851 0.917659
-2.795332 7.671780 -1.587149
-4.677589 12.844579 1.195951
-2.774747 7.619408 -1.284327
-3.206640 8.810174 1.151178
-2.781646 7.646665 -0.999085
-2.781557 7.650564 1.289333
-2.772862 7.630805 -0.710319
-2.786625 7.668681 1.586004
-2.773531 7.636800 -0.425805
-2.776668 7.649586 1.878791
-2.766744 7.626407 -0.141609
-2.776294 7.656900 2.182362
-2.115894 5.857866 -1.668865
-2.851861 7.899710 0.146600
-2.479559 6.872182 -1.686683
-6.002251 16.644539 0.927289
-2.765881 7.669926 -1.584860
-4.682929 12.993100 1.208327
-2.741437 7.610465 -1.281199
-3.202094 8.894155 1.160684
-2.779135 7.723570 -1.007860
-2.751490 7.650933 1.287769
-2.746869 7.638083 -0.710145
-2.754528 7.663580 1.582952
-2.740782 7.629517 -0.424863
-2.748630 7.655564 1.877891
-2.739432 7.634135 -0.141574
-2.749552 7.666543 2.182362
-2.094784 5.863396 -1.668348
-2.821580 7.902082 0.146461
-2.454244 6.877126 -1.685783
-5.999808 16.821526 0.935976
-2.737774 7.675834 -1.584096
-4.683711 13.138859 1.220355
-2.713527 7.616266 -1.280573
-3.206323 9.004391 1.173602
-2.748166 7.722002 -1.006397
-2.720793 7.649325 1.285891
-2.716850 7.638240 -0.709273
-2.726443 7.669450 1.582188
-2.709454 7.625863 -0.424131
-2.713411 7.641240 1.872043
-2.708084 7.630461 -0.141330
-2.718251 7.663350 2.178739
-2.072372 5.865209 -1.666795
-2.790648 7.902455 0.146286
-2.426334 6.874624 -1.683084
-5.998187 17.004351 0.944978
-2.703778 7.664979 -1.579899
-4.686174 13.292299 1.233079
-2.685613 7.621965 -1.279947
-3.206519 9.105404 1.185301
-2.723169 7.737166 -1.007128
-2.687522 7.640142 1.282763
-2.690173 7.647676 -0.709273
-2.699657 7.678919 1.582188
-2.681492 7.631507 -0.423921
-2.685432 7.646987 1.871143
-2.678122 7.630432 -0.141155
-2.690207 7.669146 2.177704
-2.048064 5.861464 -1.663689
-2.761070 7.906485 0.146181
-2.401681 6.881212 -1.682634
-5.999976 17.200565 0.954713
-2.675067 7.668809 -1.578754
-4.684999 13.438390 1.245107
-2.654444 7.618235 -1.277757
-3.209319 9.215899 1.198220
-2.702668 7.765374 -1.009566
-2.658242 7.642013 1.281511
-2.654953 7.632556 -0.707007
-2.673478 7.690151 1.582570
-2.651557 7.631388 -0.423398
-2.656806 7.650791 1.869793
-2.648190 7.630288 -0.140981
-2.657720 7.662064 2.173045
-2.026962 5.866751 -1.663171
-2.730842 7.908515 0.146042
-2.377645 6.889554 -1.682634
-6.004145 17.397837 0.964552
-2.648920 7.679956 -1.579135
-4.678972 13.573328 1.256088
-2.625259 7.619985 -1.276505
-3.210087 9.322768 1.210650
-2.665212 7.744727 -1.005666
-2.630955 7.645183 1.280573
-2.622460 7.624822 -0.705439
-2.639600 7.679013 1.578372
-2.624904 7.640596 -0.423398
-2.626285 7.648961 1.867094
-2.622225 7.637136 -0.140946
-2.626655 7.654388 2.168386
-2.005845 5.871963 -1.662654
-2.696199 7.892926 0.145588
-2.347861 6.877113 -1.677685
-6.005944 17.602045 0.974705
-2.617028 7.674291 -1.576082
-4.690056 13.761191 1.271951
-2.594879 7.613689 -1.274002
-3.207318 9.416042 1.221375
-2.628641 7.721576 -1.001522
-2.602345 7.648709 1.279634
-2.593902 7.628271 -0.704916
-2.613487 7.685866 1.577991
-2.594412 7.634130 -0.422561
-2.599654 7.653937 1.866194
-2.594906 7.644351 -0.140911
-2.600543 7.665340 2.168904
-1.985741 5.876753 -1.662136
-2.669269 7.904186 0.145623
-2.321349 6.877881 -1.675885
-6.007582 17.799746 0.984544
-2.591563 7.682928 -1.576082
-4.693401 13.922046 1.285373
-2.567027 7.618956 -1.273377
-3.202302 9.509958 1.232099
-2.597870 7.719416 -1.000060
-2.573184 7.646064 1.277757
-2.568593 7.636830 -0.704916
-2.586018 7.693080 1.577609
-2.565839 7.637461 -0.422247
-2.567956 7.648186 1.862595
-2.568270 7.649121 -0.140841
-2.574492 7.672091 2.168386
-1.966441 5.887312 -1.663171
-2.639877 7.903509 0.145448
-2.299761 6.889239 -1.676785
-6.006089 18.002493 0.994593
-2.561625 7.682613 -1.574174
-4.692650 14.081997 1.298621
-2.541745 7.627428 -1.273377
-3.210894 9.641061 1.247699
-2.579155 7.748706 -1.002741
-2.543363 7.645627 1.276192
-2.541922 7.645749 -0.704916
-2.558636 7.696024 1.576464
-2.537980 7.638345 -0.421828
-2.539510 7.647411 1.860345
-2.533367 7.633367 -0.140387
-2.545265 7.673696 2.166316
-1.943270 5.882796 -1.660066
-2.608513 7.901282 0.145239
-2.276311 6.899075 -1.677235
-6.007630 18.218719 1.005374
-2.530599 7.674286 -1.570740
-4.693941 14.243189 1.312043
-2.511399 7.624996 -1.271500
-3.213217 9.761574 1.261835
-2.546506 7.740692 -1.000547
-2.514193 7.646952 1.274941
-2.507221 7.625746 -0.702301
-2.530529 7.701179 1.575701
-2.508184 7.637671 -0.421304
-2.511583 7.652528 1.859445
-2.505458 7.638363 -0.140317
-2.510638 7.658670 2.159586
-1.922125 5.887706 -1.659548
-2.575953 7.895132 0.144960
-2.247984 6.894010 -1.674086
-6.015169 18.457958 1.017411
-2.504405 7.684939 -1.571121
-4.693557 14.411041 1.325987
-2.481097 7.622446 -1.269622
-3.214742 9.882217 1.275972
-2.512108 7.726880 -0.997623
-2.485651 7.650046 1.274002
-2.478122 7.626871 -0.701604
-2.496963 7.689425 1.571503
-2.479044 7.638781 -0.420886
-2.483655 7.657539 1.858546
-2.476932 7.641356 -0.140213
-2.483296 7.665549 2.159068
-1.900969 5.892541 -1.659030
-2.548379 7.904075 0.144960
-2.217927 6.883267 -1.669587
-6.011927 18.668953 1.027878
-2.474557 7.684289 -1.569213
-4.696942 14.594235 1.341327
-2.453263 7.627300 -1.268997
-3.213034 9.995431 1.289134
-2.489979 7.750721 -0.999572
-2.458931 7.658676 1.274002
-2.447109 7.626417 -0.700732
-2.467709 7.690617 1.569977
-2.449313 7.637879 -0.420362
-2.454529 7.658741 1.856746
-2.446585 7.638528 -0.140003
-2.455343 7.670491 2.158033
-1.878185 5.895787 -1.657995
-2.518950 7.907207 0.144855
-2.193888 6.890967 -1.669587
-4.797342 15.077476 0.829211
-2.445779 7.691438 -1.568832
-4.697726 14.782247 1.357015
-2.421705 7.624944 -1.267119
-3.208166 10.101184 1.301321
-2.458703 7.746121 -0.997866
-2.427405 7.652149 1.271500
-2.421073 7.636813 -0.700907
-2.435352 7.686509 1.567305
-2.415877 7.629666 -0.419420
-2.421152 7.650963 1.852697
-2.417491 7.639396 -0.139864
-2.423894 7.664279 2.153892
-1.855855 5.896779 -1.656442
-2.487554 7.908755 0.144715
