# This PCD file was generated using the MATLAB® pcwrite function
# from Computer Vision Toolbox®.
# .PCD v.7 - Point Cloud Data file format
VERSION .7
FIELDS x y z
SIZE 4 4 4
TYPE F F F
COUNT 1 1 1
WIDTH 1635
HEIGHT 1
VIEWPOINT 0 0 0 1 0 0 0
POINTS 1635
DATA ascii
0.059771 -0.656767 -0.057697
0.833980 -9.181644 1.792078
0.636718 -7.023520 -0.369597
0.830252 -9.176161 2.127137
0.667413 -7.390797 -0.129532
0.822829 -9.129632 2.456193
0.543410 -6.125005 0.107332
0.679131 -7.700582 0.676329
0.051959 -0.590331 -0.093861
0.647911 -7.375993 0.909145
0.058421 -0.666420 -0.082140
0.803325 -9.182035 1.459847
0.055457 -0.635148 -0.055780
0.802267 -9.188412 1.792842
0.606304 -6.958049 -0.366038
0.798553 -9.182884 2.128037
0.797388 -9.188059 -0.160981
0.788456 -9.103578 2.448428
0.783125 -9.191294 0.161016
0.780823 -9.202258 0.484003
0.651574 -7.710961 0.677026
0.049795 -0.590517 -0.093861
0.775614 -9.198036 1.133385
0.056428 -0.670576 -0.082627
0.770111 -9.171004 1.457657
0.053738 -0.641294 -0.056303
0.766456 -9.165857 1.787880
0.765649 -9.175475 -0.482538
0.764569 -9.181867 2.127137
0.576639 -6.924975 -0.121294
0.755873 -9.096649 2.445840
0.560002 -6.870165 0.120317
0.610097 -7.500902 0.394404
0.632052 -7.804540 0.685044
0.045824 -0.567060 -0.090106
0.623353 -7.730665 0.952287
0.055243 -0.686608 -0.084577
0.738727 -9.181512 1.458908
0.051978 -0.647436 -0.056826
0.734144 -9.164562 1.787117
0.733456 -9.176101 -0.482433
0.624681 -7.832449 1.814005
0.732907 -9.189416 -0.160911
0.724576 -9.105009 2.447393
0.537061 -6.869990 0.120282
0.714082 -9.175626 0.482328
0.711762 -9.187271 0.806191
0.045469 -0.586904 -0.093235
0.709392 -9.177497 1.130216
0.051440 -0.666996 -0.082140
0.447221 -5.812157 0.923276
0.050022 -0.651586 -0.057174
0.704049 -9.170862 1.787880
0.701651 -9.160561 -0.481491
0.700715 -9.169370 2.123088
0.701129 -9.195906 -0.160981
0.692935 -9.109409 2.447911
0.685791 -9.185032 0.160772
0.683501 -9.175952 0.482224
0.681292 -9.189581 0.806191
0.044877 -0.606759 -0.096364
0.050277 -0.683009 -0.084090
0.428379 -5.819518 0.924215
0.047716 -0.649762 -0.057000
0.567463 -7.745876 1.509681
0.672144 -9.196815 -0.483270
0.668987 -9.175648 2.123988
0.668885 -9.174249 -0.160562
0.662164 -9.103951 2.445840
0.654901 -9.181271 0.160667
0.651468 -9.178282 0.482224
0.648507 -9.181967 0.805319
0.042308 -0.599022 -0.095112
0.503491 -7.146484 0.879653
0.049682 -0.706934 -0.087015
0.418424 -5.968768 0.947680
0.044474 -0.636012 -0.055780
0.511842 -7.338076 -0.385507
0.637880 -9.168096 2.121738
0.636858 -9.176527 -0.160562
0.628378 -9.077297 2.438075
0.621766 -9.167540 0.160388
0.458620 -6.797197 0.357036
0.616851 -9.166175 0.803750
0.041540 -0.618876 -0.098241
0.478277 -7.144237 0.879166
0.051710 -0.774447 -0.095302
0.042122 -0.634175 -0.055605
0.523573 -7.882767 1.535631
0.066273 -1.000431 -0.052545
0.605874 -9.170266 2.121738
0.604953 -9.180690 -0.160597
0.596816 -9.081365 2.438593
0.588863 -9.155686 0.160143
0.422013 -6.597444 0.346464
0.583631 -9.174340 0.804273
0.041522 -0.654509 -0.103873
0.049759 -0.786509 -0.096764
0.498511 -7.901601 1.253979
0.040784 -0.648237 -0.056826
0.060112 -0.960800 -0.050452
0.571773 -9.164645 2.119939
0.401816 -6.440495 -0.112638
0.565593 -9.091104 2.440664
0.555422 -9.159779 0.160178
0.420316 -6.951748 0.364991
0.551245 -9.170354 0.803750
0.039710 -0.662538 -0.105124
0.547220 -9.156775 1.126317
0.048056 -0.806502 -0.099202
0.433328 -7.272291 1.153861
0.037930 -0.638431 -0.055954
0.541682 -9.144516 1.780630
0.056640 -0.959011 -0.050347
0.446533 -7.583054 1.753718
0.540846 -9.184690 -0.160597
0.533289 -9.083380 2.438075
0.419326 -7.316878 0.127926
0.405020 -7.110701 0.373260
0.384666 -6.795124 0.595448
0.035503 -0.627166 -0.099492
0.517412 -9.168449 1.127535
0.043598 -0.774946 -0.095302
0.513354 -9.153339 1.452025
0.036035 -0.644528 -0.056477
0.512013 -9.158023 1.782919
0.053793 -0.965176 -0.050661
0.395330 -7.115569 1.645292
0.506238 -9.140597 -0.159794
0.502431 -9.100618 2.442217
0.492524 -9.153362 0.160004
0.377425 -7.060216 0.370539
0.488282 -9.163947 0.802879
0.032685 -0.615450 -0.097615
0.392437 -7.413867 0.911583
0.041729 -0.790952 -0.097252
0.480570 -9.139296 1.449522
0.033897 -0.644644 -0.056477
0.478707 -9.134267 1.777958
0.050319 -0.963363 -0.050557
0.476157 -9.146694 2.114540
0.316944 -6.108852 -0.106774
0.468665 -9.063731 2.431864
0.317899 -6.363320 0.333903
0.367429 -7.380633 0.646521
0.032298 -0.651074 -0.103247
0.330782 -6.691516 0.822618
0.035647 -0.723681 -0.088965
0.448472 -9.136970 1.448896
0.033112 -0.674608 -0.059092
0.446820 -9.135882 1.777958
0.047248 -0.969517 -0.050871
0.344133 -7.087013 1.638094
0.442896 -9.153896 -0.159969
0.436838 -9.061452 2.430829
0.360915 -7.710382 0.134733
0.296704 -6.386338 0.335055
0.341941 -7.387841 0.647044
0.030026 -0.651183 -0.103247
0.335387 -7.301411 0.897446
0.033665 -0.735699 -0.090427
0.416665 -9.140454 1.449209
0.029940 -0.656806 -0.057523
0.414303 -9.123658 1.775287
0.042600 -0.941743 -0.049405
0.411851 -9.140060 2.112290
0.026810 -0.597308 -0.010437
0.405120 -9.060991 2.430311
0.021234 -0.488297 -0.130962
0.264431 -6.105346 0.106669
0.320273 -7.454884 0.391054
0.315895 -7.383018 0.646521
0.028257 -0.663125 -0.105124
0.387498 -9.131146 1.122173
0.031935 -0.755646 -0.092864
0.384922 -9.145800 1.449835
0.027480 -0.652926 -0.057174
0.301885 -7.202746 1.401301
0.032566 -0.780249 -0.040927
0.280082 -6.738772 1.557111
0.027040 -0.653341 -0.011414
0.373567 -9.064281 2.430829
0.362002 -9.132285 0.478979
0.027795 -0.710592 -0.112633
0.253354 -6.506172 0.799463
0.031604 -0.815261 -0.100177
0.268583 -6.928369 1.098170
0.025508 -0.660981 -0.057871
0.290382 -7.558844 1.470374
0.024881 -0.650631 -0.034123
0.347142 -9.119346 2.106892
0.025330 -0.665417 -0.011623
0.343799 -9.073193 2.432899
0.026546 -0.727405 0.012705
0.208058 -5.756336 0.301874
0.327847 -9.159126 0.801833
0.025439 -0.710680 -0.112633
0.242236 -6.800584 0.835536
0.030869 -0.870909 -0.107001
0.242866 -6.885832 1.091287
0.026764 -0.762616 -0.066761
0.022932 -0.656698 -0.034437
0.316968 -9.122395 2.107341
0.022455 -0.649513 -0.011344
0.311396 -9.053099 2.427205
0.023347 -0.707507 0.012356
0.298498 -9.142576 0.479397
0.022375 -0.689004 0.060312
0.024105 -0.746303 -0.118264
0.214863 -6.688296 0.821643
0.028653 -0.896804 -0.110170
0.234637 -7.384183 1.170130
0.030310 -0.953873 -0.083495
0.287726 -9.104956 1.770708
0.020515 -0.652781 -0.034228
0.285243 -9.127340 2.108241
0.021988 -0.707551 -0.012356
0.279614 -9.048338 2.425652
0.014385 -0.484681 -0.129927
0.022292 -0.755556 0.013194
0.266234 -9.131583 0.478769
0.021471 -0.740858 0.064844
0.020135 -0.698993 -0.110756
0.261223 -9.123716 1.120710
0.025861 -0.908804 -0.111632
0.201824 -7.136158 1.130708
0.023770 -0.840452 -0.073559
0.255942 -9.105905 1.770708
0.017622 -0.630888 -0.033076
0.253220 -9.122436 2.106892
0.026411 -0.957490 -0.016719
0.248027 -9.049259 2.425652
0.018303 -0.703655 0.012286
0.235075 -9.160409 0.480235
0.017564 -0.689143 0.060312
0.018095 -0.714857 -0.113259
0.185674 -7.386180 0.907195
0.022590 -0.904920 -0.111145
0.167171 -6.743841 1.068448
0.020003 -0.812649 -0.071119
0.224541 -9.122444 1.773761
0.015518 -0.634939 -0.033286
0.220902 -9.103784 2.102393
0.019601 -0.813640 -0.014206
0.216438 -9.050069 2.425652
0.011090 -0.492497 -0.131998
0.027281 -1.211508 0.021152
0.015734 -0.721073 0.063101
0.015817 -0.730718 -0.115762
0.157270 -7.265721 0.892327
0.019602 -0.912932 -0.112120
0.139803 -6.564664 1.039976
0.020321 -0.962110 -0.084192
0.190612 -9.099651 1.769181
0.013315 -0.640982 -0.033600
0.187212 -9.088945 2.098794
0.014290 -0.693747 -0.012112
0.184531 -9.035318 2.421511
0.016433 -0.871712 0.015218
0.012779 -0.697219 0.061009
0.013194 -0.726819 -0.115136
0.164074 -9.125979 1.120710
0.016538 -0.928876 -0.114070
0.115184 -6.533531 1.034971
0.016752 -0.950222 -0.083147
0.119340 -6.836974 1.329176
0.010939 -0.633037 -0.033181
0.155619 -9.097337 2.100593
0.011510 -0.679799 -0.011868
0.151316 -9.030139 2.419958
0.007592 -0.488700 -0.130962
0.010442 -0.679816 0.011868
0.010700 -0.721166 0.063101
0.010657 -0.726861 -0.115136
0.132333 -9.134437 1.121686
0.013693 -0.956717 -0.117482
0.092293 -6.527967 1.034032
0.013041 -0.922384 -0.080706
0.127299 -9.116465 1.772234
0.008757 -0.635068 -0.033286
0.123782 -9.091979 2.099243
0.009164 -0.681835 -0.011903
0.119742 -9.026749 2.418923
0.007689 -0.647856 0.011309
0.009155 -0.782872 0.041031
0.008092 -0.713230 0.062404
0.008252 -0.738745 -0.117013
0.085780 -7.800941 0.957893
0.009602 -0.887284 -0.108951
0.098647 -9.115830 1.443890
0.009694 -0.910470 -0.079660
0.095248 -9.095260 1.768036
0.006561 -0.637092 -0.033390
0.067169 -6.635120 1.531917
0.006903 -0.681861 -0.011903
0.089769 -9.023232 2.417887
0.004279 -0.500331 -0.134068
0.005746 -0.671873 0.011728
0.005865 -0.714995 0.037473
0.005383 -0.685361 0.059963
0.005896 -0.750620 -0.118890
0.069865 -9.097410 1.117054
0.006585 -0.877386 -0.107733
0.053519 -7.300796 1.156364
0.005689 -0.794943 -0.069550
0.065102 -9.097487 1.768418
0.004420 -0.633116 -0.033181
0.045405 -6.670383 1.540015
0.004509 -0.679882 -0.011868
0.058235 -9.017696 2.416335
0.002620 -0.500343 -0.134068
0.003441 -0.679888 0.011868
0.003313 -0.703027 0.036845
0.003110 -0.685375 0.059963
0.003241 -0.742735 -0.117639
0.031847 -7.602837 0.933519
0.003562 -0.887329 -0.108951
0.035027 -9.122222 1.444829
0.003121 -0.812889 -0.071119
0.033323 -9.091770 1.767273
0.002210 -0.633127 -0.033181
0.030062 -9.065491 2.092945
0.002073 -0.659896 -0.011519
0.019294 -6.502584 1.742370
0.000880 -0.504212 -0.135104
0.001043 -0.663898 0.011588
0.000835 -0.683062 0.035798
0.000714 -0.681397 0.059615
0.000669 -0.766446 -0.121393
0.006343 -9.085766 1.115592
0.000457 -0.873441 -0.107245
0.002339 -6.700478 1.061252
0.000244 -0.699329 -0.061183
0.001585 -9.078088 1.764602
-0.000000 -0.639123 -0.033495
-0.001580 -9.059693 2.091595
-0.000233 -0.667898 -0.011658
-0.003394 -6.481362 1.736676
-0.001229 -0.639901 0.011170
-0.001586 -0.699039 0.036635
-0.001684 -0.689365 0.060312
-0.001986 -0.758542 -0.120142
-0.025427 -9.105584 1.118029
-0.002827 -0.952840 -0.116995
-0.028540 -9.084714 1.438884
-0.002735 -0.870670 -0.076174
-0.030097 -9.076076 1.764220
-0.002217 -0.635125 -0.033286
-0.033176 -9.051838 2.089795
-0.002557 -0.665894 -0.011623
-0.036145 -9.004289 2.412711
-0.002640 -0.504206 -0.135104
-0.003592 -0.663889 0.011588
-0.003992 -0.693037 0.036321
-0.004114 -0.693339 0.060660
-0.004706 -0.770383 -0.122019
-0.047321 -7.531291 0.924745
-0.006127 -0.948854 -0.116507
-0.060265 -9.086534 1.439197
-0.004281 -0.645520 -0.056477
-0.061712 -9.066099 1.762312
-0.004350 -0.623130 -0.032658
-0.064745 -9.047769 2.088896
-0.004764 -0.649884 -0.011344
-0.049366 -6.577770 1.762558
-0.004333 -0.496467 -0.133033
-0.005803 -0.651875 0.011379
-0.006300 -0.681036 0.035693
-0.006535 -0.693321 0.060660
-0.007319 -0.762460 -0.120767
-0.073881 -7.558871 0.928157
-0.009479 -0.952797 -0.116995
-0.091982 -9.086268 1.439197
-0.008531 -0.842738 -0.073734
-0.093499 -9.079570 1.764983
-0.006525 -0.623111 -0.032658
-0.096120 -9.028002 2.084397
-0.006989 -0.645864 -0.011274
-0.099091 -9.011544 2.414782
-0.006538 -0.535083 -0.143386
-0.008028 -0.647852 0.011309
-0.008423 -0.661039 0.034646
-0.008646 -0.669387 0.058569
-0.009929 -0.758480 -0.120142
-0.120462 -9.080998 1.115105
-0.011791 -0.877332 -0.107733
-0.123591 -9.077991 1.437946
-0.012097 -0.888523 -0.077743
-0.125004 -9.065447 1.762312
-0.008923 -0.639061 -0.033495
-0.127412 -9.012023 2.080797
-0.009387 -0.655833 -0.011449
-0.130322 -8.995689 2.410641
-0.008041 -0.511878 -0.137174
-0.010290 -0.647820 0.011309
-0.010925 -0.672988 0.035274
-0.010590 -0.645447 0.056477
-0.012577 -0.758440 -0.120142
-0.152293 -9.088462 1.116079
-0.014618 -0.863391 -0.106026
-0.155143 -9.069603 1.436694
-0.015573 -0.910389 -0.079660
-0.156680 -9.066919 1.762694
-0.011119 -0.637029 -0.033390
-0.159144 -9.027111 2.084397
-0.011747 -0.659795 -0.011519
-0.161376 -8.975864 2.405464
-0.012435 -0.641782 0.011204
-0.013234 -0.670949 0.035170
-0.013002 -0.653374 0.057174
-0.014748 -0.734692 -0.116387
-0.183734 -9.073982 1.114373
-0.019051 -0.932799 -0.114557
-0.186720 -9.065057 1.436069
-0.018997 -0.922281 -0.080706
-0.188206 -9.060429 1.761549
-0.013301 -0.634989 -0.033286
-0.190654 -9.026501 2.084397
-0.013667 -0.641757 -0.011204
-0.192664 -8.973315 2.404947
-0.011176 -0.492495 -0.131998
-0.014858 -0.649731 0.011344
-0.015808 -0.680882 0.035693
-0.015236 -0.651333 0.057000
-0.017406 -0.738586 -0.117013
-0.215220 -9.065349 1.113398
-0.022117 -0.924789 -0.113582
-0.170122 -7.061899 1.118819
-0.022600 -0.938143 -0.082101
-0.219547 -9.047939 1.759259
-0.015225 -0.622959 -0.032658
-0.221682 -9.006298 2.079897
-0.016105 -0.649701 -0.011344
-0.224131 -8.978381 2.406500
-0.013098 -0.500178 -0.134068
-0.016704 -0.633683 0.011065
-0.017918 -0.670840 0.035170
-0.017563 -0.653268 0.057174
-0.019770 -0.730622 -0.115762
-0.024692 -0.900894 -0.110657
-0.250218 -9.071431 1.437320
-0.021150 -0.766778 -0.067110
-0.251509 -9.060855 1.761930
-0.017511 -0.626895 -0.032867
-0.253009 -9.001574 2.078998
-0.017808 -0.629652 -0.010995
-0.255415 -8.975614 2.405982
-0.014500 -0.488543 -0.130962
-0.019095 -0.639618 0.011170
-0.020083 -0.668780 0.035065
-0.020327 -0.669134 0.058569
-0.022924 -0.750293 -0.118890
-0.278806 -9.073545 1.114617
-0.027801 -0.904775 -0.111145
-0.213245 -6.900648 1.093477
-0.022960 -0.738820 -0.064670
-0.283137 -9.059922 1.761930
-0.019950 -0.634815 -0.033286
-0.282490 -8.988997 2.076298
-0.020275 -0.641582 -0.011204
-0.285239 -8.976647 2.406500
-0.021415 -0.645546 0.011274
-0.022100 -0.662722 0.034751
-0.022613 -0.671054 0.058743
-0.024876 -0.734419 -0.116387
-0.228445 -6.709694 0.824324
-0.030059 -0.882855 -0.108464
-0.022533 -0.655109 -0.057348
-0.312771 -9.047161 1.759641
-0.022055 -0.634745 -0.033286
-0.312500 -8.993855 2.077648
-0.022891 -0.655501 -0.011449
-0.314530 -8.962137 2.402876
-0.023337 -0.639477 0.011170
-0.024152 -0.658653 0.034542
-0.024691 -0.666994 0.058394
-0.027459 -0.738280 -0.117013
-0.338830 -9.067529 1.114130
-0.032690 -0.874815 -0.107489
-0.340081 -9.058622 1.435756
-0.024556 -0.651048 -0.057000
-0.342549 -9.040189 1.758496
-0.024388 -0.640656 -0.033600
-0.253296 -6.654026 1.537315
-0.024453 -0.639435 -0.011170
-0.344471 -8.966838 2.404429
-0.025219 -0.633402 0.011065
-0.026495 -0.662560 0.034751
-0.026742 -0.662926 0.058046
-0.029907 -0.738185 -0.117013
-0.368250 -9.050488 1.112180
-0.035752 -0.878669 -0.107976
-0.369715 -9.047576 1.434191
-0.026796 -0.652954 -0.057174
-0.372364 -9.035081 1.757733
-0.026099 -0.630594 -0.033076
-0.371739 -8.981850 2.075398
-0.026241 -0.631359 -0.011030
-0.373963 -8.959854 2.402876
-0.027801 -0.639298 0.011170
-0.029039 -0.662454 0.034751
-0.029346 -0.666805 0.058394
-0.032438 -0.734124 -0.116387
-0.279226 -6.294493 0.773627
-0.038419 -0.862660 -0.106026
-0.405158 -9.061876 1.436694
-0.029189 -0.652852 -0.057174
-0.406180 -9.049345 1.760786
-0.028320 -0.628499 -0.032972
-0.405520 -8.964782 2.071799
-0.028574 -0.629256 -0.010995
-0.408276 -8.956424 2.402359
-0.029750 -0.633205 0.011065
-0.031729 -0.670329 0.035170
-0.032430 -0.682620 0.059789
-0.032930 -0.690597 -0.109504
-0.300627 -6.281583 0.772164
-0.040858 -0.850624 -0.104564
-0.292967 -6.077103 0.963636
-0.031756 -0.658716 -0.057697
-0.437671 -9.045911 1.760404
-0.030901 -0.636376 -0.033390
-0.323458 -6.637327 1.534166
-0.031454 -0.643133 -0.011239
-0.439536 -8.954944 2.402359
-0.033170 -0.657063 0.011484
-0.024648 -0.486561 -0.112476
-0.035894 -0.706118 0.037054
-0.032580 -0.638727 0.055954
-0.037966 -0.741771 -0.117639
-0.464890 -9.052002 1.112911
-0.043214 -0.838581 -0.103101
-0.466474 -9.021346 1.430750
-0.034055 -0.658601 -0.057697
-0.468431 -9.028643 1.757351
-0.033122 -0.636264 -0.033390
-0.468096 -8.961732 2.071799
-0.033490 -0.639026 -0.011170
-0.470487 -8.947566 2.400805
-0.034925 -0.646959 0.011309
-0.037058 -0.682057 0.035798
-0.034918 -0.640599 0.056128
-0.039045 -0.714020 -0.113259
-0.496593 -9.052306 1.113155
-0.045923 -0.834461 -0.102614
-0.334732 -6.063075 0.961759
-0.037891 -0.686329 -0.060137
-0.500160 -9.030873 1.758114
-0.035232 -0.634150 -0.033286
-0.498832 -8.950315 2.069550
-0.036167 -0.646891 -0.011309
-0.501394 -8.940084 2.399253
-0.036839 -0.640844 0.011204
-0.039208 -0.677935 0.035588
-0.037385 -0.644451 0.056477
-0.040160 -0.690215 -0.109504
-0.527611 -9.040608 1.111936
-0.047444 -0.810515 -0.099689
-0.356242 -6.067786 0.962698
-0.038769 -0.660336 -0.057871
-0.531220 -9.021234 1.756588
-0.036739 -0.622061 -0.032658
-0.530303 -8.952410 2.070450
-0.037476 -0.630791 -0.011030
-0.532367 -8.934422 2.398217
-0.039684 -0.650692 0.011379
-0.042063 -0.685768 0.036007
-0.040368 -0.656248 0.057523
-0.045731 -0.741333 -0.117639
-0.050273 -0.810345 -0.099689
-0.439854 -7.070032 1.121948
-0.041073 -0.660197 -0.057871
-0.562584 -9.017365 1.756206
-0.038910 -0.621929 -0.032658
-0.561061 -8.942724 2.068650
-0.040180 -0.638640 -0.011170
-0.563917 -8.938293 2.399770
-0.040925 -0.634585 0.011100
-0.044199 -0.681631 0.035798
-0.042529 -0.654115 0.057348
-0.047034 -0.721456 -0.114510
-0.590194 -9.028782 1.110961
-0.053101 -0.810164 -0.099689
-0.592903 -9.021838 1.432001
-0.043378 -0.660049 -0.057871
-0.594315 -9.019263 1.756969
-0.042003 -0.635740 -0.033390
-0.592274 -8.940711 2.068650
-0.040951 -0.616547 -0.010786
-0.595113 -8.936270 2.399770
-0.044904 -0.660374 0.011553
-0.048757 -0.713354 0.037473
-0.044676 -0.651975 0.057174
-0.050364 -0.733112 -0.116387
-0.621435 -9.022706 1.110474
-0.053194 -0.770367 -0.094814
-0.624665 -9.023655 1.432627
-0.045131 -0.651944 -0.057174
-0.626067 -9.021051 1.757733
-0.043529 -0.625627 -0.032867
-0.623886 -8.944423 2.070000
-0.045614 -0.652308 -0.011414
-0.625626 -8.924503 2.397182
-0.046353 -0.648246 0.011344
-0.048384 -0.673338 0.035379
-0.048383 -0.671687 0.058917
-0.052069 -0.721111 -0.114510
-0.653643 -9.030381 1.111692
-0.057319 -0.789975 -0.097252
-0.488071 -6.710407 1.065632
-0.047117 -0.647808 -0.056826
-0.656553 -9.005106 1.755061
-0.046877 -0.641407 -0.033704
-0.656100 -8.955795 2.073149
-0.047890 -0.652144 -0.011414
-0.656209 -8.914558 2.395112
-0.048765 -0.650074 0.011379
-0.052535 -0.697064 0.036635
-0.050427 -0.667541 0.058569
-0.054586 -0.720924 -0.114510
-0.683958 -9.012210 1.109742
-0.058872 -0.773935 -0.095302
-0.686895 -9.009226 1.431063
-0.049984 -0.655586 -0.057523
-0.687384 -8.994928 1.753535
-0.047590 -0.621325 -0.032658
-0.686612 -8.943734 2.070899
-0.049093 -0.638017 -0.011170
-0.688361 -8.925696 2.398735
-0.053069 -0.675816 0.011833
-0.053592 -0.680957 0.035798
-0.053699 -0.679278 0.059615
-0.058038 -0.732545 -0.116387
-0.715099 -9.005809 1.109255
-0.061258 -0.769767 -0.094814
-0.718334 -9.026589 1.434191
-0.052272 -0.655407 -0.057523
-0.718935 -8.994431 1.753916
-0.050875 -0.635091 -0.033390
-0.717516 -8.937398 2.070000
-0.051048 -0.635857 -0.011135
-0.717957 -8.923365 2.398735
-0.053678 -0.655706 0.011484
-0.057933 -0.704652 0.037054
-0.058365 -0.706885 0.062055
-0.061118 -0.740223 -0.117639
-0.745941 -9.015259 1.110717
-0.064138 -0.773517 -0.095302
-0.747713 -8.998436 1.430124
-0.054890 -0.659192 -0.057871
-0.748920 -8.993954 1.754298
-0.053645 -0.642880 -0.033809
-0.747150 -8.934970 2.070000
-0.052266 -0.623719 -0.010925
-0.749423 -8.924654 2.399770
-0.054946 -0.643560 0.011274
-0.062781 -0.732305 0.038519
-0.056957 -0.663016 0.058220
-0.061668 -0.716388 -0.113884
-0.777406 -9.012600 1.110717
-0.066154 -0.765377 -0.094327
-0.779288 -8.997739 1.430437
-0.055873 -0.645112 -0.056651
-0.780480 -8.993239 1.754680
-0.055370 -0.636720 -0.033495
-0.778502 -8.934248 2.070450
-0.057573 -0.659391 -0.011553
-0.780068 -8.916211 2.398217
-0.058255 -0.655316 0.011484
-0.063561 -0.712188 0.037473
-0.058916 -0.658844 0.057871
-0.060995 -0.680753 -0.108253
-0.808506 -9.005877 1.110230
-0.068470 -0.761187 -0.093839
-0.810692 -8.994964 1.430437
-0.059197 -0.656819 -0.057697
-0.812044 -8.992417 1.755061
-0.057772 -0.638512 -0.033600
-0.810212 -8.937299 2.071799
-0.059151 -0.651220 -0.011414
-0.811711 -8.919205 2.399770
-0.060910 -0.659091 0.011553
-0.064202 -0.692075 0.036426
-0.062691 -0.674505 0.059266
-0.065569 -0.704139 -0.112007
-0.840306 -9.006953 1.110717
-0.071865 -0.768850 -0.094814
-0.843006 -9.001913 1.432001
-0.060375 -0.644706 -0.056651
-0.842329 -8.977799 1.752772
-0.058692 -0.624387 -0.032867
-0.841039 -8.930535 2.070899
-0.061612 -0.653000 -0.011449
-0.843023 -8.918241 2.400288
-0.064356 -0.670817 0.011763
-0.075040 -0.779321 0.041031
-0.066575 -0.690148 0.060660
-0.066126 -0.684243 -0.108878
-0.873845 -9.025700 1.113398
-0.072632 -0.748836 -0.092377
-0.666564 -6.859781 1.091600
-0.063974 -0.658372 -0.057871
-0.874041 -8.978712 1.753535
-0.061453 -0.630142 -0.033181
-0.871638 -8.921728 2.069550
-0.064280 -0.656761 -0.011519
-0.874524 -8.919089 2.401323
-0.066895 -0.672579 0.011798
-0.070619 -0.707509 0.037263
-0.069777 -0.697841 0.061358
-0.072058 -0.719388 -0.114510
-0.636398 -6.342283 0.782645
-0.075643 -0.752528 -0.092864
-0.903455 -8.972223 1.428247
-0.066871 -0.664092 -0.058394
-0.905772 -8.979513 1.754298
-0.063050 -0.623962 -0.032867
-0.902187 -8.912813 2.068200
-0.067379 -0.664491 -0.011658
-0.905261 -8.912138 2.400288
-0.070881 -0.688254 0.012077
-0.080479 -0.778778 0.041031
-0.074674 -0.721375 0.063449
-0.069679 -0.671976 -0.107001
-0.934579 -8.997660 1.110717
-0.077858 -0.748310 -0.092377
-0.934564 -8.967050 1.427934
-0.067123 -0.644038 -0.056651
-0.938538 -8.989965 1.756969
-0.066058 -0.631684 -0.033286
-0.934308 -8.919301 2.070450
-0.069072 -0.658285 -0.011553
-0.935558 -8.901239 2.398217
-0.069471 -0.652211 0.011449
-0.968224 -9.059906 0.477513
-0.075283 -0.703280 0.061881
-0.071182 -0.663872 -0.105750
-0.965769 -8.992369 1.110474
-0.081744 -0.759876 -0.093839
-0.966706 -8.971589 1.429186
-0.069584 -0.645781 -0.056826
-0.968016 -8.969068 1.753535
-0.068692 -0.635421 -0.033495
-0.965647 -8.917922 2.070899
-0.072448 -0.667980 -0.011728
-0.967040 -8.901760 2.399253
-0.996148 -9.051967 0.158957
-0.995022 -9.012797 0.475211
-0.075329 -0.681230 0.059963
-0.073934 -0.667546 -0.106375
-0.996058 -8.979077 1.109255
-0.083519 -0.751695 -0.092864
-0.998453 -8.972087 1.429811
-0.072499 -0.651475 -0.057348
-0.998885 -8.961732 1.752772
-0.070023 -0.627237 -0.033076
-0.996121 -8.908689 2.069550
-0.072108 -0.643876 -0.011309
-0.998969 -8.906010 2.401323
-1.026384 -9.036512 0.158747
-1.023311 -8.981487 0.473745
-0.076351 -0.669086 0.058917
-0.077161 -0.675135 -0.107627
-1.027169 -8.973574 1.109011
-0.085238 -0.743510 -0.091889
-1.031793 -8.986209 1.432627
-0.075227 -0.655176 -0.057697
-1.030384 -8.960140 1.753153
-0.072441 -0.628973 -0.033181
-1.026094 -8.895476 2.067300
-0.075044 -0.649580 -0.011414
-1.029829 -8.900548 2.400805
-1.063971 -9.084514 0.159655
-1.067705 -9.088943 0.479607
-0.081480 -0.692560 0.061009
-0.073045 -0.619931 -0.098867
-1.068722 -9.056676 1.119736
-0.088765 -0.751093 -0.092864
-1.065012 -8.998247 1.435130
-0.077279 -0.652931 -0.057523
-1.062348 -8.962337 1.754298
-0.075813 -0.638633 -0.033704
-1.056679 -8.887971 2.066401
-0.077784 -0.653285 -0.011484
-1.060662 -8.894981 2.400288
-1.094716 -9.072803 0.159515
-1.097266 -9.067316 0.478665
-1.100723 -9.082597 0.800438
-0.079016 -0.651048 -0.103873
-1.104641 -9.088361 1.124123
-0.089947 -0.738956 -0.091402
-0.761061 -6.243385 0.996175
-0.078835 -0.646724 -0.057000
-1.106711 -9.065759 1.775287
-0.078284 -0.640347 -0.033809
-1.089119 -8.895834 2.069100
-1.115783 -9.100457 -0.160039
-1.090528 -8.881638 2.397700
-1.131625 -9.085231 0.479816
-1.129954 -9.058928 0.798695
-0.081778 -0.654688 -0.104498
-1.135372 -9.076571 1.123148
-0.091539 -0.730758 -0.090427
-1.138378 -9.074872 1.448583
-0.081092 -0.646445 -0.057000
-1.137370 -9.054049 1.773761
-0.081516 -0.647997 -0.034228
-1.121139 -8.899712 2.070899
-1.147542 -9.096507 -0.160039
-1.123219 -8.891194 2.401323
-1.160057 -9.080808 0.159794
-1.161747 -9.081429 0.479816
-1.167654 -9.102359 0.802879
-0.081042 -0.630887 -0.100744
-1.168569 -9.084366 1.124610
-0.096118 -0.746185 -0.092377
-1.173007 -9.106314 1.454215
-0.081309 -0.630350 -0.055605
-1.169472 -9.053917 1.774524
-0.080703 -0.623939 -0.032972
-1.151697 -8.891879 2.070000
-1.177701 -9.092652 -0.160039
-1.152697 -8.887420 2.401323
-1.189384 -9.070964 0.159690
-1.192918 -9.073359 0.479607
-1.199940 -9.102178 0.803227
-0.080552 -0.611031 -0.097615
-1.200246 -9.092249 1.126073
-0.097551 -0.737990 -0.091402
-0.907738 -6.857955 1.095667
-0.087174 -0.657714 -0.058046
-1.213418 -9.155085 1.795131
-0.085400 -0.643467 -0.034018
-1.179893 -8.878352 2.067750
-1.212071 -9.108308 -0.160388
-1.182947 -8.877597 2.399770
-1.221840 -9.072701 0.159794
-1.225652 -9.077056 0.480025
-1.230651 -9.102097 0.803576
-0.085865 -0.634236 -0.101370
-1.230377 -9.076200 1.124610
-0.097457 -0.717975 -0.088965
-1.238681 -9.113562 1.456718
-0.089354 -0.657421 -0.058046
-1.243250 -9.135231 1.792078
-0.091960 -0.674828 -0.035693
-1.211668 -8.879972 2.069100
-1.241151 -9.084208 -0.160039
-1.214715 -8.879156 2.401323
-1.255966 -9.086210 0.160108
-1.257330 -9.072722 0.480025
-1.260774 -9.085905 0.802530
-0.086991 -0.626106 -0.100118
-1.262051 -9.071851 1.124610
-0.101058 -0.725494 -0.089940
-1.267211 -9.085705 1.452963
-0.089447 -0.641319 -0.056651
-1.271328 -9.103615 1.786736
-0.099294 -0.710108 -0.037577
-1.242117 -8.871828 2.068200
-1.269521 -9.056057 -0.159620
-1.245164 -8.871036 2.400288
-1.286834 -9.075830 0.160004
-1.290398 -9.078164 0.480549
-1.290797 -9.069613 0.801484
-0.085832 -0.602331 -0.096364
-1.293710 -9.067390 1.124610
-0.101344 -0.709416 -0.087990
-1.303953 -9.116425 1.458595
-0.090274 -0.631141 -0.055780
-1.301986 -9.091348 1.785209
-0.100638 -0.701849 -0.037159
-1.274186 -8.875154 2.070000
-1.303118 -9.065426 -0.159864
-1.276947 -8.872371 2.401841
-1.316780 -9.059409 0.159794
-1.322655 -9.077558 0.480758
-1.327049 -9.096598 0.804273
-0.082795 -0.566845 -0.090732
-1.324779 -9.058890 1.124123
-0.099793 -0.681560 -0.084577
-1.334621 -9.103998 1.457344
-0.093633 -0.638707 -0.056477
-1.333142 -9.082863 1.784446
-0.097279 -0.661972 -0.035065
-1.305725 -8.874508 2.070899
-1.334462 -9.058843 -0.159829
-1.308474 -8.871681 2.402876
-0.073611 -0.494905 -0.134068
-1.350753 -9.070581 0.160073
-1.351678 -9.055107 0.479816
-1.355850 -9.072205 0.802530
-0.088865 -0.593903 -0.095112
-1.356391 -9.054211 1.124123
-0.099227 -0.661576 -0.082140
-1.369326 -9.118819 1.460472
-0.097045 -0.646258 -0.057174
-1.369508 -9.109217 1.790552
-0.104941 -0.697179 -0.036949
-1.336405 -8.867970 2.070450
-1.363689 -9.038311 -0.159550
-1.338568 -8.861331 2.401323
-0.073593 -0.483186 -0.130962
-1.380597 -9.053949 0.159864
-1.384788 -9.060205 0.480339
-1.387509 -9.067416 0.802530
-0.093929 -0.613115 -0.098241
-1.389795 -9.061193 1.125585
-0.102741 -0.669074 -0.083115
-1.396945 -9.086651 1.456092
-0.098695 -0.641977 -0.056826
-1.395325 -9.065574 1.782919
-0.104940 -0.681017 -0.036112
-1.365866 -8.853621 2.068200
-1.395841 -9.037449 -0.159620
-1.368901 -8.852785 2.400288
-1.412809 -9.053027 0.159934
-1.415479 -9.049397 0.480025
-1.420385 -9.070392 0.803227
-0.096069 -0.612783 -0.098241
-1.424493 -9.075898 1.128023
-0.106309 -0.676556 -0.084090
-1.431111 -9.097330 1.458595
-0.100935 -0.641628 -0.056826
-4.036540 -25.630461 5.043464
-0.107317 -0.680646 -0.036112
-1.399498 -8.866124 2.072249
-1.429875 -9.048323 -0.159899
-1.399493 -8.846045 2.399770
-1.445033 -9.051990 0.160004
-0.076884 -0.481080 -0.112476
-1.448951 -9.056233 0.480653
-1.451408 -9.061444 0.802879
-0.098207 -0.612444 -0.098241
-1.454277 -9.059111 1.126560
-0.108040 -0.672260 -0.083602
-1.465368 -9.107882 1.461098
-0.105706 -0.657009 -0.058220
-1.466073 -9.102129 1.792078
-0.109692 -0.680267 -0.036112
-1.428884 -8.851565 2.070000
-1.464642 -9.063017 -0.160248
-1.430979 -8.844919 2.400805
-1.474366 -9.033074 0.159759
-1.481201 -9.055062 0.480863
-1.485605 -9.072052 0.804273
-0.094592 -0.577009 -0.092609
-1.483962 -9.042225 1.125098
-0.112317 -0.683632 -0.085065
-1.497152 -9.102711 1.461098
-0.108969 -0.662534 -0.058743
-1.488905 -9.042715 1.781393
-0.113690 -0.689734 -0.036635
-1.460408 -8.850368 2.070899
-1.493661 -9.042066 -0.159969
-1.463421 -8.849401 2.403394
-1.506876 -9.033791 0.159864
-1.510165 -9.034079 0.480025
-1.515949 -9.058949 0.803576
-0.102481 -0.611744 -0.098241
-1.514859 -9.033075 1.124610
-0.110101 -0.655828 -0.081652
-1.524989 -9.074052 1.457344
-0.112272 -0.668044 -0.059266
-1.523066 -9.052952 1.784446
-0.113443 -0.673576 -0.035798
-1.491293 -8.845217 2.070899
-1.529207 -9.060458 -0.160388
-1.494303 -8.844238 2.403394
-1.541088 -9.044247 0.160143
-1.540115 -9.029020 0.480025
-1.546889 -9.049676 0.803227
-0.102616 -0.599700 -0.096364
-1.547723 -9.035558 1.125585
-0.113061 -0.659353 -0.082140
-1.558409 -9.088415 1.460472
-0.114266 -0.665684 -0.059092
-1.555989 -9.055320 1.785972
-0.118841 -0.690891 -0.036740
-1.521828 -8.838037 2.070450
-1.556530 -9.039572 -0.160108
-1.523295 -8.837331 2.402876
-1.572784 -9.048937 0.160318
-1.572307 -9.027525 0.480235
-1.575729 -9.028520 0.801833
-0.105963 -0.607140 -0.097615
-1.578360 -9.034287 1.126073
-0.115930 -0.662885 -0.082627
-1.586036 -9.059570 1.456718
-0.115901 -0.661356 -0.058743
-1.590075 -9.073315 1.790552
-0.116990 -0.666887 -0.035484
-1.552139 -8.838699 2.071799
-1.585307 -9.018328 -0.159829
-1.552125 -8.820544 2.399770
-1.600867 -9.023702 0.159969
-0.089274 -0.502705 -0.117874
-1.605558 -9.031814 0.480758
-1.607754 -9.035014 0.802879
-0.106696 -0.598988 -0.096364
-1.612674 -9.044357 1.128023
-0.121034 -0.678110 -0.084577
-1.616956 -9.050091 1.456092
-0.116692 -0.653123 -0.058046
-1.621737 -9.067710 1.790552
-1.532119 -8.558005 -0.455637
-1.583670 -8.837065 2.072699
-1.630899 -9.091471 -0.161225
-1.582565 -8.813171 2.399253
-1.633423 -9.023962 0.160073
-1.637075 -9.026155 0.480758
-1.640706 -9.037188 0.803576
-0.113731 -0.625821 -0.100744
-1.639971 -9.015236 1.125098
-0.124823 -0.685495 -0.085552
-1.652787 -9.067711 1.459847
-0.119328 -0.654672 -0.058220
-1.654788 -9.069718 1.792078
-1.558754 -8.534923 -0.454695
-1.614158 -8.829566 2.072249
-1.651825 -9.026711 -0.160178
-1.613318 -8.807593 2.399253
-1.664551 -9.016239 0.160039
-1.667846 -9.016457 0.480549
-1.673692 -9.039242 0.804273
-0.110155 -0.594343 -0.095738
-1.672154 -9.013360 1.125585
-0.125765 -0.677249 -0.084577
-1.680819 -9.042465 1.456718
-0.119792 -0.644457 -0.057348
-1.685002 -9.056167 1.790552
-1.591827 -8.547100 -0.455637
-1.644969 -8.823877 2.072249
-1.687727 -9.044479 -0.160597
-1.644761 -8.805706 2.400288
-1.698602 -9.024130 0.160283
-1.699679 -9.012542 0.480653
-1.706712 -9.041176 0.804970
-0.118097 -0.625012 -0.100744
-1.708772 -9.034776 1.128998
-0.128128 -0.676806 -0.084577
-1.716786 -9.059833 1.460472
-0.122412 -0.645993 -0.057523
-1.716603 -9.050230 1.790552
-1.702121 -8.965328 -0.478246
-1.675395 -8.816167 2.071799
-1.722277 -9.054248 -0.160876
-1.676574 -8.805604 2.401841
-1.728963 -9.012254 0.160178
-1.734144 -9.022245 0.481491
-1.739016 -9.039076 0.805319
-0.120278 -0.624596 -0.100744
-1.740298 -9.028756 1.128998
-0.133499 -0.691947 -0.086527
-1.749150 -9.057664 1.461098
-0.125044 -0.647518 -0.057697
-4.915926 -25.432425 5.035068
-1.740234 -8.994629 -0.480130
-1.709124 -8.825571 2.075398
-1.744740 -9.001065 -0.160039
-1.706564 -8.795905 2.400805
-1.758492 -8.996351 0.160004
-1.764859 -9.012218 0.481281
-1.769790 -9.029040 0.804970
-0.117894 -0.600911 -0.096989
-1.775630 -9.042105 1.131435
-0.135913 -0.691477 -0.086527
-1.780757 -9.051503 1.461098
-0.125765 -0.639258 -0.057000
-4.995572 -25.368883 5.025909
-1.774710 -9.004175 -0.480967
-1.740675 -8.823375 2.076298
-1.773824 -8.983150 -0.159829
-1.738006 -8.793685 2.401841
-1.790665 -8.994081 0.160073
-1.793182 -8.990333 0.480444
-1.798176 -9.007177 0.803576
-0.126958 -0.635363 -0.102621
-1.799395 -8.996921 1.126560
-0.137547 -0.687106 -0.086040
-1.803803 -9.002622 1.454215
-0.133867 -0.668118 -0.059615
-1.802016 -8.985559 1.781393
-1.786477 -8.900016 -0.475734
-1.771464 -8.817245 2.076298
-1.788612 -8.894565 -0.158363
-1.769835 -8.793246 2.403394
-1.804569 -8.901543 0.158538
-1.828528 -9.003592 0.481491
-1.829607 -9.000845 0.803576
-0.137839 -0.677502 -0.109504
-1.834749 -9.010037 1.128998
-0.159766 -0.783876 -0.098227
-1.836007 -9.000140 1.454841
-0.133012 -0.652029 -0.058220
-1.830229 -8.963825 1.778340
-1.811934 -8.866329 -0.474268
-1.801058 -8.805281 2.074948
-1.824463 -8.911776 -0.158782
-1.804396 -8.805940 2.408570
-1.833609 -8.885397 0.158363
-1.836899 -8.885667 0.475525
-1.844866 -8.916361 0.796603
-0.134595 -0.649936 -0.105124
-1.856521 -8.956926 1.123148
-0.177824 -0.857175 -0.107489
-1.867412 -8.993676 1.454841
-1.847041 -8.895564 -0.794860
-1.870295 -8.999671 1.786736
-1.846126 -8.875594 -0.475106
-1.833373 -8.806571 2.076748
-1.855559 -8.905353 -0.158782
-1.834335 -8.795805 2.407535
-1.863381 -8.873073 0.158258
-1.867082 -8.875293 0.475315
-1.868591 -8.874773 0.793466
-0.136863 -0.649462 -0.105124
-1.873026 -8.880466 1.114373
-0.179175 -0.848780 -0.106514
-1.874703 -8.873073 1.436381
-1.863254 -8.818885 -0.788585
-1.884639 -8.912416 1.770708
-1.876683 -8.867142 -0.475001
-1.864506 -8.802024 2.077198
-1.890780 -8.918383 -0.159131
-1.864225 -8.785569 2.406500
-1.892671 -8.858691 0.158119
-1.899304 -8.874580 0.475629
-1.900392 -8.872094 0.793815
-0.129192 -0.602625 -0.097615
-1.906513 -8.885519 1.115836
-0.191306 -0.890848 -0.111876
-1.906494 -8.870338 1.437007
-1.831226 -8.520141 -0.762438
-1.903352 -8.848201 1.759259
-1.908885 -8.866396 -0.475315
-1.896450 -8.801178 2.078548
-1.921900 -8.911729 -0.159131
-1.897734 -8.792227 2.410123
-1.925280 -8.859847 0.158258
-1.930272 -8.867895 0.475629
-1.933470 -8.875139 0.794686
-0.130453 -0.598310 -0.096989
-1.935824 -8.871054 1.114861
-0.200345 -0.917326 -0.115288
-1.937446 -8.863630 1.437007
-1.919244 -8.780358 -0.786319
-1.938422 -8.860682 1.763075
-1.941104 -8.865531 -0.475629
-1.927996 -8.798311 2.079448
-1.949568 -8.889340 -0.158852
-1.928828 -8.787436 2.410641
-1.957059 -8.856977 0.158328
-1.958806 -8.857546 0.475420
-1.967024 -8.880007 0.795732
-0.131685 -0.593994 -0.096364
-1.966347 -8.862304 1.114617
-1.966828 -8.857157 1.437007
-1.973655 -8.880577 -0.795906
-1.968487 -8.850029 1.762312
-1.972472 -8.860650 -0.475734
-1.958008 -8.795673 2.080347
-1.974688 -8.863308 -0.158503
-1.958799 -8.784763 2.411676
-1.988607 -8.860195 0.158503
-1.988167 -8.851002 0.475420
-1.996898 -8.875379 0.795906
-0.118032 -0.524178 -0.085100
-1.997907 -8.865417 1.115836
-1.732130 -7.686072 -0.967399
-1.995754 -8.848657 1.436694
-1.723205 -7.634036 -0.684695
-1.999554 -8.851112 1.763838
-1.986305 -8.785331 2.079448
-2.004510 -8.858661 -0.158538
-1.990478 -8.789525 2.414782
-2.017978 -8.853552 0.158503
-2.024385 -8.867373 0.476676
-2.025875 -8.866766 0.795732
-2.028624 -8.864548 1.116567
-1.742996 -7.610320 -0.958624
-2.025746 -8.837786 1.436069
-1.744495 -7.604671 -0.682604
-2.029333 -8.846347 1.764220
-1.756794 -7.652152 -0.411465
-2.019141 -8.787840 2.081697
-2.031836 -8.836020 -0.158258
-2.018982 -8.773109 2.412194
-2.047518 -8.840609 0.158398
-2.055777 -8.862199 0.476781
-2.058358 -8.859282 0.795732
-0.121689 -0.523341 -0.085100
-2.059555 -8.857413 1.116567
-1.768650 -7.600322 -0.958137
-2.061512 -8.851824 1.439510
-1.768769 -7.588833 -0.681732
-2.061297 -8.836937 1.763838
-1.782105 -7.633991 -0.410837
-2.052223 -8.784176 2.082597
-2.064031 -8.834715 -0.158363
-2.049153 -8.764128 2.411676
-2.081740 -8.840831 0.158538
-2.086869 -8.848772 0.476467
-2.091560 -8.861738 0.796603
-0.162568 -0.688246 -0.112007
-2.089721 -8.840146 1.115348
-1.813861 -7.667196 -0.967399
-2.093487 -8.842287 1.439197
-1.801216 -7.607817 -0.683998
-2.090773 -8.823958 1.762694
-1.806898 -7.619951 -0.410419
-2.084224 -8.782647 2.083947
-2.096861 -8.829036 -0.158398
-2.086175 -8.777232 2.417370
-2.113982 -8.839345 0.158642
-2.116350 -8.835608 0.476153
-2.124338 -8.862134 0.797301
-2.122884 -8.842448 1.116567
-2.127111 -8.846450 1.441074
-0.172342 -0.716756 -0.064495
-2.124319 -8.828057 1.764983
-1.838161 -7.633015 -0.411465
-2.113042 -8.767740 2.082147
-2.130948 -8.835270 -0.158642
-2.117254 -8.771773 2.417887
-2.145767 -8.835799 0.158712
-2.146109 -8.830482 0.476257
-2.156673 -8.860472 0.797824
-2.156557 -8.846557 1.118029
-2.153626 -8.827832 1.439197
-2.155586 -8.822496 1.765365
-1.865743 -7.630431 -0.411675
-2.145950 -8.769775 2.084397
-2.159285 -8.824270 -0.158573
-2.147249 -8.768458 2.418923
-2.176491 -8.834459 0.158817
-2.183140 -8.848145 0.477618
-2.182810 -8.833548 0.796081
-2.185405 -8.837429 1.117786
-2.186327 -8.827931 1.440449
-2.088802 -8.427841 -0.759649
-2.186720 -8.822922 1.766891
-1.906423 -7.686235 -0.415024
-2.175489 -8.764503 2.084846
-2.189591 -8.814738 -0.158538
-2.176446 -8.755285 2.417370
-2.205377 -8.819047 0.158677
-2.214497 -8.842407 0.477723
-2.214513 -8.835923 0.796952
-2.181754 -8.698779 -1.420425
-2.217690 -8.835522 1.118517
-0.280971 -1.118591 -0.141612
-2.219055 -8.827909 1.441700
-2.118694 -8.422431 -0.759824
-2.217026 -8.813332 1.766510
-2.129246 -8.458139 -0.457102
-2.207974 -8.764413 2.086646
-2.223770 -8.820615 -0.158782
-2.208412 -8.753254 2.418923
-2.240082 -8.826803 0.158957
-2.248301 -8.846238 0.478351
-2.249341 -8.837401 0.797824
-1.806004 -7.090405 -1.158867
-2.248029 -8.825804 1.118273
-0.273106 -1.071437 -0.135762
-2.251322 -8.825850 1.442639
-2.147588 -8.413054 -0.759649
-2.249799 -8.807049 1.766891
-2.242348 -8.771494 -0.474478
-2.242014 -8.763814 2.088446
-2.254546 -8.812799 -0.158782
-2.240392 -8.751105 2.420476
-2.273916 -8.824343 0.159061
-2.276718 -8.822467 0.477513
-2.281171 -8.833354 0.798172
-1.841616 -7.126134 -1.165750
-2.282847 -8.827115 1.119492
-0.299910 -1.158831 -0.146974
-2.284645 -8.821364 1.443265
-2.274349 -8.781613 -0.793640
-2.282499 -8.806743 1.768418
-2.284486 -8.808079 -0.476885
-2.269654 -8.744617 2.085746
-2.290350 -8.818025 -0.159026
-2.271478 -8.739097 2.419441
-2.304704 -8.816352 0.159061
-2.308511 -8.818330 0.477723
-2.314516 -8.834975 0.799044
-1.866480 -7.119662 -1.165750
-2.313645 -8.819093 1.119492
-0.277741 -1.057935 -0.134300
-2.313416 -8.805694 1.442013
-2.318659 -8.825648 -0.798347
-2.315222 -8.806317 1.769944
-2.317758 -8.809709 -0.477409
-2.304631 -8.753602 2.089795
-2.321626 -8.811911 -0.159061
-2.303447 -8.736717 2.420993
-2.335978 -8.810184 0.159096
-2.339278 -8.816418 0.478037
-2.343295 -8.819139 0.798347
-1.890306 -7.109285 -1.165124
-2.349008 -8.828228 1.121686
-0.315143 -1.183564 -0.150387
-2.345145 -8.807518 1.443577
-2.349452 -8.817502 -0.798347
-2.347466 -8.803872 1.771089
-2.351070 -8.811213 -0.477932
-2.335675 -8.747387 2.090245
-2.348255 -8.794502 -0.158887
-2.331409 -8.725299 2.419958
-2.367257 -8.810115 0.159236
-2.372633 -8.817842 0.478560
-2.371991 -8.803211 0.797649
-1.908731 -7.083905 -1.161995
-2.376721 -8.814640 1.120954
-0.293210 -1.086685 -0.138200
-2.377935 -8.806906 1.444829
-2.381774 -8.815018 -0.798869
-2.374086 -8.786564 1.769181
-2.382883 -8.813007 -0.478455
-2.368741 -8.754642 2.093844
-2.384166 -8.805554 -0.159236
-2.359831 -8.709648 2.417887
-2.396418 -8.796009 0.159131
-2.403437 -8.815706 0.478874
-2.406419 -8.814518 0.799393
-1.942817 -7.111498 -1.167627
-2.406430 -8.802459 1.120467
-0.292811 -1.070337 -0.136250
-2.410253 -8.810405 1.446706
-2.412572 -8.812837 -0.799393
-2.406819 -8.785797 1.770708
-2.410991 -8.795006 -0.477932
-2.399287 -8.746320 2.093844
-2.412296 -8.793743 -0.159166
-2.392280 -8.714817 2.421511
-2.427702 -8.795726 0.159271
-2.432067 -8.799562 0.478455
-2.439830 -8.815665 0.800264
-1.973766 -7.131670 -1.172007
-2.436135 -8.796344 1.120710
-2.441382 -8.809310 -1.122417
-2.442049 -8.805746 1.447332
-2.444385 -8.808201 -0.799741
-2.440140 -8.792902 1.773761
-2.440678 -8.788888 -0.478037
-2.426712 -8.732681 2.092495
-2.448334 -8.804534 -0.159515
-2.426828 -8.721302 2.425652
-2.464316 -8.808381 0.159655
-2.464384 -8.796789 0.478769
-2.469587 -8.809443 0.800438
-1.986910 -7.082893 -1.165124
-2.469508 -8.797342 1.121929
-2.474264 -8.808379 -1.123392
-2.469564 -8.785757 1.445455
-2.478354 -8.811122 -0.800787
-2.468628 -8.770669 1.771089
-2.475582 -8.789495 -0.478560
-2.457708 -8.726035 2.092945
-2.475797 -8.784386 -0.159306
-2.458306 -8.716496 2.426687
-2.496038 -8.797365 0.159620
-2.499339 -8.797302 0.479293
-2.502404 -8.802250 0.800613
-2.480938 -8.720956 -1.436069
-2.503910 -8.795870 1.122904
-2.506531 -8.799252 -1.123392
-2.502291 -8.778546 1.445768
-2.529212 -8.867121 -0.806714
-2.510995 -8.797432 1.778340
-2.508877 -8.784204 -0.478769
-2.490744 -8.720716 2.093844
-2.511274 -8.786789 -0.159515
-2.491299 -8.711142 2.427723
-2.526607 -8.782393 0.159515
-2.532242 -8.796204 0.479711
-2.534649 -8.793019 0.800613
-2.506315 -8.689028 -1.432314
-2.539435 -8.798077 1.124367
-2.580722 -8.941119 -1.142647
-2.536208 -8.781145 1.447645
-2.549638 -8.821872 -0.803402
-2.534598 -8.764096 1.773379
-2.542856 -8.786903 -0.479397
-2.524963 -8.725072 2.096994
-2.541930 -8.777969 -0.159515
-2.527068 -8.720948 2.432899
-2.560750 -8.791245 0.159829
-2.563633 -8.795427 0.480130
-2.564353 -8.786478 0.800787
-2.539546 -8.695839 -1.434817
-2.564699 -8.776270 1.122661
-2.619267 -8.962998 -1.146547
-2.569193 -8.785958 1.449835
-2.581117 -8.821018 -0.804099
-2.562544 -8.751875 1.772616
-2.571418 -8.776505 -0.479293
-2.557168 -8.727871 2.099693
-2.573838 -8.779087 -0.159690
-2.558694 -8.721789 2.435488
-2.589323 -8.780787 0.159794
-2.591654 -8.783046 0.479921
-2.596863 -8.789391 0.801833
-2.569489 -8.691158 -1.435443
-2.595477 -8.773427 1.123392
-2.652916 -8.967588 -1.148253
-2.599997 -8.783072 1.450773
-2.612617 -8.820050 -0.804796
-2.597131 -8.762152 1.776432
-2.601076 -8.769846 -0.479397
-2.584990 -8.715608 2.098794
-2.603506 -8.772421 -0.159724
-2.587603 -8.713256 2.435488
-2.621286 -8.781733 0.159969
-2.620766 -8.774404 0.479921
-2.629991 -8.794092 0.803053
-2.601693 -8.693944 -1.437320
-2.627973 -8.776182 1.124854
-2.687764 -8.975857 -1.150447
-2.630243 -8.778187 1.451399
-2.644140 -8.818973 -0.805493
-2.629558 -8.764774 1.778722
-2.633590 -8.772649 -0.480025
-2.613878 -8.706987 2.098794
-2.633157 -8.765654 -0.159759
-2.619262 -8.713877 2.438075
-2.658836 -8.778795 0.160108
-2.660024 -8.777192 0.480653
-2.661222 -8.770119 0.801833
-2.640016 -8.694771 -1.439197
-2.665489 -8.773160 1.125829
-2.713386 -8.930807 -1.146059
-2.665458 -8.767558 1.451399
-2.668504 -8.772071 -0.802181
-2.668723 -8.767295 1.781393
-2.670529 -8.767738 -0.480339
-2.654485 -8.715066 2.103292
-2.668906 -8.756926 -0.159794
-2.650276 -8.690357 2.434452
-2.689105 -8.773753 0.160178
-2.692043 -8.777871 0.481177
-2.692044 -8.766959 0.802356
-2.661872 -8.663310 -1.435443
-2.694567 -8.764273 1.125829
-2.742403 -8.919863 -1.145816
-2.694518 -8.758671 1.451399
-2.697579 -8.763173 -0.802181
-2.695469 -8.750892 1.779866
-2.701942 -8.766469 -0.480758
-2.684519 -8.709940 2.104192
-2.702646 -8.763314 -0.160073
-2.683066 -8.694443 2.438075
-2.717000 -8.760968 0.160108
-2.722075 -8.766513 0.481072
-2.723466 -8.765594 0.803053
-2.705833 -8.703479 -1.443577
-2.726564 -8.764766 1.127048
-2.787093 -8.953830 -1.151422
-2.729188 -8.762413 1.453589
-2.730522 -8.761312 -0.802879
-2.729147 -8.756900 1.782919
-2.728621 -8.749834 -0.480339
-2.716068 -8.704237 2.105092
-2.736198 -8.763371 -0.160248
-2.718586 -8.701620 2.442734
-2.751160 -8.762878 0.160318
-2.754455 -8.762674 0.481386
-2.757370 -8.761255 0.803576
-2.724660 -8.652051 -1.436694
-2.758930 -8.760876 1.127779
-2.812365 -8.925113 -1.148984
-2.761540 -8.758485 1.454528
-2.762286 -8.755527 -0.803227
-2.760042 -8.743093 1.782156
-2.764883 -8.753106 -0.481072
-2.746778 -8.690507 2.104192
-2.770991 -8.767114 -0.160492
-2.750108 -8.695762 2.443769
-2.788712 -8.769886 0.160632
-2.787159 -8.754423 0.481491
-2.791564 -8.762966 0.804622
-2.771644 -8.695186 -1.445455
-2.793435 -8.758269 1.128754
-2.851092 -8.933657 -1.151422
-2.791820 -8.742660 1.453589
-2.819501 -8.829343 -0.810897
-2.794130 -8.744627 1.784446
-2.797853 -8.751011 -0.481491
-2.781847 -8.695715 2.107791
-2.799447 -8.745471 -0.160283
-2.783729 -8.691143 2.445323
-2.821145 -8.765809 0.160737
-2.821377 -8.756046 0.482119
-2.819690 -8.745584 0.803925
-2.770441 -8.587700 -1.429186
-2.825210 -8.752244 1.129241
-2.789519 -8.636520 -1.114373
-2.825965 -8.744140 1.455467
-2.827020 -8.747405 -0.804273
-2.827054 -8.742292 1.785972
-2.832072 -8.752593 -0.482119
-2.810982 -8.682243 2.106892
-2.833039 -8.745158 -0.160457
-2.808093 -8.662995 2.440146
-2.848630 -8.746402 0.160562
-2.854400 -8.753739 0.482538
-2.852673 -8.743264 0.804622
-2.762391 -8.461551 -1.409788
-2.858210 -8.749875 1.130216
-2.749960 -8.413515 -1.086831
-2.858927 -8.741731 1.456718
-2.857538 -8.737483 -0.804273
-2.855110 -8.724908 1.784446
-2.864471 -8.748348 -0.482433
-2.841880 -8.674230 2.107341
-2.864793 -8.739017 -0.160527
-2.843131 -8.667826 2.444287
-2.879143 -8.736405 0.160562
-2.889319 -8.757000 0.483270
-2.890045 -8.754066 0.806539
-2.840240 -8.598160 -1.434191
-2.889358 -8.741730 1.130460
-2.924542 -8.842999 -1.143622
-2.892526 -8.741076 1.458282
-2.890523 -8.735022 -0.804970
-2.889251 -8.726071 1.786736
-2.895619 -8.740191 -0.482538
-2.875819 -8.675355 2.110041
-2.902835 -8.751739 -0.160946
-2.875806 -8.665183 2.446358
-2.917845 -8.750963 0.161016
-2.916447 -8.741687 0.482956
-2.925005 -8.757153 0.807759
-2.901543 -8.681870 -1.449835
-2.919226 -8.729709 1.130216
-2.984997 -8.921216 -1.155078
-2.924005 -8.738930 1.459534
-2.935544 -8.768333 -0.808980
-2.925306 -8.732686 1.790170
-2.926111 -8.730030 -0.482538
-2.907325 -8.668961 2.110941
-2.933114 -8.745857 -0.161016
-2.905138 -8.657430 2.446875
-2.947487 -8.743133 0.161051
-2.948858 -8.737130 0.483270
-2.953641 -8.741225 0.807236
-2.951817 -8.735828 -1.460472
-2.957060 -8.746307 1.133629
-3.017744 -8.920670 -1.156296
-2.954491 -8.728669 1.459534
-2.984668 -8.812757 -0.814035
-2.957397 -8.732234 1.792078
-2.960173 -8.735412 -0.483375
-2.936055 -8.659271 2.110941
-2.963625 -8.735565 -0.161016
-2.936583 -8.650895 2.447911
-2.981859 -8.744148 0.161260
-2.981921 -8.734344 0.483689
-2.982611 -8.731382 0.807236
-0.365440 -1.069188 -0.178961
-2.986286 -8.732176 1.133141
-3.050150 -8.913837 -1.156784
-2.986221 -8.722040 1.460160
-3.011538 -8.790977 -0.812989
-2.992950 -8.736716 1.795131
-2.989999 -8.723137 -0.483270
-2.970058 -8.660029 2.113640
-2.995397 -8.728950 -0.161086
-2.968018 -8.644247 2.448946
-3.009756 -8.726125 0.161121
-3.016302 -8.735209 0.484317
-3.011990 -8.712860 0.806539
-0.342235 -0.989434 -0.165821
-3.020642 -8.732955 1.134604
-3.087739 -8.921895 -1.159221
-3.020527 -8.722763 1.462037
-2.965890 -8.560149 -0.792594
-3.023022 -8.720124 1.793986
-3.029151 -8.732877 -0.484422
-3.009446 -8.671177 2.119039
-3.029127 -8.727885 -0.161260
-3.000707 -8.641133 2.451016
-3.045014 -8.724474 0.161295
-3.046777 -8.724627 0.484317
-3.053563 -8.734266 0.809502
-3.050008 -8.714330 1.133629
-3.113857 -8.891784 -1.156784
-3.054221 -8.721489 1.463601
-3.024742 -8.632476 -0.800264
-3.053443 -8.709518 1.793986
-3.057631 -8.716595 -0.484108
-3.039049 -8.658781 2.118589
-3.061561 -8.722920 -0.161365
-3.037254 -8.648833 2.456193
-3.077920 -8.725643 0.161505
-3.077877 -8.715822 0.484422
-3.086690 -8.731069 0.810200
-3.081536 -8.711655 1.134604
-3.087692 -8.724216 -1.136310
-3.089922 -8.725670 1.466104
-3.161985 -8.924223 -0.828328
-3.088208 -8.716000 1.797421
-3.087855 -8.710173 -0.484317
-3.067095 -8.646819 2.118139
-3.097342 -8.727256 -0.161644
-3.073243 -8.654563 2.460852
-3.110375 -8.720496 0.161609
-3.110968 -8.712549 0.484840
-3.118307 -8.728290 0.810897
-3.116606 -8.713928 1.136310
-3.118363 -8.709251 1.465165
-3.121264 -8.712560 1.798947
-3.124307 -8.716262 -0.485259
-3.103838 -8.654404 2.122638
-3.127111 -8.714508 -0.161609
-3.108004 -8.656509 2.464475
-3.144866 -8.720873 0.161819
-3.146788 -8.716665 0.485678
-3.150786 -8.722973 0.811420
-0.384044 -1.062648 -0.178961
-3.151730 -8.716064 1.138016
-3.149416 -8.700171 1.465478
-2.716742 -7.504921 -0.698292
-3.154999 -8.710841 1.800855
-2.725328 -7.520435 -0.419211
-3.134029 -8.643517 2.122638
-3.157511 -8.703540 -0.161609
-3.134906 -8.636528 2.461887
-3.173919 -8.706085 0.161749
-3.178414 -8.713687 0.486096
-3.180532 -8.710051 0.811246
-0.387751 -1.061300 -0.178961
-3.182135 -8.705009 1.138016
