# This PCD file was generated using the MATLAB® pcwrite function
# from Computer Vision Toolbox®.
# .PCD v.7 - Point Cloud Data file format
VERSION .7
FIELDS x y z
SIZE 4 4 4
TYPE F F F
COUNT 1 1 1
WIDTH 1711
HEIGHT 1
VIEWPOINT 0 0 0 1 0 0 0
POINTS 1711
DATA ascii
-0.627172 7.661201 -0.134174
-0.627097 7.676723 2.063823
-0.472446 5.884805 -1.581902
-0.547123 6.829892 -1.581856
-1.959435 24.514067 1.288825
-0.614817 7.708781 -1.503193
-0.632537 7.948414 0.697595
-0.607704 7.636369 -1.213306
-0.628520 7.915454 0.974955
-0.616007 7.775064 -0.957649
-0.606041 7.666224 1.217999
-0.603171 7.646948 -0.671099
-0.607473 7.701485 1.501667
-0.602210 7.651805 -0.402254
-0.602300 7.670014 1.776214
-0.600583 7.665338 -0.134209
-0.601048 7.688494 2.066411
-0.453078 5.888265 -1.582420
-0.522385 6.820101 -1.579156
-1.872325 24.500841 1.287779
-0.588949 7.706862 -1.502430
-1.411981 18.519306 1.624932
-0.581642 7.646322 -1.214557
-0.601936 7.931456 0.976661
-0.590064 7.793002 -0.959599
-0.579573 7.672233 1.218625
-0.578261 7.654866 -0.671622
-0.580879 7.707475 1.502430
-0.575199 7.649878 -0.402045
-0.575084 7.666240 1.774864
-0.573671 7.665393 -0.134174
-0.574352 7.692472 2.066929
-0.432523 5.889811 -1.582420
-0.498147 6.816052 -1.577807
-1.786226 24.499262 1.287360
-0.561478 7.701038 -1.500904
-1.351081 18.575787 1.629464
-0.554374 7.640426 -1.213306
-0.574395 7.935489 0.976905
-0.557137 7.715816 -0.949850
-0.551651 7.658447 1.216122
-0.550819 7.646903 -0.670751
-0.553976 7.709455 1.502430
-0.548205 7.647855 -0.401836
-0.548318 7.668201 1.774864
-0.546062 7.655381 -0.133965
-0.547357 7.692502 2.066411
-0.410612 5.872013 -1.577243
-0.475029 6.827470 -1.580056
-1.701520 24.517302 1.287988
-0.534591 7.702951 -1.500904
-1.284300 18.552565 1.627023
-0.528246 7.650197 -1.214557
-0.546689 7.937447 0.976905
-0.534416 7.779108 -0.957406
-0.525051 7.662297 1.216435
-0.522518 7.644894 -0.670402
-0.527194 7.713301 1.502812
-0.522454 7.663671 -0.402568
-0.521549 7.670068 1.774864
-0.519470 7.659235 -0.134000
-0.519848 7.684730 2.063823
-0.388577 5.865768 -1.575173
-0.451192 6.829087 -1.580056
-1.614882 24.507147 1.287151
-0.506485 7.706818 -1.501285
-1.217339 18.573050 1.628418
-0.498659 7.628428 -1.210803
-0.519499 7.947229 0.977880
-0.508555 7.800734 -0.959843
-0.498556 7.668025 1.217060
-0.496085 7.650649 -0.670751
-0.498034 7.701467 1.500140
-0.493721 7.655568 -0.402045
-0.493307 7.669984 1.774414
-0.492729 7.661002 -0.134000
-0.493025 7.686497 2.063823
-0.368219 5.869017 -1.575690
-0.424704 6.807355 -1.574657
-1.529942 24.522602 1.287674
-0.479944 7.714417 -1.502430
-1.154733 18.612980 1.631556
-0.472758 7.641951 -1.212680
-0.489387 7.933229 0.975930
-0.479962 7.802546 -0.959843
-0.471671 7.667747 1.216747
-0.469256 7.650344 -0.670576
-0.471146 7.703158 1.500140
-0.466632 7.651264 -0.401731
-0.466650 7.673604 1.774864
-0.465986 7.662675 -0.134000
-0.466657 7.695885 2.065894
-0.347503 5.866409 -1.574655
-0.402015 6.806780 -1.574207
-1.443622 24.515831 1.287046
-0.452784 7.712126 -1.501667
-1.091613 18.648724 1.634344
-0.447646 7.647421 -1.213306
-0.463191 7.936790 0.976174
-0.453622 7.796167 -0.958868
-0.445358 7.677235 1.217999
-0.443122 7.661881 -0.671448
-0.445597 7.704679 1.500140
-0.441488 7.656757 -0.401940
-0.441091 7.673164 1.774414
-0.439691 7.672241 -0.134139
-0.439792 7.697466 2.065894
-0.328156 5.869459 -1.575173
-0.377818 6.800359 -1.572408
-1.357502 24.510748 1.286523
-0.426991 7.709664 -1.500904
-1.030419 18.664175 1.635390
-0.420729 7.644992 -1.212680
-0.435485 7.938359 0.976174
-0.425753 7.785811 -0.957406
-0.417909 7.666908 1.216122
-0.417605 7.661319 -0.671273
-0.418915 7.710107 1.500904
-0.414109 7.646286 -0.401312
-0.414092 7.670765 1.773514
-0.412371 7.663745 -0.133965
-0.412918 7.698955 2.065894
-0.306957 5.857064 -1.571549
-0.354079 6.801637 -1.572408
-1.271928 24.515339 1.286523
-0.399872 7.707187 -1.500140
-0.967110 18.703476 1.638528
-0.393839 7.642468 -1.212054
-0.407570 7.935866 0.975686
-0.398165 7.779320 -0.956431
-0.390844 7.662402 1.215183
-0.390556 7.656761 -0.670751
-0.392000 7.711523 1.500904
-0.388323 7.665637 -0.402254
-0.387315 7.672163 1.773514
-0.385318 7.659146 -0.133860
-0.385653 7.692632 2.063823
-0.286605 5.860029 -1.572067
-0.329955 6.795045 -1.570608
-1.190522 24.517427 1.286418
-0.373157 7.712457 -1.500904
-0.603068 12.509632 1.095722
-0.366968 7.639851 -1.211429
-0.380248 7.945171 0.976661
-0.366377 7.683503 -0.944488
-0.365713 7.669575 1.216122
-0.366472 7.713801 -0.675631
-0.364242 7.695195 1.497469
-0.361564 7.666946 -0.402254
-0.360895 7.681255 1.775314
-0.360102 7.664377 -0.133930
-0.359962 7.690009 2.062788
-0.265533 5.847485 -1.568444
-0.306717 6.780529 -1.567009
-1.104848 24.519438 1.286313
-0.345880 7.705868 -1.499377
-0.560291 12.531566 1.097465
-0.341456 7.637079 -1.210803
-0.352836 7.922591 0.973736
-0.347143 7.825479 -0.961793
-0.339289 7.678699 1.217373
-0.336392 7.643377 -0.669356
-0.338896 7.700283 1.498232
-0.335614 7.656131 -0.401626
-0.335083 7.674623 1.773514
-0.333174 7.661592 -0.133860
-0.333369 7.697009 2.064341
-0.246221 5.850264 -1.568961
-0.283211 6.785452 -1.567909
-1.022871 24.507002 1.285476
-0.320485 7.710896 -1.500140
-0.518563 12.529372 1.097116
-0.315123 7.646119 -1.212054
-0.325096 7.921791 0.973492
-0.319417 7.816726 -0.960574
-0.313741 7.677808 1.217060
-0.311288 7.650423 -0.669879
-0.312172 7.705342 1.498996
-0.308885 7.657256 -0.401626
-0.308058 7.669903 1.772164
-0.307928 7.666650 -0.133930
-0.308381 7.711584 2.067964
-0.225799 5.851087 -1.568961
-0.416101 10.782331 0.188346
-0.260631 6.784407 -1.567459
-0.937313 24.510422 1.285476
-0.293121 7.700197 -1.497851
-0.497459 13.128395 1.149410
-0.289764 7.647121 -1.212054
-0.299424 7.938695 0.975442
-0.293496 7.817742 -0.960574
-0.286424 7.665039 1.214870
-0.284653 7.653453 -0.670053
-0.286547 7.704373 1.498614
-0.283493 7.658238 -0.401626
-0.282477 7.666988 1.771265
-0.280796 7.657687 -0.133755
-0.281321 7.708752 2.066929
-0.204901 5.838325 -1.565338
-0.376855 10.791778 0.188486
-0.235359 6.773631 -1.564759
-0.636039 18.397745 0.964761
-0.266377 7.705097 -1.498614
-0.511487 14.870371 1.301758
-0.261867 7.652081 -1.212680
-0.270530 7.945691 0.976174
-0.263360 7.775118 -0.955212
-0.258193 7.662089 1.214244
-0.257666 7.646436 -0.669356
-0.258243 7.703410 1.498232
-0.255420 7.659225 -0.401626
-0.254695 7.677711 1.773514
-0.252663 7.656666 -0.133720
-0.252683 7.698147 2.063823
-0.184518 5.839005 -1.565338
-1.296458 41.253349 0.720435
-0.211711 6.774411 -1.564759
-0.573051 18.439779 0.966855
-0.239600 7.709904 -1.499377
-0.234913 7.645051 -1.211429
-0.242487 7.936666 0.974955
-0.237128 7.805752 -0.958868
-0.231626 7.668867 1.215183
-0.230975 7.647289 -0.669356
-0.231350 7.704264 1.498232
-0.228860 7.666060 -0.401940
-0.227779 7.674657 1.772614
-0.225815 7.653503 -0.133651
-0.226035 7.706706 2.065894
-0.164082 5.837682 -1.564820
-1.146632 41.049736 0.716805
-0.187736 6.763421 -1.562060
-0.212796 7.714619 -1.500140
-0.517608 18.884747 1.652821
-0.208224 7.645824 -1.211429
-0.214515 7.927542 0.973736
-0.209610 7.796611 -0.957649
-0.205064 7.677527 1.216435
-0.204543 7.658007 -0.670228
-0.204249 7.697174 1.496706
-0.201472 7.642853 -0.400684
-0.201037 7.677353 1.773064
-0.199515 7.670237 -0.133930
-0.199087 7.705517 2.065376
-0.143607 5.834357 -1.563785
-1.003226 41.049488 0.716735
-0.163895 6.754294 -1.559811
-0.589951 24.489277 1.283801
-0.185911 7.717278 -1.500522
-0.453775 18.974075 1.660491
-0.181445 7.642555 -1.210803
-0.186886 7.930227 0.973980
-0.182531 7.803249 -0.958381
-0.178223 7.676221 1.216122
-0.177492 7.644732 -0.669007
-0.177422 7.699803 1.497087
-0.175201 7.661480 -0.401626
-0.174110 7.672164 1.771715
-0.172738 7.670887 -0.133930
-0.172230 7.708097 2.065894
-0.123035 5.825165 -1.561196
-0.859227 41.018753 0.716142
-0.140437 6.760670 -1.561160
-0.509199 24.513065 1.284953
-0.158848 7.711990 -1.499377
-0.387952 18.995464 1.662234
-0.154924 7.651041 -1.212054
-0.159281 7.934801 0.974467
-0.155254 7.801854 -0.958137
-0.152450 7.660970 1.213619
-0.154929 7.854464 -0.687310
-0.150504 7.698413 1.496706
-0.148342 7.656054 -0.401312
-0.147288 7.670776 1.771265
-0.147147 7.663421 -0.133790
-0.146702 7.710556 2.066411
-0.102602 5.819765 -1.559644
-0.723877 41.059364 0.716805
-0.117879 6.753305 -1.559361
-0.423600 24.512695 1.284848
-0.131865 7.708572 -1.498614
-0.322582 19.052481 1.667115
-0.129416 7.643613 -1.210803
-0.133035 7.939255 0.974955
-0.128231 7.732857 -0.949606
-0.125705 7.661455 1.213619
-0.124340 7.659729 -0.670228
-0.125103 7.706722 1.498232
-0.123083 7.664492 -0.401731
-0.121972 7.679017 1.773064
-0.120394 7.663888 -0.133790
-0.119642 7.701364 2.063823
-0.083329 5.822005 -1.560161
-0.581160 41.105633 0.717573
-0.094251 6.749778 -1.558461
-0.338081 24.518019 1.285057
-0.106354 7.712893 -1.499377
-0.259675 19.073370 1.668858
-0.102682 7.640068 -1.210177
-0.105402 7.945626 0.975686
-0.100949 7.711423 -0.946925
-0.099116 7.673699 1.215496
-0.098760 7.646154 -0.669007
-0.098002 7.691406 1.495179
-0.096326 7.664875 -0.401731
-0.095140 7.677447 1.772614
-0.093643 7.664261 -0.133790
-0.092780 7.703666 2.064341
-0.063004 5.822260 -1.560161
-0.437168 41.059418 0.716735
-0.070548 6.736425 -1.555312
-0.252571 24.527039 1.285476
-0.079468 7.717144 -1.500140
-0.193422 19.106035 1.671647
-0.075975 7.636429 -1.209551
-0.077431 7.922125 0.972761
-0.074737 7.785174 -0.955943
-0.072331 7.673998 1.215496
-0.072109 7.650436 -0.669356
-0.071151 7.691702 1.495179
-0.069536 7.661170 -0.401522
-0.068380 7.681629 1.773514
-0.066939 7.670540 -0.133895
-0.065890 7.703943 2.064341
-0.042639 5.816649 -1.558608
-0.047059 6.740528 -1.556211
-0.171184 24.519753 1.285057
-0.052505 7.713448 -1.499377
-0.127040 19.154411 1.675831
-0.049380 7.646524 -1.211116
-0.049791 7.924332 0.973005
-0.047159 7.719880 -0.947900
-0.046917 7.680122 1.216435
-0.045460 7.660604 -0.670228
-0.044304 7.691904 1.495179
-0.042768 7.657372 -0.401312
-0.041501 7.670129 1.770815
-0.041504 7.670720 -0.133895
-0.040381 7.711846 2.066411
-0.022351 5.820627 -1.559644
-0.024690 6.736750 -1.555312
-0.085598 24.520201 1.285057
-0.025555 7.705731 -1.497851
-0.060310 19.198570 1.679665
-0.024027 7.648622 -1.211429
-0.023538 7.932395 0.973980
-0.021672 7.759696 -0.952775
-0.020069 7.666411 1.214244
-0.018692 7.648761 -0.669182
-0.018812 7.697898 1.496324
-0.017360 7.651480 -0.400998
-0.016076 7.676070 1.772164
-0.014718 7.664819 -0.133790
-0.013459 7.711940 2.066411
-0.003037 5.801351 -1.554467
-0.001176 6.736795 -1.555312
0.000000 24.518354 1.284953
0.000000 7.709700 -1.498614
0.003344 19.214603 1.681060
0.002673 7.656560 -1.212680
0.004155 7.936399 0.974467
0.005409 7.747814 -0.951312
0.006685 7.660509 1.213306
0.006706 7.684643 -0.672319
0.008057 7.693990 1.495561
0.009370 7.669469 -0.401940
0.010720 7.678030 1.772614
0.012020 7.652825 -0.133581
0.013446 7.704213 2.064341
0.017229 5.807120 -1.556020
0.022326 6.732861 -1.554412
0.085601 24.524195 1.285267
0.026924 7.713580 -1.499377
0.070640 19.274248 1.686289
0.029340 7.640701 -1.210177
0.031865 7.938320 0.974711
0.032660 7.797375 -0.957406
0.033513 7.680192 1.216435
0.033697 7.722428 -0.675631
0.034876 7.686062 1.494035
0.037533 7.679893 1.773064
0.038796 7.664735 -0.133790
0.040316 7.700256 2.063306
0.037451 5.799298 -1.553950
0.045720 6.717152 -1.550813
0.171171 24.517757 1.284953
0.053851 7.713439 -1.499377
0.138352 19.333652 1.691519
0.056035 7.644503 -1.210803
0.059487 7.926251 0.973249
0.059712 7.775378 -0.954725
0.060285 7.676078 1.215809
0.061723 7.687856 1.494416
0.064417 7.689459 1.775314
0.065550 7.664553 -0.133790
0.067248 7.705863 2.064858
0.057715 5.801064 -1.554467
0.069089 6.709157 -1.549013
0.256717 24.513012 1.284743
0.080819 7.717130 -1.500140
0.205834 19.333052 1.691519
0.082764 7.648211 -1.211429
0.087266 7.935920 0.974467
0.085432 7.648084 -0.939125
0.087126 7.679771 1.216435
0.088651 7.695446 1.495943
0.091144 7.679444 1.773064
0.092402 7.672275 -0.133930
0.094097 7.701718 2.063823
0.077986 5.802759 -1.554985
0.092456 6.704978 -1.548113
0.342433 24.523952 1.285371
0.107587 7.705023 -1.497851
0.274224 19.395964 1.697096
0.109547 7.653801 -1.212367
0.114961 7.935567 0.974467
0.113818 7.762862 -0.953262
0.113847 7.673494 1.215496
0.115507 7.695090 1.495943
0.116209 7.652615 -0.401103
0.117862 7.673234 1.771715
0.118991 7.659909 -0.133720
0.121256 7.718728 2.068482
0.098014 5.788930 -1.551361
0.115858 6.704614 -1.548113
0.428007 24.520609 1.285267
0.134484 7.704600 -1.497851
0.341703 19.382938 1.696051
0.136367 7.659298 -1.213306
0.142806 7.943056 0.975442
0.141458 7.792189 -0.956918
0.140486 7.665150 1.214244
0.140016 7.639531 -0.668485
0.142442 7.698566 1.496706
0.142998 7.656156 -0.401312
0.144681 7.674724 1.772164
0.145692 7.657448 -0.133685
0.147867 7.700873 2.063823
0.118219 5.788552 -1.551361
0.139263 6.704169 -1.548113
0.513592 24.518965 1.285267
0.161622 7.715861 -1.500140
0.410291 19.425451 1.699886
0.162852 7.646925 -1.211429
0.170487 7.940525 0.975199
0.169081 7.811494 -0.959356
0.167804 7.690287 1.218312
0.166684 7.638995 -0.668485
0.168924 7.680357 1.493271
0.169805 7.659604 -0.401522
0.171646 7.681965 1.773964
0.172738 7.670887 -0.133930
0.174654 7.696448 2.062788
0.138195 5.778448 -1.548773
0.162281 6.688056 -1.544514
0.554045 22.670111 1.188445
0.188652 7.719174 -1.500904
0.477611 19.403982 1.698143
0.189441 7.642361 -1.210803
0.198107 7.935912 0.974711
0.196050 7.798950 -0.957893
0.194445 7.681755 1.217060
0.193448 7.642351 -0.668833
0.195835 7.683646 1.494035
0.196287 7.648982 -0.400998
0.198509 7.683268 1.774414
0.199408 7.666239 -0.133860
0.201723 7.703516 2.064858
0.158419 5.779861 -1.549291
0.185249 6.673813 -1.541365
0.575348 20.727560 1.086704
0.215708 7.722394 -1.501667
0.523617 18.629454 1.630509
0.216453 7.653500 -1.212680
0.225922 7.939141 0.975199
0.222702 7.778375 -0.955456
0.220199 7.690941 1.218625
0.220351 7.649595 -0.669530
0.222600 7.680953 1.493653
0.222926 7.646253 -0.400893
0.225097 7.674736 1.772614
0.225062 7.673532 -0.134000
0.227212 7.700873 2.064341
0.178530 5.777342 -1.548773
0.207321 6.671214 -1.540915
0.614887 19.675381 1.031646
0.242291 7.709820 -1.499377
0.551519 17.452591 1.527666
0.241959 7.656689 -1.213306
0.252309 7.940332 0.975442
0.247166 7.735928 -0.950337
0.246792 7.682228 1.217373
0.247247 7.654753 -0.670053
0.248385 7.689984 1.495561
0.248542 7.653456 -0.401312
0.250803 7.681738 1.774414
0.251782 7.670700 -0.133965
0.254409 7.709687 2.066929
0.197359 5.767065 -1.546185
0.230470 6.666555 -1.540015
0.673433 19.381689 1.016364
0.267787 7.707013 -1.498996
0.574621 16.455076 1.440510
0.268544 7.651849 -1.212680
0.280653 7.957257 0.977636
0.276487 7.800485 -0.958381
0.273679 7.683294 1.217686
0.271993 7.635971 -0.668485
0.275014 7.683184 1.494416
0.275398 7.656535 -0.401522
0.277477 7.676921 1.773514
0.278192 7.659783 -0.133790
0.280895 7.697169 2.063823
0.217344 5.762480 -1.545150
0.253741 6.665710 -1.540015
0.938764 24.548344 1.287465
0.295290 7.721725 -1.502048
0.596106 15.517238 1.358584
0.295026 7.644944 -1.211741
0.308968 7.970115 0.979342
0.303867 7.803440 -0.958868
0.300882 7.692161 1.219250
0.298878 7.640948 -0.669007
0.301834 7.682177 1.494416
0.302436 7.663509 -0.401940
0.304194 7.673958 1.773064
0.305328 7.668756 -0.133965
0.307763 7.696142 2.063823
0.237059 5.752036 -1.542562
0.276520 6.653101 -1.537315
1.024109 24.536936 1.287046
0.321995 7.714763 -1.500904
0.619068 14.770564 1.293391
0.321791 7.645841 -1.212054
0.335695 7.943204 0.976174
0.330012 7.776548 -0.955700
0.327645 7.689090 1.218938
0.325971 7.649811 -0.669879
0.328310 7.673231 1.492890
0.328758 7.652430 -0.401417
0.331397 7.682585 1.775314
0.332353 7.673636 -0.134069
0.334792 7.698880 2.064858
0.257396 5.756962 -1.544114
0.299390 6.644309 -1.535516
1.109579 24.529221 1.286837
0.349279 7.721437 -1.502430
0.637005 14.027905 1.228547
0.348747 7.650591 -1.212993
0.364058 7.955865 0.977880
0.358888 7.813026 -0.960331
0.354754 7.693820 1.219876
0.352945 7.654598 -0.670402
0.355730 7.685766 1.495561
0.357666 7.669702 1.772614
0.359139 7.672430 -0.134069
0.361667 7.697665 2.064858
0.277021 5.746381 -1.541526
0.322016 6.631544 -1.532816
1.190522 24.517427 1.286418
0.375942 7.714288 -1.501285
0.655210 13.396753 1.173465
0.375355 7.647354 -1.212680
0.392118 7.960495 0.978611
0.385666 7.801812 -0.959112
0.379683 7.680763 1.217999
0.382653 7.686439 1.495943
0.381975 7.645959 -0.401207
0.384633 7.672299 1.773514
0.384178 7.663208 -0.133930
0.387387 7.700282 2.065894
0.296481 5.733803 -1.538420
2.596506 50.215260 0.877681
0.344411 6.638225 -1.534616
1.277026 24.531075 1.287360
0.402456 7.705087 -1.499759
0.687166 13.111853 1.148713
0.401335 7.657903 -1.214557
0.419346 7.975009 0.980561
0.412371 7.816349 -0.961062
0.406806 7.685308 1.218938
0.422018 7.946405 -0.696200
0.407934 7.681206 1.495179
0.408602 7.668583 -0.402464
0.410492 7.678765 1.775314
0.411034 7.663817 -0.133965
0.414051 7.695024 2.064858
0.315389 5.730860 -1.537903
2.768040 50.138004 0.876495
0.366929 6.625308 -1.531917
1.362987 24.532448 1.287674
0.428660 7.715470 -1.502048
0.731748 13.129395 1.150456
0.427728 7.650539 -1.213619
0.645042 11.501417 1.414416
0.438874 7.800988 -0.959356
0.434404 7.697648 1.221128
0.431859 7.652546 -0.670576
0.434298 7.671896 1.493653
0.435596 7.671098 -0.402673
0.437620 7.683122 1.776663
0.438352 7.672318 -0.134139
0.440911 7.693532 2.064858
0.335393 5.729724 -1.537903
2.945605 50.171951 0.877263
0.389483 6.614259 -1.529667
1.449326 24.539503 1.288302
0.456286 7.725687 -1.504338
0.780399 13.174496 1.154639
0.454081 7.643084 -1.212680
0.656851 11.023517 1.355918
0.466456 7.805353 -0.960087
0.461392 7.698056 1.221440
0.459048 7.658947 -0.671273
0.460724 7.664453 1.492508
0.461768 7.659563 -0.402150
0.464792 7.687383 1.778013
0.465133 7.670741 -0.134139
0.467762 7.691947 2.064858
0.355387 5.728518 -1.537903
0.412206 6.607024 -1.528317
1.534211 24.522335 1.287674
0.483123 7.722088 -1.503957
1.221363 19.467220 1.706509
0.481008 7.645395 -1.213306
0.668071 10.589266 1.302783
0.493450 7.799716 -0.959599
0.488763 7.704285 1.222692
0.485656 7.655310 -0.671099
0.488093 7.672595 1.494416
0.488631 7.659897 -0.402254
0.491003 7.675990 1.775764
0.492668 7.681044 -0.134349
0.494859 7.694123 2.065894
0.375509 5.729170 -1.538420
0.435009 6.601656 -1.527418
1.619280 24.508858 1.287255
0.509301 7.708600 -1.501667
1.293529 19.526451 1.712087
0.507952 7.647612 -1.213932
0.680894 10.224400 1.258179
0.520543 7.795964 -0.959356
0.515123 7.694648 1.221440
0.513039 7.663508 -0.671971
0.515795 7.684556 1.497087
0.515636 7.662131 -0.402464
0.518055 7.678117 1.776663
0.517995 7.657331 -0.133965
0.522239 7.700058 2.067964
0.394439 5.712407 -1.534279
0.457512 6.592321 -1.525618
1.702045 24.463209 1.285162
0.536068 7.704817 -1.501285
1.393553 19.978956 1.752179
0.534922 7.649733 -1.214557
0.692285 9.875421 1.215525
0.548582 7.805981 -0.960818
0.541843 7.690832 1.221128
0.539788 7.661670 -0.671971
0.542479 7.680750 1.496706
0.542656 7.664268 -0.402673
0.544855 7.676262 1.776663
0.545148 7.661460 -0.134069
0.548559 7.690481 2.065894
0.413959 5.705215 -1.532727
0.480378 6.588741 -1.525168
1.785395 24.429232 1.283697
0.564536 7.724436 -1.505483
1.467366 20.029612 1.757060
0.561475 7.645850 -1.214244
0.722820 9.819490 1.208944
0.574076 7.780262 -0.957893
0.569558 7.700714 1.223005
0.566087 7.653779 -0.671448
0.568705 7.670979 1.495179
0.569408 7.662327 -0.402673
0.572804 7.689861 1.780263
0.572483 7.667487 -0.134209
0.575691 7.692372 2.066929
0.434020 5.705661 -1.533244
3.193833 41.890026 0.733315
0.502630 6.577308 -1.522919
1.861216 24.355467 1.280138
0.591348 7.720461 -1.505101
1.543064 20.099854 1.763684
0.588159 7.643843 -1.214244
0.756789 9.812948 1.208457
0.601707 7.802066 -0.960818
0.595546 7.704691 1.223943
0.593414 7.659702 -0.672145
0.595632 7.670904 1.495561
0.596149 7.660293 -0.402673
0.599358 7.701519 1.783412
0.598219 7.669534 -0.134279
0.601198 7.690420 2.066929
0.452172 5.694561 -1.530656
3.332740 41.879204 0.733315
0.523666 6.565893 -1.520669
1.941026 24.337215 1.279510
0.616006 7.706717 -1.502812
1.613215 20.138317 1.767518
0.613664 7.643819 -1.214557
0.791235 9.834130 1.211381
0.627257 7.796071 -0.960331
0.622048 7.714488 1.225821
0.622825 7.707340 -0.676503
0.621857 7.678671 1.497469
0.622035 7.664246 -0.402987
0.624265 7.691720 1.781612
0.624296 7.675480 -0.134418
0.627324 7.696087 2.069000
0.471371 5.696881 -1.531691
0.545758 6.568004 -1.521569
1.990162 23.900372 1.256900
0.641558 7.704631 -1.502812
1.682634 20.164625 1.770307
0.639336 7.645679 -1.215183
1.255492 14.982578 1.846077
0.654963 7.799768 -0.961062
0.648312 7.704396 1.224569
0.645542 7.671480 -0.673540
0.647814 7.682436 1.498614
0.647110 7.658162 -0.402778
0.651441 7.693377 1.782512
0.650748 7.669269 -0.134349
0.654510 7.697700 2.070035
0.490425 5.685578 -1.529103
3.574676 41.357483 0.724589
0.568343 6.562176 -1.520669
2.004857 23.101345 1.215241
0.667601 7.692564 -1.500904
1.754743 20.178478 1.772050
0.666362 7.647337 -1.215809
1.309852 15.001837 1.849002
0.681841 7.793480 -0.960574
0.675541 7.706022 1.225195
0.671441 7.659257 -0.672668
0.674454 7.678172 1.498232
0.675066 7.669783 -0.403510
0.678633 7.694939 1.783412
0.677513 7.666951 -0.134349
0.680867 7.689595 2.068482
0.509058 5.670362 -1.525479
3.717219 41.324833 0.724240
0.591423 6.562092 -1.521119
2.016907 22.378460 1.177559
0.693918 7.684322 -1.499759
1.831268 20.239698 1.777977
0.693767 7.652833 -1.217060
1.368679 15.068342 1.857776
0.711738 7.820706 -0.964230
0.701452 7.707674 1.225821
0.697632 7.650914 -0.672145
0.700896 7.671861 1.497469
0.701832 7.667380 -0.403510
0.706022 7.698345 1.784762
0.702933 7.664662 -0.134349
0.705834 7.681523 2.066929
0.529386 5.674321 -1.527032
3.854971 41.320244 0.724380
0.611187 6.538752 -1.516170
2.029093 21.667334 1.140505
0.720369 7.677944 -1.498996
1.903404 20.249048 1.779372
0.719144 7.650490 -1.217060
1.419754 15.075579 1.859239
0.738040 7.822255 -0.964718
0.728912 7.711078 1.226759
0.726215 7.668267 -0.673888
0.726517 7.671449 1.497851
0.727253 7.665010 -0.403510
0.731917 7.699841 1.785661
0.731202 7.678087 -0.134628
0.734106 7.694399 2.071070
0.548573 5.676381 -1.528068
3.865456 39.925205 0.700156
0.633821 6.534639 -1.515720
2.044442 21.039896 1.107848
0.746597 7.669520 -1.497851
1.941582 19.945173 1.753225
0.746613 7.655798 -1.218312
1.469663 15.042872 1.855826
0.766116 7.827534 -0.965693
0.756983 7.720283 1.228637
0.753171 7.667668 -0.674062
0.755012 7.672642 1.498614
0.755739 7.666268 -0.403720
0.758410 7.693361 1.784762
0.756818 7.663548 -0.134418
0.761533 7.697556 2.072623
0.568794 5.668565 -1.526515
3.899356 38.792576 0.680539
0.657181 6.526455 -1.514371
2.076237 20.583160 1.084192
0.773713 7.656966 -1.495943
1.963790 19.434423 1.708950
0.775064 7.656940 -1.218938
1.527596 15.065033 1.859239
0.794798 7.824673 -0.965693
0.784872 7.713525 1.228011
0.781474 7.666839 -0.674237
0.784523 7.683495 1.501285
0.784237 7.667421 -0.403929
0.786601 7.690530 1.784762
0.784088 7.652766 -0.134279
0.790331 7.700479 2.074176
0.587169 5.643384 -1.520303
3.920861 37.620476 0.660225
0.680893 6.522065 -1.513921
2.157486 20.631031 1.087123
0.799213 7.642503 -1.493653
1.979374 18.896038 1.662234
0.803534 7.657978 -1.219563
1.586533 15.094871 1.863626
0.825341 7.839476 -0.967886
0.814380 7.722384 1.229888
0.808021 7.662083 -0.674062
0.811340 7.680709 1.501285
0.810999 7.664637 -0.403929
0.815192 7.691471 1.785661
0.813396 7.661771 -0.134488
0.817738 7.689846 2.072105
0.607483 5.647063 -1.521856
4.049168 37.578724 0.659736
0.702611 6.509961 -1.511671
2.631762 24.344557 1.283278
0.825462 7.635762 -1.492890
1.991706 18.393810 1.618656
0.829410 7.647271 -1.218312
1.641355 15.108974 1.866063
0.855280 7.860228 -0.970811
0.842617 7.731277 1.231765
0.843182 7.736461 -0.680861
0.837505 7.671976 1.500140
0.838177 7.665730 -0.404138
0.843098 7.698264 1.787911
0.841443 7.670813 -0.134698
0.844570 7.686945 2.072105
0.626553 5.639147 -1.520303
4.204657 37.782978 0.663575
0.724895 6.503596 -1.510771
2.714463 24.353561 1.284220
0.851024 7.623079 -1.490982
2.002769 17.911533 1.576822
0.856534 7.648255 -1.218938
1.696745 15.126825 1.868988
0.881121 7.855375 -0.970568
0.869131 7.736292 1.233017
0.862829 7.668134 -0.675108
0.864063 7.667055 1.499759
0.865381 7.666727 -0.404348
0.869057 7.699299 1.788811
0.867102 7.669966 -0.134733
0.871580 7.697539 2.075729
0.645688 5.640878 -1.521338
4.310805 37.601940 0.660643
0.744681 6.485668 -1.507172
2.793164 24.326567 1.283278
0.876297 7.620215 -1.490982
2.012464 17.473305 1.538822
0.882799 7.653222 -1.220189
1.748717 15.136892 1.870938
0.906708 7.848466 -0.970080
0.895691 7.741216 1.234268
0.902012 7.783979 -0.685567
0.890613 7.673898 1.501667
0.889879 7.655879 -0.403929
0.894361 7.694438 1.788361
0.892993 7.671022 -0.134802
0.898218 7.704201 2.078317
0.663261 5.629113 -1.518750
4.436854 37.599358 0.660853
0.766183 6.483163 -1.507172
2.880886 24.340467 1.284534
0.898564 7.591922 -1.486021
2.022542 17.062914 1.503262
0.908874 7.656137 -1.221128
1.801251 15.150721 1.873376
0.934101 7.845253 -0.970080
0.921770 7.730197 1.233017
0.921147 7.713520 -0.679640
0.916756 7.676751 1.502812
0.916921 7.666768 -0.404662
0.921213 7.691270 1.788361
0.918337 7.655945 -0.134593
0.925568 7.704854 2.079352
0.682722 5.617055 -1.516162
4.569772 37.597538 0.661097
0.789752 6.488186 -1.508972
2.968244 24.350090 1.285581
0.926382 7.588577 -1.486021
2.032847 16.628210 1.465611
0.937888 7.660598 -1.222379
1.857500 15.171927 1.876788
0.964378 7.865589 -0.973005
0.950191 7.738697 1.234894
0.942472 7.664775 -0.675631
0.943685 7.663596 1.500904
0.945258 7.665339 -0.404766
0.950354 7.695578 1.790160
0.945548 7.656662 -0.134663
0.952219 7.699659 2.078835
0.702087 5.612721 -1.515644
4.708529 37.588470 0.661237
0.812559 6.477514 -1.507172
3.058225 24.344994 1.285895
0.951644 7.575558 -1.484113
2.043626 16.245420 1.432492
0.963884 7.651397 -1.221440
1.919559 15.216223 1.883125
0.992701 7.858064 -0.972517
0.979790 7.744960 1.236458
0.971562 7.669176 -0.676329
0.971173 7.666098 1.502048
0.973515 7.673880 -0.405394
0.977455 7.694148 1.790610
0.975117 7.665047 -0.134872
0.979699 7.690369 2.077282
0.723393 5.615858 -1.517197
4.842530 37.593624 0.661621
0.832172 6.451445 -1.501773
3.144460 24.344076 1.286418
0.979905 7.575913 -1.484876
2.056581 15.878209 1.400767
0.991919 7.647813 -1.221440
1.967042 15.166121 1.877763
1.021661 7.866362 -0.973980
1.008346 7.753246 1.238335
0.999355 7.673640 -0.677026
0.999262 7.662488 1.502048
1.001379 7.668280 -0.405290
1.007163 7.702107 1.793310
1.001866 7.661597 -0.134872
1.008295 7.700310 2.080905
0.740051 5.613688 -1.517197
4.964005 37.604000 0.662075
0.852182 6.446867 -1.501323
3.219882 24.326153 1.285999
1.000320 7.557401 -1.481823
2.057084 15.520467 1.369740
1.016428 7.658544 -1.223631
1.991146 14.982764 1.855826
1.045843 7.859178 -0.973492
1.032701 7.750040 1.238335
1.022384 7.672616 -0.677200
1.024072 7.675056 1.505101
1.024389 7.667255 -0.405394
1.029238 7.693290 1.791960
1.027260 7.668322 -0.135047
1.032737 7.699020 2.081423
0.758089 5.599583 -1.514091
5.099276 37.616165 0.662598
0.874152 6.439991 -1.500424
3.293474 24.231647 1.281603
1.022991 7.526629 -1.476480
2.068264 15.197321 1.341850
1.044483 7.664736 -1.225195
2.006126 14.702330 1.821947
1.073273 7.855479 -0.973492
1.061352 7.758131 1.240213
1.050508 7.678871 -0.678072
1.051122 7.673380 1.505483
1.051692 7.667590 -0.405604
1.055823 7.687719 1.791510
1.052657 7.654783 -0.134872
1.061188 7.706851 2.084529
0.776302 5.587335 -1.511503
5.231644 37.606060 0.662738
0.895552 6.429180 -1.498624
3.294173 23.618654 1.249783
1.049260 7.523012 -1.476480
2.073900 14.850613 1.311868
1.071781 7.664956 -1.225821
2.014500 14.388553 1.783924
1.102339 7.863480 -0.974955
1.087052 7.744598 1.238648
1.077539 7.667077 -0.677374
1.079269 7.679385 1.507391
1.079562 7.671783 -0.406022
1.085638 7.705214 1.796459
1.080211 7.657002 -0.134977
1.087005 7.695447 2.082458
0.794864 5.571065 -1.507880
1.096756 7.686971 0.135535
0.917715 6.424086 -1.498174
3.307014 23.120638 1.224033
1.076546 7.517172 -1.476099
2.087032 14.554966 1.286419
1.099023 7.655110 -1.224882
2.023235 14.092587 1.748094
1.129783 7.859583 -0.974955
1.116895 7.760308 1.241777
1.104290 7.663270 -0.677374
1.105443 7.661776 1.504720
1.109388 7.679635 -0.406650
1.112754 7.693469 1.794659
1.110076 7.674956 -0.135361
1.114136 7.693518 2.082976
0.815146 5.573991 -1.509433
1.126080 7.690814 0.135675
0.938144 6.399469 -1.493225
3.315861 22.618870 1.198075
1.102781 7.513369 -1.476099
2.094371 14.251911 1.260272
1.126603 7.657090 -1.225821
2.034091 13.808167 1.713727
1.160318 7.867173 -0.976417
1.146857 7.775905 1.244906
1.131908 7.665281 -0.677897
1.135916 7.683118 1.509681
1.135310 7.669789 -0.406336
1.141033 7.699176 1.796909
1.136569 7.669056 -0.135326
1.141837 7.695315 2.084529
0.833450 5.563470 -1.507362
1.152168 7.690993 0.135745
0.960807 6.405959 -1.495475
3.328364 22.164732 1.174628
1.126661 7.493943 -1.473045
2.104964 13.984447 1.237263
1.152873 7.659173 -1.226759
2.041707 13.548129 1.682285
1.184029 7.847580 -0.974467
1.174880 7.777714 1.245844
1.161640 7.680983 -0.679640
1.161974 7.683192 1.510444
1.162829 7.679805 -0.407069
1.167144 7.699203 1.797809
1.165735 7.680858 -0.135605
1.169267 7.695103 2.085564
0.851603 5.558766 -1.506845
1.181435 7.702736 0.136024
0.981978 6.394862 -1.493675
3.332120 21.699528 1.150554
1.150613 7.484344 -1.471901
2.121621 13.784409 1.220180
1.180201 7.659006 -1.227385
2.050848 13.293722 1.651574
1.211418 7.843399 -0.974467
1.200061 7.769871 1.245219
1.186497 7.673150 -0.679292
1.186682 7.665508 1.507773
1.187184 7.659910 -0.406232
1.194313 7.697007 1.798259
1.189054 7.663117 -0.135361
1.198339 7.714090 2.091776
0.870704 5.553850 -1.506327
1.207594 7.702727 0.136094
1.004688 6.401196 -1.495924
3.396680 21.616735 1.146786
1.177343 7.484160 -1.472664
2.167243 13.761173 1.218786
1.208050 7.670661 -1.229888
2.052871 13.020170 1.618425
1.241137 7.862867 -0.977392
1.228099 7.771489 1.246157
1.212647 7.665027 -0.678943
1.217309 7.694496 1.514260
1.216018 7.677629 -0.407383
1.220741 7.698779 1.799608
1.217359 7.668796 -0.135535
1.222835 7.694596 2.087634
0.888504 5.547118 -1.505292
1.234156 7.696491 0.136059
1.025175 6.386106 -1.493225
3.406203 21.194576 1.125014
1.201530 7.476338 -1.471901
2.218565 13.789317 1.221923
1.232935 7.654696 -1.228011
2.061969 12.787550 1.590395
1.266676 7.846729 -0.975930
1.257112 7.778854 1.248034
1.239079 7.658780 -0.678769
1.241967 7.676634 1.511589
1.243128 7.675310 -0.407488
1.248545 7.700242 1.800958
1.245725 7.674369 -0.135710
1.250305 7.694096 2.088670
0.907265 5.534292 -1.502703
1.261336 7.694110 0.136094
1.045568 6.370950 -1.490526
3.400507 20.697735 1.099265
1.227967 7.466073 -1.470756
3.288729 19.973740 1.771005
1.261624 7.654024 -1.228637
1.312382 7.961964 0.990798
1.296642 7.857929 -0.977880
1.287479 7.793908 1.251163
1.275231 7.711413 -0.683824
1.268494 7.662345 1.509681
1.271253 7.670702 -0.407488
1.277396 7.699459 1.801858
1.273813 7.677865 -0.135850
1.279372 7.703024 2.092293
0.928492 5.542523 -1.505809
1.291845 7.703239 0.136338
1.067297 6.357466 -1.488276
1.332948 7.939840 0.421933
1.254674 7.465612 -1.471519
1.337090 7.947525 0.705090
1.290960 7.665157 -1.231139
1.342547 7.962974 0.991529
1.322133 7.833549 -0.975442
1.315991 7.797158 1.252414
1.296500 7.673517 -0.680861
1.298833 7.679164 1.513879
1.299020 7.672126 -0.407802
1.304917 7.698795 1.802758
1.303281 7.689144 -0.136129
1.308190 7.709939 2.095399
0.946532 5.531632 -1.503739
1.321765 7.724537 0.136792
1.088372 6.353892 -1.488276
1.277403 7.441838 -1.467703
1.367522 7.958518 0.706484
1.317039 7.664728 -1.231765
2.080338 12.094225 1.506793
1.348101 7.829123 -0.975442
1.341189 7.780836 1.250537
1.323619 7.670908 -0.681035
1.323959 7.672880 1.513497
1.327172 7.683521 -0.408639
1.332767 7.707868 1.805907
1.328411 7.674695 -0.135954
1.335753 7.709133 2.096434
0.963543 5.520850 -1.501668
1.347346 7.711997 0.136652
1.110879 6.351974 -1.488726
4.299016 24.556318 1.306515
1.300045 7.425958 -1.465413
3.280309 18.718151 1.662583
1.345832 7.671757 -1.233642
2.090615 11.905058 1.484125
1.373018 7.810683 -0.973736
1.371074 7.791672 1.253040
1.349734 7.670402 -0.681384
1.352776 7.679813 1.515787
1.353293 7.674907 -0.408430
1.360675 7.708926 1.807257
1.356234 7.675920 -0.136059
1.362321 7.702521 2.095917
0.981791 5.511747 -1.500115
1.372501 7.697403 0.136478
1.130992 6.336546 -1.486027
4.387524 24.556890 1.307352
1.328032 7.432970 -1.467703
3.287396 18.381020 1.633647
1.369821 7.651457 -1.231139
2.098195 11.708153 1.460482
1.408334 7.850782 -0.979342
1.400360 7.798504 1.254917
1.376855 7.667604 -0.681558
1.378883 7.671179 1.515024
1.380427 7.672103 -0.408534
1.388614 7.709883 1.808606
1.386215 7.688850 -0.136373
1.391256 7.709126 2.099023
1.001369 5.510188 -1.500633
1.399006 7.690598 0.136443
1.151360 6.322973 -1.483777
4.444598 24.408592 1.300235
1.351500 7.414771 -1.465032
3.296470 18.067585 1.606803
1.398297 7.656344 -1.232704
2.100489 11.489864 1.434159
1.434358 7.846069 -0.979342
1.427283 7.799647 1.255856
1.407203 7.682349 -0.683301
1.407417 7.675976 1.516932
1.407923 7.671166 -0.408744
1.415934 7.714819 1.810856
1.411342 7.682244 -0.136338
1.416811 7.704470 2.099023
1.019286 5.504937 -1.500115
1.426686 7.697714 0.136652
1.172317 6.319122 -1.483777
4.514205 24.332844 1.296990
1.377159 7.416039 -1.466176
3.302475 17.766647 1.581005
1.424404 7.655549 -1.233329
2.105145 11.303293 1.411735
1.463279 7.856881 -0.981292
1.454224 7.800697 1.256795
1.467394 7.863706 -0.699861
1.435028 7.682845 1.519221
1.436288 7.682161 -0.409581
1.441150 7.708166 1.810406
1.440490 7.697177 -0.136687
1.445200 7.714919 2.103164
1.036460 5.495831 -1.498562
1.453320 7.698835 0.136757
1.192544 6.311369 -1.482877
4.604318 24.344412 1.298455
1.398093 7.392140 -1.462360
3.309493 17.481529 1.556602
1.452720 7.666312 -1.235832
2.108950 11.118772 1.389554
1.491068 7.853676 -0.981536
1.481811 7.797513 1.257107
1.458492 7.674805 -0.683475
1.462331 7.687688 1.521129
1.461384 7.675393 -0.409477
1.469874 7.712660 1.812656
1.465096 7.680317 -0.136478
1.472848 7.713622 2.104199
1.055274 5.490283 -1.498045
1.482069 7.703534 0.136932
1.215306 6.310995 -1.483777
4.693055 24.347803 1.299502
1.420546 7.369865 -1.458926
3.313113 17.172516 1.530106
1.481346 7.670891 -1.237397
2.114977 10.941778 1.368349
1.518845 7.850374 -0.981780
1.511276 7.803929 1.258985
1.483760 7.661843 -0.682778
1.491027 7.692173 1.523037
1.490444 7.682011 -0.410105
1.498272 7.715134 1.814455
1.494569 7.688897 -0.136722
1.499763 7.708434 2.104199
1.073689 5.482774 -1.497009
1.507414 7.690464 0.136792
1.236955 6.304801 -1.483327
4.742218 24.149010 1.289767
1.446640 7.366788 -1.459307
3.322318 16.902786 1.507097
1.507734 7.663735 -1.237084
2.119021 10.760983 1.346656
1.547776 7.852813 -0.982754
1.541186 7.812172 1.261175
1.514354 7.676164 -0.684521
1.518247 7.688848 1.523419
1.518414 7.682639 -0.410419
1.525574 7.711769 1.814905
1.524893 7.701288 -0.137036
1.527411 7.706943 2.105234
1.092822 5.478993 -1.497009
1.536600 7.696921 0.137001
1.255132 6.281336 -1.478828
4.748152 23.740614 1.268833
1.473888 7.369393 -1.460834
3.328117 16.625391 1.483391
1.535247 7.662300 -1.237710
2.123005 10.586136 1.325695
1.577524 7.859040 -0.984217
1.569223 7.810618 1.261801
1.542316 7.676691 -0.685044
1.544305 7.679651 1.522656
1.544042 7.671417 -0.410105
1.554791 7.717858 1.817604
1.553350 7.703759 -0.137176
1.555070 7.705351 2.106270
1.111171 5.471358 -1.495974
1.565050 7.699349 0.137141
1.275498 6.269279 -1.477029
4.752079 23.336390 1.248108
1.498818 7.360357 -1.460070
3.338378 16.379404 1.462473
1.564356 7.668507 -1.239587
2.127384 10.419173 1.305708
1.604946 7.853486 -0.984217
1.598455 7.814771 1.263365
1.570299 7.677117 -0.685567
1.573861 7.687677 1.525327
1.572413 7.673808 -0.410523
1.579763 7.702840 1.815355
1.581038 7.702207 -0.137246
1.585066 7.715014 2.110410
1.128697 5.459879 -1.493904
1.593133 7.699714 0.137246
1.299349 6.274329 -1.479278
4.758930 22.959812 1.228848
1.520120 7.333933 -1.455873
3.343734 16.117941 1.440161
1.593522 7.674604 -1.241464
2.135869 10.277578 1.288890
1.633970 7.855610 -0.985192
1.626930 7.814945 1.264304
1.597898 7.675490 -0.685916
1.603488 7.695591 1.527999
1.602454 7.683913 -0.411361
1.608634 7.706816 1.817604
1.607912 7.696641 -0.137246
1.612780 7.713216 2.111446
1.146160 5.448344 -1.491833
1.620411 7.696063 0.137281
1.320038 6.264034 -1.477928
4.773091 22.630379 1.212101
1.543684 7.318978 -1.453965
3.348944 15.864441 1.418547
1.622754 7.680592 -1.243341
2.149141 10.163242 1.275485
1.663845 7.861511 -0.986654
1.655020 7.813083 1.264929
1.626335 7.677662 -0.686613
1.632782 7.701470 1.530288
1.630094 7.682181 -0.411570
1.637953 7.712592 1.820304
1.635598 7.694894 -0.137316
1.638888 7.703761 2.110410
1.164765 5.442421 -1.491315
1.646849 7.688404 0.137246
1.342715 6.263199 -1.478828
4.833616 22.527657 1.207495
1.571280 7.323143 -1.455873
3.353270 15.615002 1.397281
1.650386 7.678742 -1.243967
2.183349 10.149857 1.274753
1.692115 7.859536 -0.987142
1.685614 7.822706 1.267432
1.651868 7.666094 -0.686090
1.658826 7.691886 1.529525
1.660273 7.692062 -0.412407
1.665690 7.710637 1.821204
1.665828 7.704774 -0.137595
1.667406 7.705545 2.112481
1.183757 5.438322 -1.491315
1.676229 7.694332 0.137455
1.360416 6.239434 -1.474329
5.312503 24.365347 1.306934
1.593068 7.300350 -1.452438
3.364391 15.404657 1.379501
1.678022 7.676795 -1.244593
2.220041 10.147990 1.275485
1.719538 7.853582 -0.987142
1.713657 7.826723 1.268997
1.684160 7.685583 -0.688356
1.685247 7.684130 1.529143
1.685827 7.680368 -0.412093
1.694684 7.714292 1.823453
1.691800 7.701160 -0.137630
1.696266 7.715068 2.116622
1.202315 5.432271 -1.490798
1.703030 7.694589 0.137560
1.379834 6.229181 -1.472980
5.398825 24.352501 1.307248
1.618540 7.294745 -1.452438
3.367174 15.163310 1.358932
1.704325 7.675045 -1.245219
2.258421 10.161888 1.278166
1.744712 7.843960 -0.986654
1.743111 7.830335 1.270561
1.710979 7.679657 -0.688356
1.713283 7.689997 1.531433
1.710854 7.672785 -0.411989
1.718557 7.701023 1.821654
1.721725 7.708869 -0.137874
1.724032 7.712870 2.117657
1.219897 5.426369 -1.490280
1.732075 7.698351 0.137734
1.400287 6.218623 -1.471630
5.488612 24.354946 1.308399
1.641425 7.283592 -1.451293
3.372730 14.953815 1.341153
1.733718 7.680610 -1.247096
3.304768 14.628728 1.841446
1.775582 7.853312 -0.988604
1.769128 7.818421 1.269622
1.741712 7.697260 -0.690448
1.743580 7.699289 1.534486
1.741157 7.682350 -0.412826
1.746724 7.700677 1.823003
1.747740 7.698911 -0.137804
1.752655 7.714342 2.119728
1.236251 5.410778 -1.487174
1.761168 7.702005 0.137909
1.422419 6.215597 -1.472080
5.579842 24.362892 1.309865
1.666403 7.275904 -1.450912
3.376837 14.732211 1.322327
1.766699 7.701467 -1.251476
3.312285 14.427497 1.817559
1.805654 7.858674 -0.990067
1.800834 7.831450 1.272751
1.764996 7.675600 -0.689053
1.772648 7.702721 1.536394
1.771999 7.693741 -0.413768
1.777094 7.709726 1.826603
1.775947 7.698611 -0.137909
1.779574 7.708176 2.119728
1.255132 5.406429 -1.487174
1.787132 7.691916 0.137839
1.444108 6.210593 -1.472080
5.669836 24.364662 1.311016
1.689122 7.258569 -1.448622
3.383040 14.526291 1.304896
1.790883 7.683710 -1.249599
3.317537 14.222526 1.793186
1.833972 7.856191 -0.990554
1.829060 7.828963 1.273377
1.793593 7.677153 -0.689751
1.797739 7.688840 1.534868
1.800659 7.695289 -0.414187
1.805774 7.711064 1.828402
1.803723 7.696258 -0.137979
1.807347 7.705680 2.120763
1.273108 5.398254 -1.486139
1.813054 7.681738 0.137769
1.463988 6.197928 -1.470280
5.761736 24.373878 1.312586
1.716254 7.260272 -1.450148
3.395200 14.351526 1.290254
1.823157 7.700478 -1.253353
3.323222 14.025425 1.769787
1.862302 7.853604 -0.991042
1.857292 7.826375 1.274002
1.820383 7.670845 -0.689751
1.826834 7.692069 1.536776
1.824741 7.677298 -0.413559
1.834035 7.710401 1.829752
1.832428 7.697696 -0.138118
1.837817 7.714357 2.124904
1.292846 5.397535 -1.487174
1.843118 7.688975 0.138014
1.482882 6.181411 -1.467581
5.848187 24.359442 1.312900
1.739756 7.246600 -1.448622
3.435032 14.296968 1.286419
1.851867 7.701751 -1.254605
3.331295 13.843899 1.748338
1.888777 7.843195 -0.990554
1.891999 7.850571 1.279008
1.856479 7.703184 -0.693237
1.855516 7.693279 1.538302
1.855280 7.686413 -0.414396
1.862305 7.709637 1.831102
1.860699 7.697084 -0.138223
1.864736 7.707895 2.124904
1.308482 5.379849 -1.483551
1.871367 7.688323 0.138118
1.504452 6.176197 -1.467581
5.939326 24.364107 1.314261
1.761784 7.227132 -1.445951
3.490587 14.308117 1.288510
1.883427 7.714429 -1.257733
3.337191 13.658632 1.726401
1.919914 7.851981 -0.992504
1.918454 7.840080 1.278383
1.883832 7.698591 -0.693411
1.884693 7.696290 1.540210
1.884950 7.691529 -0.415024
1.890136 7.706873 1.832001
1.888511 7.694426 -0.138293
1.895315 7.716348 2.129046
1.324936 5.365871 -1.480963
1.902992 7.701157 0.138467
1.525533 6.169016 -1.467131
6.023439 24.357849 1.314993
1.782755 7.203786 -1.442516
3.465796 13.994147 1.261318
1.915095 7.726982 -1.260862
3.342314 13.475425 1.704709
1.944443 7.833671 -0.991042
1.946348 7.841344 1.279634
1.908291 7.682301 -0.692540
1.913439 7.697285 1.541737
1.914199 7.694593 -0.415548
1.919379 7.709684 1.834251
1.914494 7.690063 -0.138328
1.919023 7.702523 2.126975
1.344130 5.363088 -1.481480
1.926574 7.687046 0.138328
1.546457 6.165813 -1.467581
6.044738 24.082905 1.301281
1.809326 7.203231 -1.443661
3.454392 13.742362 1.239703
1.937821 7.709094 -1.258985
3.345339 13.298706 1.683747
1.976224 7.850280 -0.993966
1.975636 7.842165 1.280886
1.936558 7.681388 -0.693062
1.940395 7.696609 1.542882
1.941170 7.694014 -0.415862
1.946845 7.710834 1.836051
1.944757 7.696904 -0.138572
1.948742 7.707014 2.130081
1.361906 5.358601 -1.481480
1.956351 7.691902 0.138537
1.565085 6.149047 -1.464881
6.048910 23.748112 1.284325
1.833690 7.199093 -1.444043
3.450730 13.537766 1.222272
1.969599 7.721424 -1.262113
3.350991 13.127303 1.663517
2.005578 7.851029 -0.994941
2.006422 7.848618 1.283076
1.966460 7.692297 -0.694631
1.967739 7.691689 1.543263
1.966527 7.681386 -0.415548
1.976169 7.713429 1.838300
1.976580 7.709439 -0.138921
1.979472 7.715135 2.134222
1.382051 5.359426 -1.483033
1.987688 7.702452 0.138851
1.584589 6.135999 -1.463082
6.062801 23.460001 1.269880
1.858315 7.190749 -1.443661
3.461551 13.384826 1.209547
2.000003 7.727889 -1.264304
3.352993 12.946419 1.642068
2.033969 7.847822 -0.995429
2.035792 7.849214 1.284327
1.994301 7.689242 -0.694980
1.995560 7.688575 1.544026
1.993832 7.676407 -0.415652
2.004551 7.712143 1.839650
2.003981 7.704427 -0.138956
2.011746 7.728743 2.139916
1.401727 5.358308 -1.484068
2.015067 7.697401 0.138886
1.603531 6.121005 -1.460832
6.143636 23.434830 1.269670
1.876931 7.159531 -1.438700
3.479937 13.264741 1.199786
2.028974 7.728502 -1.265555
3.361346 12.794479 1.624275
2.066397 7.859874 -0.997866
2.062171 7.838240 1.283701
2.022649 7.688015 -0.695503
2.023388 7.685359 1.544790
2.023667 7.680990 -0.416280
2.033445 7.712637 1.841449
2.031374 7.699318 -0.138991
2.039700 7.725409 2.140951
1.417944 5.344046 -1.481480
2.046031 7.705781 0.139165
1.627391 6.124786 -1.463082
6.479956 24.370621 1.321588
1.900396 7.147243 -1.437555
3.501118 13.158167 1.191245
2.057467 7.727098 -1.266494
3.369179 12.644562 1.606726
2.095868 7.860285 -0.998841
2.093596 7.846262 1.286204
2.056152 7.705933 -0.697769
2.055262 7.697218 1.548606
2.054078 7.687386 -0.417013
2.064384 7.720552 1.845049
2.057715 7.690250 -0.138956
2.065154 7.712644 2.139398
1.434082 5.329736 -1.478892
2.073439 7.700523 0.139200
1.646731 6.111542 -1.461282
6.571752 24.372921 1.322948
1.926868 7.146253 -1.438700
4.761555 17.647083 1.599134
2.084940 7.721777 -1.266806
3.372394 12.481330 1.587470
2.124331 7.856753 -0.999329
2.126129 7.857975 1.289333
2.076792 7.675631 -0.695677
2.081094 7.686208 1.547843
2.086124 7.699445 -0.418060
2.093869 7.722704 1.847298
2.088214 7.696530 -0.139200
2.096115 7.720303 2.143539
1.454710 5.332153 -1.480963
2.101881 7.699028 0.139305
1.664975 6.094478 -1.458583
6.665223 24.380655 1.324623
1.951803 7.139482 -1.438700
4.769488 17.434338 1.581354
2.113448 7.720167 -1.267745
3.373986 12.316316 1.567971
2.159085 7.876093 -1.002741
2.157206 7.863840 1.291523
2.106210 7.677941 -0.696549
2.111031 7.690255 1.550132
2.111395 7.686340 -0.417746
2.121332 7.717226 1.847748
2.119313 7.704618 -0.139480
2.127147 7.727841 2.147681
1.472285 5.323318 -1.479927
2.131945 7.703207 0.139515
1.683634 6.079239 -1.456333
6.754548 24.372639 1.325461
1.973565 7.121274 -1.436410
4.776012 17.221748 1.563574
2.143548 7.724165 -1.269622
3.379773 12.170575 1.550909
2.184441 7.860858 -1.001766
2.186232 7.861970 1.292462
2.137270 7.685898 -0.697943
2.141019 7.694188 1.552422
2.140358 7.686619 -0.418164
2.150352 7.717282 1.849548
2.148340 7.704878 -0.139619
2.156188 7.727811 2.149751
1.488252 5.308845 -1.477339
2.160980 7.703420 0.139654
1.705372 6.075201 -1.456783
6.846071 24.371984 1.326717
1.995227 7.103001 -1.434120
4.782181 17.013168 1.546143
2.173173 7.726143 -1.271187
3.384053 12.023032 1.533604
2.217247 7.872294 -1.004204
2.212049 7.848590 1.291523
2.166783 7.687981 -0.698815
2.171063 7.698004 1.554712
2.166632 7.677179 -0.418060
2.179390 7.717232 1.851347
2.174137 7.693482 -0.139549
2.187358 7.735108 2.153892
1.504131 5.294328 -1.474751
2.193327 7.715064 0.140003
1.728169 6.074834 -1.458133
6.939290 24.376759 1.328287
2.016779 7.084665 -1.431831
4.782592 16.789423 1.527317
2.202298 7.726109 -1.272438
3.389511 11.883250 1.517273
2.246894 7.872139 -1.005178
2.242147 7.850317 1.293087
2.195797 7.688032 -0.699512
2.202235 7.705481 1.557765
2.198911 7.688771 -0.419106
2.207925 7.715198 1.852697
2.202629 7.691615 -0.139654
2.214343 7.727427 2.153892
1.521535 5.285332 -1.473716
2.220246 7.707360 0.140003
1.747204 6.061275 -1.456333
7.030433 24.373493 1.329438
2.042587 7.081354 -1.432594
4.790342 16.596514 1.511281
2.229252 7.718375 -1.272438
3.392943 11.739758 1.500455
2.277671 7.875690 -1.006641
2.273928 7.857623 1.295590
2.223726 7.684150 -0.699861
2.228025 7.693976 1.557002
2.229630 7.694477 -0.419839
2.238098 7.718675 1.855396
2.235592 7.705005 -0.140038
2.244538 7.730781 2.156998
1.541056 5.283698 -1.474751
2.248251 7.703403 0.140073
1.764529 6.042045 -1.453184
7.123880 24.377558 1.331008
2.065643 7.068527 -1.431449
4.794559 16.396112 1.494547
2.257292 7.714337 -1.273064
3.392627 11.586864 1.482419
2.308496 7.879122 -1.008103
2.302455 7.853427 1.296216
2.253340 7.685898 -0.700732
2.254870 7.686151 1.557002
2.257035 7.688564 -0.419944
2.266677 7.716424 1.856746
2.265295 7.706747 -0.140213
2.274779 7.734020 2.160104
1.557849 5.272728 -1.473198
2.277398 7.703179 0.140213
1.785054 6.033979 -1.452734
7.214594 24.371696 1.332055
2.090303 7.061274 -1.431449
4.799700 16.203526 1.478510
2.289257 7.723457 -1.275880
3.400311 11.464570 1.468282
2.337678 7.876727 -1.008835
2.332669 7.854810 1.297781
2.282426 7.685625 -0.701429
2.285040 7.689525 1.559291
2.285566 7.686382 -0.420258
2.295823 7.715934 1.858546
2.295605 7.710292 -0.140422
2.304517 7.735289 2.162692
1.575139 5.263556 -1.472163
2.307713 7.706677 0.140422
1.804430 6.022111 -1.451384
7.308807 24.376972 1.333730
2.110994 7.040771 -1.428778
4.805844 16.018738 1.463171
2.318476 7.722986 -1.277131
3.404904 11.334758 1.453170
2.365728 7.870419 -1.009078
2.361209 7.850404 1.298406
2.314403 7.694784 -0.702998
2.318659 7.704060 1.563871
2.315261 7.687920 -0.420781
2.323304 7.709741 1.858995
2.320198 7.694572 -0.140282
2.338761 7.751240 2.169421
1.591260 5.250631 -1.470092
2.338665 7.711969 0.140666
1.825438 6.015776 -1.451384
7.402553 24.379980 1.335300
2.133275 7.025845 -1.427251
4.808450 15.826480 1.447134
2.349441 7.728076 -1.279321
3.409205 11.206954 1.438302
2.396657 7.873507 -1.010541
2.390899 7.849673 1.299658
2.338345 7.677130 -0.702127
2.350115 7.710945 1.566924
2.347328 7.696984 -0.421723
2.351906 7.707176 1.860345
2.349961 7.695991 -0.140457
2.363544 7.735640 2.167351
1.608096 5.243478 -1.469575
2.364228 7.704171 0.140666
1.845379 6.009689 -1.451384
7.473382 24.322844 1.333520
2.155407 7.014979 -1.426488
4.805872 15.631431 1.430749
2.373896 7.716465 -1.278696
3.412474 11.085548 1.424165
2.420418 7.857927 -1.009566
2.418082 7.845476 1.300283
