# This PCD file was generated using the MATLAB® pcwrite function
# from Computer Vision Toolbox®.
# .PCD v.7 - Point Cloud Data file format
VERSION .7
FIELDS x y z
SIZE 4 4 4
TYPE F F F
COUNT 1 1 1
WIDTH 1624
HEIGHT 1
VIEWPOINT 0 0 0 1 0 0 0
POINTS 1624
DATA ascii
-20.170631 6.417878 -2.598986
-23.679136 7.538762 3.935892
-23.469198 7.471923 -2.154839
-23.685907 7.545477 4.832047
-23.442118 7.472315 -1.289453
-24.625851 7.854378 5.967502
-32.075039 10.236452 -0.587692
-23.666235 7.557405 6.656826
-7.520198 2.411576 -2.116105
-23.435364 7.519759 0.429608
-9.069454 2.911883 -2.199121
-23.466351 7.534220 1.291651
-11.353323 3.647338 -2.317948
-29.434542 9.461730 2.704966
-15.138008 4.869026 -2.518595
-23.386194 7.526497 3.016510
-20.115225 6.473784 -2.594599
-23.368202 7.525207 3.888335
-23.181273 7.469483 -2.130784
-23.412777 7.548583 4.781674
-23.153584 7.469475 -1.275009
-24.625637 7.944368 5.973800
-32.094200 10.359962 -0.588670
-23.460890 7.577657 6.606098
-7.497459 2.431733 -2.111964
-23.201073 7.529533 0.425769
-9.039361 2.935320 -2.194173
-23.190489 7.530565 1.277835
-11.326229 3.680115 -2.314895
-29.497744 9.590088 2.713681
-15.057912 4.898419 -2.507958
-23.194996 7.549939 2.995061
-20.104973 6.544141 -2.596061
-23.136511 7.535368 3.853920
-22.891167 7.459887 -2.106380
-23.130033 7.542190 4.729010
-22.885643 7.466918 -1.261611
-25.366140 8.276232 6.160059
-32.093887 10.477506 -0.589298
-23.270357 7.601427 6.559510
-7.496697 2.458989 -2.114034
-22.959377 7.535341 0.421790
-9.022171 2.962847 -2.192373
-22.936367 7.536658 1.265274
-11.313963 3.717654 -2.314895
-29.488489 9.695323 2.715773
-15.049091 4.950796 -2.509209
-23.150976 7.620609 2.992624
-20.036757 6.599377 -2.590211
-22.854914 7.531991 3.811370
-22.658157 7.467148 -2.087206
-22.862514 7.538925 4.679400
-22.625568 7.465170 -1.248631
-25.355606 8.370831 6.164559
-23.375893 7.721784 -0.429713
-23.023571 7.609858 6.497394
-7.495401 2.487578 -2.116105
-22.708996 7.541069 0.417671
-9.022868 2.998009 -2.195072
-22.671116 7.537283 1.252086
-11.297190 3.755885 -2.314131
-29.473375 9.804481 2.717516
-15.001729 4.993316 -2.504203
-23.116699 7.698866 2.991649
-20.028666 6.674294 -2.592161
-22.562382 7.523004 3.766943
-22.401360 7.469314 -2.065940
-22.646097 7.555309 4.640475
-22.375824 7.469479 -1.236280
-32.092030 10.725387 -0.590624
-22.696396 7.589702 6.412501
-7.466527 2.506961 -2.110410
-22.432318 7.536232 0.413064
-9.008655 3.028248 -2.194173
-22.417503 7.539964 1.239525
-11.265404 3.789037 -2.310315
-14.965486 5.039351 -2.501075
-19.982670 6.736557 -2.589236
-22.303885 7.523425 3.728147
-22.162403 7.480010 -2.046417
-22.351723 7.543907 4.585522
-22.133896 7.474686 -1.224347
-25.355623 8.567610 6.178956
-32.069550 10.842467 -0.590904
-22.369650 7.567357 6.327609
-7.462777 2.536176 -2.111964
-22.201395 7.544999 0.409294
-9.003564 3.061555 -2.195522
-22.152802 7.537112 1.226336
-11.251440 3.830304 -2.310315
-29.447723 10.030553 2.721699
-14.801074 5.044460 -2.476671
-23.092455 7.870305 2.995549
-19.944004 6.801149 -2.587286
-22.068098 7.529791 3.693105
-21.902353 7.477499 -2.024802
-22.093548 7.547085 4.538201
-21.894680 7.483419 -1.212624
-25.371994 8.676875 6.190653
-32.103409 10.978928 -0.592230
-22.079895 7.555332 6.253068
-7.461185 2.564722 -2.114034
-21.950455 7.549575 0.405175
-8.979383 3.090096 -2.192373
-21.924854 7.549335 1.215241
-11.260277 3.877225 -2.314895
-29.442673 10.143668 2.724488
-14.645178 5.048456 -2.453518
-23.022165 7.940656 2.990186
-19.915190 6.872902 -2.586799
-21.820023 7.534544 3.656187
-21.660118 7.483559 -2.004931
-21.825836 7.540815 4.488591
-21.664557 7.489319 -1.201320
-25.371017 8.775586 6.197852
-32.081848 11.103065 -0.592579
-21.858553 7.569197 6.198199
-7.442612 2.588878 -2.111446
-21.708658 7.551257 0.401196
-8.957499 3.117580 -2.189673
-21.690891 7.553566 1.203727
-11.227451 3.912009 -2.311079
-29.480547 10.277757 2.731461
-14.496015 5.056557 -2.431617
-23.968964 8.360948 3.116931
-19.883581 6.939761 -2.585824
-21.599638 7.542933 3.623648
-21.426968 7.486824 -1.985756
-21.594198 7.549485 4.446613
-21.406961 7.488224 -1.188550
-25.364435 8.877524 6.204150
-32.095745 11.233475 -0.593556
-21.729891 7.609701 6.169211
-7.433986 2.613545 -2.111446
-21.485981 7.557973 0.397566
-8.942886 3.147532 -2.188774
-21.454718 7.551188 1.192004
-11.203306 3.945306 -2.308789
-29.521473 10.401933 2.738433
-14.348757 5.058624 -2.409717
-23.965839 8.453809 3.120343
-19.829283 6.998560 -2.581924
-21.421759 7.560609 3.597993
-21.206638 7.488841 -1.967628
-21.358017 7.546491 4.403109
-21.189941 7.491270 -1.177873
-25.378950 8.977184 6.214948
-32.077171 11.346517 -0.593905
-21.675402 7.671401 6.160929
-7.419357 2.637536 -2.109893
-21.253542 7.555503 0.393726
-8.939744 3.179784 -2.190573
-21.213720 7.549694 1.180071
-11.200564 3.988338 -2.311079
-21.178135 7.545359 1.966931
-14.197926 5.058445 -2.387190
-23.971331 8.545235 3.124730
-19.791008 7.058938 -2.579974
-21.235239 7.578236 3.571086
-20.970217 7.487782 -1.948105
-21.140587 7.548616 4.363420
-20.969376 7.491609 -1.166987
-25.374729 9.070478 6.221247
-32.097622 11.479969 -0.595022
-21.655764 7.749625 6.162999
-7.412388 2.662778 -2.110410
-21.020037 7.555243 0.389887
-8.928591 3.210970 -2.190573
-20.969238 7.545256 1.167929
-11.187276 4.025462 -2.311079
-20.946791 7.541308 1.947757
-14.031504 5.054419 -2.362161
-23.982441 8.643667 3.130093
-19.743839 7.119899 -2.577049
-21.011694 7.581249 3.537922
-20.754108 7.488309 -1.930325
-20.918367 7.551702 4.322968
-20.747736 7.494195 -1.156101
-20.900387 7.553458 5.130683
-20.691444 7.482028 -0.384058
-20.934637 7.574098 5.965261
-7.399416 2.687317 -2.109375
-20.783035 7.552086 0.385977
-8.902675 3.236790 -2.186974
-20.755081 7.550125 1.157462
-11.176846 4.065827 -2.311842
-20.744350 7.550326 1.931371
-13.872708 5.051995 -2.338383
-20.699322 7.542115 2.705012
-19.722597 7.190135 -2.577537
-20.799524 7.586856 3.506635
-20.559383 7.499262 -1.914637
-20.685322 7.549290 4.280228
-20.511330 7.489846 -1.144378
-20.797018 7.598282 5.111788
-20.544998 7.510270 -0.381824
-20.759296 7.592714 5.922815
-7.389991 2.713130 -2.109375
-20.531300 7.541845 0.381789
-8.887664 3.266500 -2.186074
-20.533646 7.550843 1.146576
-11.151530 4.100755 -2.309552
-20.553322 7.562151 1.916032
-13.728934 5.053982 -2.317107
-20.512669 7.555323 2.684051
-19.701103 7.260309 -2.578024
-20.572748 7.585603 3.472846
-20.338669 7.499293 -1.896509
-20.474653 7.553498 4.242066
-20.331415 7.504687 -1.135795
-20.532722 7.583059 5.053300
-20.364847 7.525105 -0.378962
-20.555094 7.599481 5.872087
-7.369608 2.734879 -2.106270
-20.246147 7.517407 0.376972
-8.881689 3.299541 -2.187424
-20.327440 7.555671 1.136528
-11.129786 4.136920 -2.308026
-20.336323 7.563007 1.898252
-13.589019 5.056408 -2.296458
-20.326181 7.567317 2.663089
-19.619835 7.308242 -2.570712
-20.212963 7.533201 3.416529
-20.118206 7.497886 -1.878381
-20.271566 7.559072 4.205431
-20.106745 7.501603 -1.124700
-20.294346 7.575636 5.001112
-20.151127 7.526181 -0.375471
-20.343859 7.602205 5.819288
-7.360017 2.760585 -2.106270
-20.017588 7.512154 0.373202
-8.857345 3.325730 -2.184275
-20.136412 7.564766 1.127317
-11.100576 4.170220 -2.304973
-20.104649 7.556838 1.879078
-13.489932 5.073221 -2.282692
-20.184452 7.594875 2.647977
-19.594204 7.376684 -2.570712
-20.016474 7.539651 3.387745
-19.905458 7.497835 -1.860949
-20.039303 7.552239 4.162689
-19.893553 7.501275 -1.114233
-20.089094 7.579019 4.957021
-20.057383 7.571048 -0.374215
-20.277437 7.658161 5.807899
-7.344916 2.784205 -2.104717
-19.815487 7.515326 0.369921
-8.871191 3.366306 -2.190573
-19.926897 7.565536 1.117059
-11.104305 4.215911 -2.308789
-19.888168 7.554809 1.861298
-13.446290 5.110450 -2.278312
-20.189360 7.677281 2.652121
-19.520096 7.426689 -2.564375
-19.801729 7.537791 3.355833
-19.692961 7.496387 -1.843518
-19.825678 7.550869 4.123765
-19.676878 7.498135 -1.103556
-19.880428 7.579668 4.912031
-20.053253 7.649569 -0.374633
-20.286680 7.742674 5.818253
-7.327937 2.807063 -2.102646
-19.609877 7.515747 0.366570
-8.837552 3.388879 -2.185175
-19.715214 7.560065 1.106592
-11.063859 4.244802 -2.303446
-19.697992 7.561349 1.845959
-13.413616 5.151690 -2.275809
-20.182821 7.755541 2.654802
-19.486641 7.491927 -2.563400
-19.618057 7.542452 3.328926
-19.495596 7.499276 -1.827482
-19.645288 7.560799 4.091708
-19.482840 7.502176 -1.094136
-19.686552 7.584565 4.870640
-20.066963 7.731124 -0.375366
-20.322180 7.833529 5.835852
-7.327102 2.836110 -2.105234
-19.413280 7.514322 0.363359
-8.826265 3.418167 -2.185175
-19.502468 7.556677 1.096124
-11.059958 4.287654 -2.305736
-19.500584 7.563776 1.829922
-13.407509 5.200429 -2.277686
-20.205109 7.841101 2.661139
-19.387669 7.527766 -2.553650
-19.396427 7.535063 3.295762
-19.283596 7.495104 -1.810050
-19.470058 7.567578 4.060416
-19.260540 7.490012 -1.083040
-19.505108 7.589038 4.831949
-20.017492 7.792419 -0.374948
-20.309114 7.910024 5.839993
-7.312259 2.858283 -2.103681
-19.223043 7.517951 0.360287
-8.807020 3.446115 -2.183375
-19.330908 7.567912 1.087960
-11.042024 4.322873 -2.304973
-19.334402 7.573177 1.816674
-13.312029 5.216927 -2.264546
-20.188707 7.915926 2.662602
-19.202351 7.533051 -2.532689
-19.208191 7.539211 3.268229
-19.097826 7.499740 -1.795060
-19.249819 7.559428 4.019964
-19.070692 7.492926 -1.073829
-19.271742 7.575801 4.780660
-20.049717 7.885672 -0.376064
-20.302952 7.989357 5.846205
-7.296344 2.882936 -2.102129
-19.036741 7.521810 0.357286
-8.805812 3.481133 -2.186074
-19.126074 7.564827 1.077911
-11.026105 4.363317 -2.304973
-19.154612 7.583842 1.802381
-13.219357 5.236583 -2.252031
-20.208933 8.005363 2.668939
-19.002464 7.531282 -2.509778
-19.031187 7.546503 3.242574
-18.893744 7.495823 -1.778326
-19.046808 7.560397 3.983329
-18.894606 7.503794 -1.065456
-19.077232 7.580183 4.739269
-20.053661 7.968160 -0.376658
-20.307253 8.073025 5.855522
-7.291618 2.910535 -2.103681
-18.860479 7.532197 0.354493
-8.789374 3.511941 -2.185175
-18.940050 7.567813 1.068910
-10.996222 4.395947 -2.301920
-18.913433 7.564835 1.782161
-13.153314 5.263614 -2.243896
-20.208942 8.091179 2.672839
-18.834684 7.544779 -2.491253
-18.909372 7.574697 3.226305
-18.715813 7.500951 -1.764032
-18.849016 7.558150 3.947457
-18.716293 7.508728 -1.056872
-18.896935 7.585027 4.701027
-20.070265 8.055989 -0.377496
-20.311218 8.156816 5.864840
-7.274248 2.933080 -2.101611
-18.657358 7.522911 0.351142
-8.759606 3.533778 -2.180676
-18.776464 7.578557 1.061164
-10.977170 4.432834 -2.301157
-18.739124 7.571099 1.768216
-13.135786 5.307203 -2.243896
-20.193045 8.162615 2.674301
-18.651299 7.543183 -2.470292
-18.882816 7.640656 3.226305
-18.530691 7.501933 -1.749041
-18.656427 7.552836 3.912348
-18.517281 7.500271 -1.047033
-18.716356 7.584707 4.662336
-20.080940 8.141773 -0.378229
-20.325584 8.245100 5.877263
-7.269849 2.959372 -2.103164
-18.486528 7.529159 0.348420
-8.750830 3.565802 -2.181576
-18.590839 7.579210 1.052162
-10.944231 4.461801 -2.297340
-18.544191 7.563972 1.752179
-13.120840 5.354513 -2.244522
-20.204859 8.249560 2.679663
-18.452112 7.537683 -2.447380
-18.856031 7.706519 3.226305
-18.358168 7.503041 -1.735096
-18.499109 7.564413 3.884871
-18.343103 7.504363 -1.038659
-18.513021 7.577650 4.618245
-20.080154 8.223186 -0.378752
-20.314556 8.323323 5.882440
-7.263047 2.986199 -2.104199
-18.315884 7.534306 0.345697
-8.745536 3.599293 -2.183375
-18.368507 7.563450 1.041067
-10.924958 4.498481 -2.296577
-18.388725 7.575529 1.739977
-13.091111 5.395765 -2.242645
-22.638748 9.335638 3.006761
-18.256865 7.532390 -2.424956
-18.803453 7.761741 3.221925
-18.177166 7.503221 -1.720454
-18.309277 7.561499 3.850526
-18.158051 7.502754 -1.029658
-18.335182 7.579685 4.580453
-30.643362 12.674104 -0.578826
-21.342131 8.831474 6.188881
-7.231169 3.002644 -2.097987
-18.126968 7.530684 0.342626
-8.718523 3.623816 -2.179776
-18.203159 7.566062 1.033112
-10.916440 4.539604 -2.298104
-18.211329 7.576914 1.725684
-13.068549 5.439910 -2.242019
-22.551046 9.391709 2.999449
-18.114502 7.544047 -2.409357
-18.792198 7.830132 3.224428
-17.992712 7.500696 -1.705464
-18.155933 7.572464 3.823812
-17.995354 7.509171 -1.021912
-18.169666 7.581909 4.545361
-30.638073 12.791053 -0.579525
-21.323423 8.906667 6.191987
-7.217610 3.025112 -2.096952
-17.935923 7.521156 0.339484
-8.719037 3.657985 -2.182925
-18.030630 7.564570 1.024738
-10.879603 4.566659 -2.293524
-18.039143 7.575548 1.711739
-13.039511 5.478627 -2.240142
-22.567356 9.486447 3.005786
-17.932009 7.537926 -2.388396
-18.755203 7.887812 3.222550
-17.824495 7.500049 -1.691867
-18.007679 7.580832 3.797863
-17.826780 7.508336 -1.013748
-17.993565 7.578582 4.507569
-30.647087 12.914326 -0.580502
-7.218214 3.053546 -2.100058
-17.770926 7.521358 0.336831
-8.685325 3.677760 -2.177526
-17.864349 7.568247 1.016783
-10.860785 4.601181 -2.292761
-17.878174 7.577790 1.698840
-13.017634 5.520296 -2.239516
-17.766714 7.541522 -2.369871
-19.778479 8.399539 3.403389
-17.647842 7.498330 -1.677574
-17.892099 7.602111 3.778781
-17.640034 7.498652 -1.004536
-17.827126 7.581857 4.472477
-30.645977 13.040026 -0.581340
-17.867304 7.606309 5.203298
-7.199867 3.076946 -2.097987
-17.604813 7.523621 0.334179
-8.670643 3.707287 -2.177076
-17.676228 7.561434 1.007572
-10.833016 4.636324 -2.290471
-17.685442 7.572680 1.683152
-13.000944 5.569526 -2.240142
-22.538755 9.655467 3.010660
-17.590666 7.539370 -2.349885
-19.774458 8.479424 3.407769
-17.528179 7.519830 -1.668684
-17.723394 7.607243 3.749015
-17.469286 7.501784 -0.996372
-17.648815 7.582528 4.434685
-30.662745 13.173752 -0.582526
-17.698658 7.607601 5.161887
-7.203274 3.108182 -2.102129
-17.448605 7.532611 0.331735
-8.646262 3.734408 -2.174377
-17.509056 7.565959 0.999617
-10.823977 4.677224 -2.291998
-17.530888 7.579023 1.670950
-12.974172 5.611738 -2.238890
-22.532368 9.750620 3.014560
-17.420824 7.542269 -2.330873
-19.761372 8.559700 3.410897
-17.320826 7.502570 -1.651427
-17.545416 7.603489 3.716959
-17.314720 7.507104 -0.989045
-17.479216 7.582048 4.398693
-30.647274 13.300379 -0.583155
-17.528893 7.610868 5.120476
-7.167585 3.122505 -2.094882
-17.286551 7.534352 0.329152
-8.651038 3.772354 -2.178876
-17.347073 7.567932 0.991871
-10.803985 4.713408 -2.291234
-17.361891 7.578009 1.657354
-12.961745 5.660154 -2.240142
-22.538214 9.846698 3.019922
-17.259789 7.544205 -2.312837
-19.763948 8.642874 3.416529
-17.159447 7.503912 -1.638528
-17.407253 7.615893 3.693299
-17.145699 7.505030 -0.980881
-17.313408 7.582041 4.363601
-30.637295 13.423320 -0.583853
-17.371290 7.614616 5.082171
-7.149568 3.144395 -2.092811
-17.128363 7.536658 0.326639
-8.623548 3.796247 -2.175277
-17.188946 7.570477 0.984335
-10.776686 4.746344 -2.288945
-17.200413 7.579117 1.644454
-12.927450 5.698987 -2.237639
-22.540028 9.941339 3.024797
-17.091690 7.541898 -2.293825
-19.766190 8.726168 3.422161
-17.001915 7.505825 -1.625977
-17.236891 7.613159 3.662770
-16.998823 7.511556 -0.973972
-17.156727 7.584905 4.330758
-30.648771 13.556075 -0.584970
-17.192675 7.607977 5.037654
-7.138549 3.169333 -2.092811
-16.963058 7.534708 0.323986
-8.608463 3.825535 -2.174827
-17.045610 7.578506 0.977636
-10.767227 4.787127 -2.290471
-17.039143 7.579187 1.631556
-12.882212 5.732834 -2.233259
-22.526949 10.029647 3.027722
-16.931076 7.541739 -2.275788
-19.778913 8.814409 3.429670
-16.842762 7.505923 -1.613253
-16.969934 7.566152 3.611633
-16.848469 7.515516 -0.966855
-17.002016 7.587571 4.298365
-30.666996 13.692327 -0.586226
-17.063711 7.622242 5.007631
-7.134494 3.197392 -2.094882
-16.812576 7.538242 0.321613
-8.586167 3.851571 -2.172577
-16.869638 7.570900 0.969053
-10.736124 4.818249 -2.287418
-16.896257 7.586390 1.620400
-12.865724 5.779389 -2.233884
-22.528017 10.124489 3.032597
-16.799635 7.553578 -2.261652
-19.776846 8.896368 3.434675
-16.696535 7.510729 -1.601748
-16.807358 7.564103 3.582630
-16.683722 7.511963 -0.958899
-16.847498 7.589246 4.265972
-30.655479 13.815717 -0.586924
-16.896111 7.618235 4.966220
-7.130329 3.225462 -2.096952
-16.669567 7.544112 0.319379
-8.581547 3.885540 -2.174827
-16.715757 7.572052 0.961726
-10.722816 4.857316 -2.288182
-16.731752 7.582818 1.607152
-12.854468 5.828340 -2.235449
-22.525080 10.217827 3.036984
-16.617710 7.541623 -2.240690
-18.662880 8.473712 3.246328
-16.545042 7.512126 -1.589721
-16.659304 7.567513 3.556680
-16.533754 7.513968 -0.951782
-16.714466 7.599609 4.238978
-30.647112 13.940857 -0.587692
-16.718195 7.608354 4.921703
-7.094425 3.239097 -2.089705
-16.533993 7.552406 0.317285
-8.560842 3.912232 -2.173027
-16.562075 7.572221 0.954399
-10.695083 4.889819 -2.285892
-16.567482 7.578190 1.593904
-12.828656 5.870708 -2.234510
-16.569145 7.585946 2.237521
-16.436071 7.528490 -2.219728
-18.608047 8.527286 3.241948
-16.504292 7.566708 3.529203
-16.393055 7.519173 -0.945188
-16.546143 7.592886 4.202985
-30.663687 14.077788 -0.588949
-16.568651 7.610218 4.885468
-7.083075 3.263842 -2.089705
-16.420361 7.569890 0.315609
-8.541823 3.939642 -2.171677
-16.415852 7.574756 0.947490
-10.681514 4.928764 -2.286655
-16.410686 7.575851 1.581354
-12.786565 5.905514 -2.230756
-16.441652 7.597104 2.223872
-16.294371 7.532507 -2.204129
-18.556654 8.582238 3.238194
-16.353056 7.566564 3.502490
-16.250710 7.522653 -0.938488
-16.381611 7.586721 4.167893
-30.657906 14.204916 -0.589787
-16.422804 7.612760 4.850269
-7.073390 3.289363 -2.090223
-16.310434 7.588360 0.314004
-8.528020 3.969433 -2.171677
-16.271133 7.573526 0.940582
-10.650006 4.959393 -2.283602
-16.293839 7.591019 1.572638
-12.758713 5.946771 -2.229504
-16.289095 7.595729 2.206810
-16.131258 7.525557 -2.185605
-18.538832 8.648739 3.240071
-16.202023 7.565457 3.475777
-16.085018 7.514242 -0.930429
-16.236744 7.588570 4.137750
-30.664978 14.331896 -0.590834
-16.267967 7.606627 4.811964
-7.074106 3.319779 -2.093846
-16.321386 7.659397 0.314702
-8.505990 3.993551 -2.169428
-16.125284 7.574234 0.933674
-10.636183 4.998208 -2.284365
-16.141029 7.588508 1.560436
-12.728196 5.984006 -2.227627
-16.145260 7.593941 2.190724
-15.962521 7.511393 -2.166106
-16.066725 7.567279 3.452116
-15.960641 7.520717 -0.924672
-16.100441 7.590021 4.109406
-30.672642 14.466156 -0.591951
-16.143476 7.617202 4.782976
-7.052581 3.338260 -2.090740
-16.280094 7.709473 0.314423
-8.484954 4.019881 -2.167628
-15.990460 7.579154 0.927393
-10.591165 5.019998 -2.278260
-16.025764 7.599309 1.551721
-12.716155 6.032633 -2.229192
-16.011051 7.599183 2.176099
-15.799923 7.502351 -2.147582
-18.485140 8.781340 3.241323
-15.847690 7.528423 -1.534987
-15.937368 7.574438 3.429983
-15.822460 7.523207 -0.918182
-15.955942 7.590094 4.079262
-30.650848 14.586884 -0.592509
-15.998182 7.617032 4.747777
-7.030427 3.357861 -2.087634
-16.281952 7.780048 0.314981
-8.481420 4.054518 -2.170328
-15.844988 7.578047 0.920485
-10.559409 5.050159 -2.275207
-15.844576 7.581248 1.536730
-12.686109 6.072722 -2.227627
-15.866264 7.598433 2.160012
-15.662643 7.504278 -2.132470
-18.489996 8.862891 3.247580
-15.675782 7.513942 -1.520868
-15.827632 7.590122 3.412046
-15.666451 7.516191 -0.910646
-15.816911 7.591776 4.050468
-30.661036 14.723211 -0.593696
-15.846120 7.612598 4.710507
-7.004741 3.375672 -2.083493
-16.251093 7.835099 0.314911
-8.467216 4.084099 -2.170328
-15.733421 7.588901 0.915461
-10.509890 5.071629 -2.268337
-15.710361 7.584538 1.526271
-12.661278 6.115248 -2.227001
-15.739553 7.605406 2.146363
-15.537580 7.507812 -2.118821
-18.485405 8.936192 3.251960
-15.545431 7.518300 -1.510758
-15.770998 7.630788 3.405559
-15.557422 7.530805 -0.905831
-15.681145 7.590695 4.022125
-30.648035 14.842238 -0.594394
-15.716474 7.614564 4.679448
-7.003933 3.403949 -2.086599
-16.243006 7.897692 0.315260
-8.439607 4.105336 -2.166729
-15.607593 7.592109 0.909599
-10.459473 5.090131 -2.261087
-15.581224 7.586009 1.516161
-12.626720 6.150280 -2.224498
-15.578624 7.591470 2.127839
-15.405528 7.507121 -2.104196
-18.494734 9.016487 3.258843
-15.427295 7.524392 -1.501693
-15.735020 7.677879 3.403269
-15.392368 7.514009 -0.897666
-15.547312 7.589648 3.994231
-30.695679 14.991179 -0.596279
-15.576578 7.610668 4.645284
-6.976995 3.419505 -2.081941
-16.202362 7.944469 0.314981
-8.424196 4.132439 -2.166279
-15.484176 7.599028 0.903947
-10.361462 5.085001 -2.243532
-15.445099 7.583196 1.505354
-12.609804 6.193858 -2.225124
-15.457157 7.595813 2.114677
-15.272342 7.508302 -2.089572
-18.491507 9.094940 3.263849
-15.280682 7.515714 -1.489840
-15.716519 7.733485 3.404796
-15.267018 7.515613 -0.891805
-15.442056 7.605128 3.973985
-30.686213 15.119447 -0.597117
-15.439019 7.610330 4.612156
-6.973674 3.448120 -2.084529
-16.911205 8.365380 0.329327
-8.425439 4.169602 -2.170328
-15.360900 7.605178 0.898294
-10.267994 5.083682 -2.227123
-15.325698 7.591075 1.496290
-12.588105 6.237840 -2.225124
-15.323836 7.596820 2.100053
-15.135783 7.506879 -2.074460
-18.498579 9.178749 3.270732
-15.147270 7.515875 -1.479382
-15.703496 7.795282 3.407849
-15.161985 7.529768 -0.887199
-15.352587 7.627769 3.957789
-30.740690 15.279876 -0.599211
-15.308571 7.612569 4.581097
-6.961597 3.472440 -2.084529
-16.917688 8.442219 0.330025
-8.400371 4.193764 -2.167628
-15.259214 7.621265 0.893898
-10.188714 5.088787 -2.213766
-15.174344 7.582186 1.484088
-12.555653 6.276443 -2.223247
-15.194251 7.598762 2.085916
-15.017169 7.513483 -2.061786
-18.487623 9.253876 3.274487
-15.026984 7.524948 -1.470317
-15.676191 7.850047 3.407849
-15.030252 7.529870 -0.881024
-15.230047 7.633289 3.933044
-15.525023 7.784517 -0.303148
-15.181754 7.615716 4.551075
-6.948822 3.497934 -2.084529
-16.911333 8.512915 0.330479
-8.378719 4.219553 -2.165829
-15.136201 7.625957 0.888246
-10.098114 5.089869 -2.198120
-15.032597 7.580339 1.472932
-12.536093 6.324196 -2.223873
-15.059522 7.597213 2.071048
-14.888062 7.513980 -2.047649
-18.488714 9.335267 3.280431
-14.906371 7.529746 -1.461079
-15.629788 7.898598 3.404032
-14.902739 7.534441 -0.875162
-15.120235 7.647720 3.911899
-15.390687 7.784513 -0.301054
-15.044760 7.612842 4.517946
-6.929680 3.518668 -2.082458
-16.892500 8.581177 0.330723
-8.363196 4.250237 -2.165829
-15.008449 7.630694 0.882384
-10.019035 5.093943 -2.184763
-14.935011 7.596636 1.465960
-12.499854 6.360753 -2.221370
-14.939584 7.605527 2.058373
-14.775518 7.525251 -2.035949
-18.487814 9.420012 3.286376
-14.773481 7.527465 -1.450620
-15.616117 7.960238 3.407086
-14.758916 7.526530 -0.868254
-14.985825 7.645545 3.884005
-15.272999 7.795417 -0.299309
-14.906644 7.611702 4.484817
-6.920794 3.544597 -2.083493
-16.883799 8.651033 0.331142
-8.334437 4.272291 -2.162230
-14.878644 7.630176 0.876313
-9.931315 5.093050 -2.169498
-14.794949 7.590516 1.454804
-12.474062 6.402541 -2.220744
-14.845840 7.623173 2.049111
-14.646746 7.524176 -2.021812
-18.493475 9.504351 3.293259
-14.663831 7.536182 -1.442428
-15.722676 8.083824 3.436470
-14.640194 7.530500 -0.862811
-14.856811 7.645201 3.857461
-15.135465 7.791930 -0.297145
-14.783804 7.614160 4.455829
-6.904946 3.566961 -2.082458
-16.109154 8.325237 0.316517
-8.322935 4.303147 -2.163129
-14.747253 7.627929 0.870138
-9.845469 5.092510 -2.154615
-14.665730 7.589006 1.444694
-12.444619 6.442412 -2.219492
-14.711616 7.619261 2.034243
-14.525214 7.525942 -2.008651
-18.488245 9.583392 3.298265
-14.531301 7.532308 -1.431969
-15.730962 8.157637 3.444484
-14.528722 7.537411 -0.857786
-14.731444 7.645841 3.831816
-15.008787 7.793116 -0.295190
-14.667989 7.619411 4.428912
-6.882174 3.585685 -2.079352
-16.026794 8.353689 0.315470
-8.307864 4.332174 -2.163129
-14.633769 7.634090 0.865009
-9.763230 5.093246 -2.140495
-14.533172 7.584843 1.434235
-12.437815 6.494041 -2.222308
-14.565281 7.608075 2.017669
-14.403852 7.526949 -1.995489
-18.489691 9.666174 3.304522
-14.416637 7.536834 -1.423253
-15.745883 8.235250 3.454025
-14.412072 7.540854 -0.852448
-14.569998 7.626725 3.796724
-14.900002 7.802785 -0.293584
-14.531785 7.613185 4.395783
-6.866195 3.607891 -2.078317
-16.902023 8.885053 0.333306
-8.303041 4.366588 -2.165829
-14.516454 7.634236 0.859566
-9.674154 5.089818 -2.124849
-14.429031 7.594696 1.426565
-12.395845 6.527291 -2.218867
-14.457846 7.616307 2.006457
-14.286170 7.529056 -1.982814
-18.492485 9.745855 3.310780
-14.282734 7.530425 -1.412620
-15.730933 8.297487 3.457078
-14.293807 7.542645 -0.847005
-14.400248 7.602030 3.759382
-14.785625 7.805475 -0.291839
-14.446671 7.629757 4.377666
-6.862093 3.636359 -2.080905
-16.022570 8.490677 0.316517
-8.274740 4.386796 -2.162230
-14.392668 7.633396 0.853809
-9.600832 5.094111 -2.112637
-14.310924 7.596437 1.417501
-12.370643 6.566509 -2.218241
-14.316797 7.602762 1.990370
-14.166459 7.526097 -1.969653
-14.184234 7.541890 -1.405474
-14.169971 7.537479 -0.841144
-14.299268 7.609458 3.739586
-14.673566 7.811929 -0.290164
-14.315939 7.624743 4.346090
-6.844885 3.656364 -2.079352
-15.876435 8.484346 0.314213
-8.269690 4.421167 -2.164929
-14.265548 7.629897 0.847843
-9.521564 5.092588 -2.098899
-14.204845 7.600615 1.409483
-12.333713 6.602193 -2.215738
-14.192173 7.600212 1.976721
-14.052611 7.528630 -1.957466
-18.498863 9.914846 3.324233
-14.071342 7.541825 -1.396758
-15.751950 8.446121 3.474250
-14.059093 7.541578 -0.836119
-14.166157 7.602193 3.711692
-14.596875 7.836617 -0.289186
-14.183717 7.617995 4.313996
-6.832081 3.680233 -2.079352
-15.832641 8.532125 0.313934
-8.259350 4.452783 -2.166279
-14.152693 7.633186 0.842714
-9.434612 5.088512 -2.083634
-14.083543 7.599064 1.400070
-12.314067 6.647086 -2.216364
-14.092197 7.610090 1.966484
-13.935430 7.528570 -1.944791
-18.490208 9.993447 3.328926
-13.952034 7.540690 -1.387519
-15.732733 8.506657 3.476540
-13.944847 7.543092 -0.830886
-14.046984 7.601514 3.687397
-29.404398 15.918801 -0.583643
-14.073803 7.622378 4.288632
-6.812402 3.700371 -2.077282
-15.876554 8.627440 0.315400
-8.236910 4.477861 -2.164479
-14.036478 7.633876 0.837375
-9.371951 5.097028 -2.073712
-13.962424 7.596759 1.390657
-12.280379 6.684363 -2.214487
-13.981866 7.613663 1.954785
-13.832362 7.535387 -1.934067
-18.482960 10.073053 3.333932
-13.832905 7.538814 -1.378281
-15.735696 8.579375 3.483791
-13.834268 7.545820 -0.825861
-13.929702 7.601029 3.663553
-29.390781 16.044333 -0.584481
-13.965726 7.627014 4.263785
-6.796056 3.722273 -2.076247
-15.727090 8.617470 0.313026
-8.221229 4.506587 -2.164479
-13.925687 7.636730 0.832351
-9.299017 5.099503 -2.061501
-13.855468 7.601372 1.382639
-12.244850 6.720533 -2.212296
-13.859501 7.609875 1.941379
-13.725940 7.539662 -1.922855
-18.492701 10.162242 3.342066
-13.727932 7.543872 -1.370437
-15.738340 8.652222 3.491042
-13.734342 7.553641 -0.821465
-13.841620 7.615785 3.647356
-29.383644 16.173836 -0.585458
-13.839174 7.620737 4.233244
-6.783022 3.745971 -2.076247
-15.598898 8.618158 0.311072
-8.176453 4.519231 -2.156831
-13.823374 7.640357 0.827746
-9.250233 5.114833 -2.054631
-13.738194 7.599538 1.373574
-12.209218 6.756540 -2.210106
-13.746017 7.610137 1.929192
-13.619658 7.543284 -1.911643
-18.507284 10.250308 3.350827
-13.621348 7.547327 -1.362419
-15.730360 8.719483 3.496002
-13.603091 7.543418 -0.815185
-13.724635 7.613950 3.623512
-29.385805 16.302223 -0.586575
-13.741194 7.626277 4.210986
-6.766528 3.767748 -2.075211
-15.458417 8.607578 0.308838
-8.164826 4.548217 -2.157730
-13.707644 7.638975 0.822407
-9.242612 5.152826 -2.056921
-13.628059 7.600864 1.365208
-12.176394 6.791218 -2.208229
-13.627097 7.603446 1.916030
-13.507902 7.540030 -1.899456
-18.509335 10.336037 3.357710
-13.511429 7.548190 -1.354052
-15.745923 8.796495 3.505925
-13.504776 7.547562 -0.810789
-13.612563 7.610920 3.600567
-29.398529 16.443756 -0.587972
-13.621768 7.622308 4.182516
-6.750628 3.788273 -2.074176
-15.341091 8.612540 0.307093
-8.155698 4.580506 -2.159530
-13.595573 7.638843 0.817278
-9.198088 5.168060 -2.050815
-13.550674 7.616727 1.359978
-12.156057 6.835616 -2.208855
-13.538188 7.615928 1.907255
-13.391542 7.536510 -1.886781
-18.486914 10.408338 3.360213
-13.415144 7.552875 -1.346905
-15.740782 8.865854 3.511649
-13.394827 7.547596 -0.805764
-13.484057 7.600975 3.573572
-29.396690 16.577700 -0.589089
-13.515998 7.625198 4.158187
-6.727274 3.806109 -2.071070
-15.213479 8.610879 0.305138
-8.134572 4.606066 -2.158180
-13.481936 7.637033 0.812045
-9.183409 5.202072 -2.051579
-13.437333 7.614866 1.351263
-12.126969 6.875082 -2.207916
-13.432092 7.618091 1.896043
-13.292639 7.542066 -1.876544
-18.484825 10.492309 3.366470
-13.312458 7.556383 -1.339235
-15.750711 8.944013 3.520808
-13.291987 7.550899 -0.801159
-13.421862 7.627776 3.564125
-29.390797 16.709866 -0.590136
-13.400299 7.621711 4.130752
-6.713947 3.829568 -2.071070
-15.079122 8.604464 0.303044
-8.118443 4.634435 -2.158180
-13.358069 7.628582 0.806183
-9.166899 5.235070 -2.051960
-13.331095 7.616258 1.343244
-12.090889 6.910512 -2.205726
-13.320977 7.616651 1.884100
-13.190415 7.545049 -1.865820
-18.509809 10.592089 3.377733
-13.201265 7.554317 -1.330694
-15.738136 9.009667 3.525006
-13.201426 7.560523 -0.797286
-13.379936 7.665863 3.560076
-29.384336 16.842190 -0.591183
-13.308252 7.630963 4.110564
-6.700540 3.852980 -2.071070
-14.969260 8.611180 0.301438
-8.085325 4.653026 -2.153681
-13.234431 7.619356 0.800322
-9.117944 5.249403 -2.045091
-13.204288 7.605075 1.333134
-12.064981 6.951690 -2.205413
-13.201440 7.609568 1.870938
-13.084891 7.545434 -1.854608
-13.202626 7.616396 2.414097
-13.091977 7.552565 -1.322327
-15.737200 9.082210 3.531875
-13.076360 7.549639 -0.791320
-13.366596 7.720318 3.563675
-29.387705 16.980667 -0.592439
-13.233030 7.649334 4.095552
-6.685377 3.875376 -2.070552
-13.482562 7.818714 0.272048
-8.069036 4.681218 -2.153681
-13.101983 7.601062 0.793832
-9.070699 5.264446 -2.038604
-13.084619 7.597098 1.323721
-12.025271 6.984831 -2.202598
-13.102709 7.613715 1.860701
-12.987714 7.546893 -1.844371
-13.098737 7.614470 2.399705
-13.001809 7.561155 -1.315877
-15.732551 9.152888 3.537981
-12.992962 7.562084 -0.787866
-13.339237 7.763621 3.563225
-29.403811 17.120287 -0.593905
-13.159183 7.664978 4.080541
-6.677494 3.900448 -2.072105
-13.384047 7.821004 0.270582
-8.041691 4.701066 -2.150532
-12.990491 7.594069 0.788598
-9.044718 5.289541 -2.036695
-13.000884 7.606239 1.317795
-11.996927 7.021676 -2.201659
-12.995163 7.608978 1.849002
-12.880389 7.541775 -1.832671
-13.001826 7.615931 2.386564
-12.902747 7.560915 -1.308382
-15.754616 9.235784 3.549811
-12.886841 7.557642 -0.782946
-13.311736 7.806828 3.562775
-29.405519 17.252108 -0.595092
-13.075381 7.674345 4.062424
-6.654533 3.916691 -2.069000
-13.285666 7.822731 0.269116
-8.034452 4.732654 -2.152782
-12.895075 7.598810 0.784411
-9.028819 5.320503 -2.037077
-12.896638 7.602764 1.309777
-11.961666 7.054397 -2.199469
-12.901470 7.611682 1.839252
-12.782183 7.544312 -1.822434
-12.886712 7.609039 2.370295
-12.793536 7.554023 -1.299841
-15.747567 9.301956 3.555153
-12.792929 7.559692 -0.778759
-13.289439 7.856219 3.564125
-29.407080 17.391293 -0.596349
-12.970366 7.673710 4.038095
-6.635836 3.936939 -2.067447
-13.172297 7.818027 0.267371
-7.997777 4.748732 -2.147383
-12.801501 7.603997 0.780329
-9.008504 5.350984 -2.036695
-12.794658 7.602953 1.302107
-11.914894 7.082986 -2.195401
-12.809987 7.618114 1.829990
-12.694355 7.552346 -1.813660
-12.790476 7.612555 2.357468
-12.702029 7.559914 -1.293217
-15.748740 9.376958 3.562786
-12.701259 7.565460 -0.774782
-13.258587 7.900566 3.563225
-29.408030 17.530699 -0.597605
-12.855563 7.666493 4.010660
-6.627028 3.963052 -2.069000
-13.093445 7.833162 0.266324
-7.972790 4.771616 -2.145133
-12.694343 7.600412 0.775410
-8.989771 5.382395 -2.036695
-12.692833 7.602523 1.294437
-11.881625 7.119457 -2.193837
-12.691375 7.607669 1.816828
-12.599817 7.555775 -1.803910
-12.696069 7.616508 2.344953
-12.612349 7.566283 -1.286767
-15.747896 9.451070 3.570036
-12.585731 7.556290 -0.769339
-13.164105 7.906663 3.545229
-29.404934 17.668261 -0.598792
-12.765806 7.673501 3.990990
-6.609845 3.984167 -2.067964
-12.997523 7.837514 0.264928
-7.952749 4.797403 -2.144233
-12.601043 7.604435 0.771327
-8.960841 5.407658 -2.034406
-12.597992 7.605593 1.287465
-11.846558 7.154758 -2.191960
-12.601876 7.613942 1.807810
-12.491819 7.550423 -1.792211
-12.598410 7.617847 2.331812
-12.526188 7.574177 -1.280666
-12.578568 7.608851 2.857556
-12.501180 7.565020 -0.765780
-12.584626 7.618522 3.396311
-12.505233 7.573437 -0.255189
-12.664592 7.672968 3.967696
-6.602500 4.011228 -2.070035
-12.471107 7.579568 0.254735
-7.930959 4.822097 -2.142884
-12.494222 7.599594 0.766408
-8.938556 5.436865 -2.033643
-12.510095 7.612236 1.281189
-11.819820 7.195043 -2.191647
-12.515881 7.621747 1.799279
-12.404360 7.556799 -1.783436
-12.485713 7.609352 2.315856
-12.421410 7.570162 -1.272648
-12.486555 7.612854 2.842673
-12.397967 7.561808 -0.761070
-12.496408 7.624846 3.379665
-12.412154 7.576410 -0.253828
-12.563538 7.671821 3.944402
-6.575279 4.026178 -2.065894
-12.391711 7.590673 0.253653
-7.917401 4.851790 -2.143784
-12.406320 7.605577 0.762640
-8.911156 5.462900 -2.031734
-12.401921 7.605860 1.272822
-11.777796 7.225929 -2.188519
-12.404609 7.613468 1.787092
-12.306855 7.556427 -1.773199
-12.388379 7.609466 2.302716
-12.313419 7.563422 -1.264281
-12.399691 7.619390 2.828934
-12.315346 7.570526 -0.757615
-12.409956 7.631670 3.363468
-12.320911 7.579871 -0.252501
-12.406707 7.635641 3.903509
-6.554609 4.045048 -2.063823
-12.288568 7.586614 0.252083
-7.903733 4.881444 -2.144683
-12.309660 7.602598 0.758243
-8.898712 5.498100 -2.033261
-12.304113 7.605112 1.265501
-11.728980 7.252450 -2.184138
-12.317182 7.619128 1.778318
-12.206129 7.553382 -1.762475
-12.314365 7.620360 2.293642
-12.214101 7.561260 -1.256786
-12.286225 7.608876 2.809090
-12.229421 7.576654 -0.753952
-12.316987 7.633875 3.345472
-12.237917 7.584869 -0.251315
-12.322211 7.640091 3.884874
-6.537169 4.065863 -2.062788
-12.205609 7.591411 0.250896
-7.857719 4.889096 -2.136585
-12.235569 7.615970 0.755313
-8.881133 5.530168 -2.033643
-12.226761 7.616409 1.260272
-11.696483 7.286083 -2.182574
-12.221088 7.615836 1.768081
-12.181013 7.593818 -1.762475
-12.225675 7.624619 2.282066
-12.143683 7.576429 -1.252254
-12.205959 7.615283 2.796497
-12.134761 7.573809 -0.749660
-12.238707 7.641655 3.331075
-12.143525 7.585167 -0.249918
-12.210274 7.629826 3.857957
-6.530197 4.091621 -2.064858
-12.111262 7.591489 0.249500
-7.840605 4.916495 -2.136585
-12.124313 7.605567 0.750079
-8.854429 5.554372 -2.031734
-12.117055 7.603961 1.251556
-11.659266 7.319515 -2.180384
-12.117100 7.609884 1.756869
-12.026686 7.556029 -1.743950
-12.118707 7.616793 2.267049
-12.040895 7.567888 -1.244235
-12.124455 7.623358 2.783903
-12.033862 7.569332 -0.745055
-12.129491 7.632433 3.308580
-12.057741 7.590227 -0.248697
-12.123081 7.634313 3.838804
-6.515876 4.114390 -2.064858
-12.030588 7.599545 0.248383
-7.826690 4.945916 -2.137485
-12.021723 7.599813 0.745369
-8.823373 5.577901 -2.029063
-12.029818 7.607873 1.245281
-11.630307 7.358057 -2.179758
-12.025045 7.610733 1.747363
-11.929795 7.553364 -1.733713
-12.025294 7.616769 2.254534
-11.950445 7.569360 -1.237612
-12.031433 7.623605 2.768639
-11.936518 7.566379 -0.740659
-12.033653 7.630896 3.289684
-11.955187 7.584067 -0.247126
-12.018066 7.626895 3.813958
-6.493324 4.131926 -2.062270
-11.934824 7.597466 0.246952
-7.797874 4.965878 -2.134336
-11.936164 7.604174 0.741705
-8.787289 5.598119 -2.025247
-11.932620 7.604846 1.237960
-11.601222 7.396483 -2.179132
-11.936481 7.613165 1.738344
-11.849806 7.560793 -1.725914
-11.925370 7.611932 2.240767
-11.846697 7.561716 -1.229593
-11.963385 7.639139 2.759098
-11.851123 7.570367 -0.736995
-11.977383 7.653968 3.281586
-11.871358 7.589129 -0.245939
-11.923016 7.625084 3.792217
-6.464226 4.145182 -2.057611
-11.869522 7.614244 0.246149
-7.790330 4.999383 -2.137035
-11.850722 7.608029 0.738042
-8.764389 5.626638 -2.024484
-11.832240 7.599076 1.230291
-11.555388 7.424124 -2.175378
-11.864746 7.625807 1.731764
-11.759893 7.561312 -1.716652
-11.860514 7.628938 2.233572
-11.774985 7.573925 -1.224887
-11.944900 7.686164 2.761006
-11.762489 7.571688 -0.733122
-11.966979 7.706279 3.286085
-11.824621 7.617527 -0.245520
-11.824877 7.620611 3.769441
-6.456208 4.171913 -2.059682
-11.842871 7.655631 0.246149
-7.756469 5.015965 -2.132536
-11.750310 7.601613 0.733436
-8.741400 5.655063 -2.023721
-11.752118 7.605692 1.224712
-11.509504 7.451533 -2.171623
-11.754748 7.613217 1.719577
-11.663454 7.556983 -1.706415
-11.782424 7.636985 2.223873
-11.676583 7.568382 -1.217391
-11.929528 7.735291 2.763678
-11.668961 7.569228 -0.728935
-11.964527 7.763917 3.292834
-11.826471 7.677266 -0.246114
-11.739877 7.623964 3.750806
-6.438368 4.192316 -2.058647
-11.852935 7.720938 0.246917
-7.729116 5.036624 -2.129837
-11.660124 7.601136 0.729459
-8.726541 5.688757 -2.024865
-11.655402 7.600961 1.217391
-11.475153 7.486263 -2.170059
-11.679893 7.622739 1.712508
-11.570518 7.554241 -1.696665
-11.696156 7.639180 2.212609
-11.590041 7.569873 -1.211116
-11.943544 7.803729 2.773218
-11.577268 7.567296 -0.724853
-11.963449 7.822698 3.300032
-11.824703 7.734921 -0.246637
-11.659847 7.629990 3.733724
-6.425310 4.215824 -2.059164
-11.857677 7.783112 0.247580
-7.701715 5.057156 -2.127137
-11.568416 7.599026 0.725376
-8.672171 5.696549 -2.016851
-11.572186 7.604399 1.211465
-11.430793 7.514338 -2.166618
-11.588526 7.620928 1.703002
-11.474424 7.548761 -1.686428
-11.583615 7.623488 2.196340
-11.500304 7.568659 -1.204492
-11.924428 7.850773 2.775126
-11.489067 7.567015 -0.720980
-11.947462 7.871913 3.303181
-11.827685 7.795959 -0.247266
-11.571856 7.630233 3.714053
-6.399274 4.230770 -2.055541
-11.857122 7.842105 0.248138
-7.680765 5.081859 -2.126237
-11.486856 7.602986 0.721922
-8.650595 5.725705 -2.016470
-11.475801 7.598546 1.204144
-11.392965 7.546557 -2.164428
-11.500626 7.620762 1.693984
-11.388442 7.549281 -1.677654
-11.484497 7.615841 2.182574
-11.412378 7.568016 -1.198043
-11.409332 7.571731 -0.717631
-11.827052 7.854900 -0.247824
-11.479180 7.626745 3.692830
-6.382859 4.252010 -2.055023
-11.847980 7.895646 0.248522
-7.646763 5.097831 -2.121738
-11.403418 7.602262 0.718259
-8.607691 5.740614 -2.011127
-11.386228 7.596539 1.197520
-11.315618 7.552289 -2.154729
-11.416174 7.622279 1.685453
-11.319100 7.560322 -1.671316
-11.400043 7.614386 2.171311
-11.319624 7.563533 -1.191070
-11.957470 7.992742 2.795733
-11.329702 7.575984 -0.714281
-11.973200 8.009309 3.325676
-11.827532 7.911866 -0.248383
-11.424927 7.645432 3.683513
-6.367978 4.274265 -2.055023
-11.693885 7.849079 0.245835
-7.597461 5.101430 -2.112740
-11.325417 7.607494 0.715014
-8.590858 5.772816 -2.011890
-11.303423 7.598444 1.191593
-11.242971 7.557807 -2.145655
-11.324944 7.615785 1.675704
-11.237967 7.560143 -1.663029
-11.320951 7.618843 2.161299
-11.233657 7.562941 -1.184795
-11.948812 8.044412 2.799931
-11.223345 7.558845 -0.709152
-11.983747 8.074014 3.336024
-11.728541 7.905043 -0.246882
-11.390161 7.679866 3.680925
-6.356969 4.297523 -2.056059
-11.840344 8.007474 0.249500
-7.542483 5.102806 -2.102393
-11.227667 7.598844 0.710513
-8.568416 5.799072 -2.011127
-11.225367 7.600144 1.186015
-11.170725 7.565991 -2.136895
-11.245703 7.619638 1.667904
-11.152353 7.559228 -1.654255
-11.238700 7.620619 2.150661
-11.162343 7.568843 -1.179914
-11.962902 8.114726 2.809853
-11.147311 7.564332 -0.706012
-11.982900 8.134400 3.343672
-11.843146 8.042549 -0.249884
-11.361683 7.718495 3.680407
-6.333948 4.314247 -2.053470
-11.860245 8.081410 0.250512
-7.494030 5.108249 -2.093844
-11.136720 7.594107 0.706431
-8.522167 5.811249 -2.005021
-11.146102 7.603351 1.180437
-11.092032 7.569308 -2.126883
-11.163294 7.620794 1.659617
-11.057049 7.551093 -1.644018
-11.156572 7.621915 2.140024
-11.078274 7.568424 -1.173813
-11.962058 8.175267 2.816341
-11.076323 7.572762 -0.703186
-11.975343 8.190480 3.349521
-11.829853 8.094004 -0.250198
-11.331485 7.755923 3.679372
-6.314071 4.333052 -2.051918
-11.863284 8.144268 0.251175
-7.431174 5.103487 -2.081247
-11.064051 7.601265 0.703500
-8.492123 5.834290 -2.002731
-11.073516 7.610617 1.175557
-11.019965 7.576645 -2.118123
-11.077744 7.619214 1.650842
-10.997915 7.567139 -1.639143
-11.064812 7.616013 2.127509
-10.999269 7.570899 -1.168236
-11.962556 8.237011 2.823210
-10.985674 7.567194 -0.699104
-11.977169 8.253242 3.358069
-11.834455 8.157948 -0.250896
-11.301162 7.793238 3.678336
-6.298907 4.355066 -2.051918
-11.851229 8.197004 0.251524
-7.376457 5.103890 -2.070899
-10.981612 7.601195 0.699941
-8.470090 5.862782 -2.002350
-10.994466 7.612929 1.169979
-10.944736 7.581318 -2.108737
-10.992340 7.617136 1.642068
-10.922490 7.571556 -1.631831
-10.992710 7.623069 2.118749
-10.920386 7.572914 -1.162658
-11.954699 8.293270 2.828171
-10.906685 7.569056 -0.695754
-11.986708 8.321669 3.368867
-11.843684 8.225444 -0.251699
-11.280234 7.837047 3.680407
-6.278910 4.373715 -2.050364
-11.850437 8.257755 0.252117
-7.315433 5.099520 -2.058752
-10.910779 7.608635 0.697115
-8.444742 5.888944 -2.001205
-10.925340 7.621620 1.165447
-10.872849 7.587823 -2.099977
-10.907087 7.614552 1.633293
-10.860190 7.584627 -1.626468
-10.904497 7.618406 2.106860
-10.831819 7.567629 -1.156034
-11.969125 8.365314 2.838475
-10.824545 7.568168 -0.692195
-11.984732 8.382451 3.376515
-11.842752 8.286225 -0.252292
-11.257560 7.879696 3.681960
-6.263605 4.395605 -2.050364
-11.854273 8.322051 0.252816
-7.265691 5.102627 -2.049754
-10.818785 7.600747 0.692928
-8.416103 5.912741 -1.999297
-10.846506 7.623050 1.159869
-10.791352 7.587104 -2.089339
-10.836603 7.621742 1.626712
-10.801179 7.599646 -1.621594
-10.832608 7.624588 2.098099
-10.756458 7.570990 -1.150804
-15.781219 11.111808 3.751687
-10.739279 7.564501 -0.688427
-13.008366 9.166196 3.673901
-11.233141 7.921174 3.682995
-6.251379 4.419673 -2.051400
-15.653672 11.071115 0.334667
-7.211247 5.102068 -2.039406
-10.738086 7.597361 0.689369
-8.380990 5.931875 -1.995862
-10.784058 7.635537 1.156034
-10.730952 7.600748 -2.082769
-10.753242 7.619354 1.618181
-10.706565 7.589092 -1.611357
-10.742801 7.614777 2.085585
-10.677958 7.571611 -1.145226
-10.744692 7.621748 2.560657
-10.668827 7.570737 -0.685601
-13.006484 9.232978 3.682449
-27.992750 19.871353 -0.599211
-11.205238 7.957259 3.682477
-6.228045 4.435864 -2.048812
-15.660851 11.154286 0.335610
-7.170482 5.108992 -2.032658
-10.670839 7.605817 0.686752
-8.347445 5.951976 -1.992809
-10.702189 7.633796 1.150107
-10.660658 7.604172 -2.074008
-10.684287 7.623840 1.611600
-10.649026 7.601485 -1.606482
-10.674359 7.622381 2.077450
-10.602826 7.574094 -1.139997
-10.679420 7.628808 2.551116
-10.601415 7.575881 -0.682880
-13.010672 9.300992 3.692347
-27.985020 20.013145 -0.600537
-11.178964 7.997452 3.682995
-6.205451 4.450863 -2.046223
-15.647817 11.227533 0.336168
-7.117775 5.108991 -2.022760
-10.592310 7.605741 0.683403
-8.330852 5.981915 -1.993573
-10.644452 7.645997 1.146621
-10.569882 7.595230 -2.061494
-10.606030 7.624012 1.603801
-10.577301 7.606161 -1.599657
-10.596374 7.622681 2.067438
-10.525896 7.571982 -1.134419
-10.590577 7.621317 2.536233
-10.524657 7.576667 -0.679635
-13.011333 9.370265 3.701795
-27.983141 20.159805 -0.602003
-11.165086 8.046589 3.687654
-6.186747 4.470232 -2.045188
-15.642561 11.306692 0.336901
-7.068316 5.110969 -2.013762
-10.512296 7.604038 0.679949
-8.316283 6.015559 -1.995099
-10.572501 7.650402 1.141740
-10.506503 7.605439 -2.054298
-10.519866 7.617907 1.594782
-10.473521 7.587137 -1.587958
-10.515315 7.620212 2.056801
-10.447774 7.571266 -1.128841
-10.513044 7.621365 2.524022
-10.428621 7.562940 -0.675134
-13.008515 9.437369 3.710343
-27.999987 20.320795 -0.603888
-11.521501 8.364716 3.814993
-6.172667 4.492939 -2.045706
-15.653111 11.397716 0.337983
-7.022079 5.114956 -2.005664
-10.440489 7.607755 0.677018
-8.279366 6.032992 -1.991283
-10.490992 7.647358 1.135814
-10.430413 7.605984 -2.044599
-10.437078 7.613638 1.586251
-10.386039 7.579185 -1.578696
-10.443980 7.624257 2.048040
-10.374616 7.573619 -1.123786
-10.448325 7.630227 2.514863
-10.363452 7.571020 -0.672622
-13.013257 9.510314 3.721141
-27.987001 20.460890 -0.605145
-11.539012 8.439095 3.830522
-6.155387 4.513317 -2.045188
-15.655156 11.483033 0.338891
-6.968045 5.112921 -1.995316
-10.376838 7.616970 0.674611
-8.247178 6.053724 -1.988612
-10.422480 7.653269 1.131281
-10.354448 7.606095 -2.034900
-10.365647 7.617111 1.579427
-10.343528 7.603633 -1.576258
-10.363194 7.620879 2.037403
-10.291935 7.568478 -1.117685
-10.364696 7.624772 2.501124
-10.288705 7.571633 -0.669482
-13.008226 9.576480 3.729239
-27.992695 20.615377 -0.606820
-11.531260 8.495362 3.837769
-6.134934 4.531332 -2.043635
-15.645535 11.560189 0.339554
-6.925080 5.118681 -1.988117
-10.316463 7.628208 0.672412
-8.219683 6.077805 -1.987085
-10.338037 7.646950 1.125006
-10.277020 7.604595 -2.024888
-10.289536 7.616632 1.571871
-10.269063 7.604252 -1.568946
-10.288910 7.621733 2.028017
-10.223827 7.573523 -1.113153
-10.284388 7.621160 2.488149
-10.209265 7.568251 -0.666027
-13.013849 9.650848 3.740486
-27.981596 20.758232 -0.608147
-11.521701 8.550531 3.844498
-6.106680 4.543493 -2.039494
-15.645190 11.644580 0.340427
-6.871222 5.116055 -1.977770
-10.260942 7.642697 0.670528
-8.207865 6.113496 -1.989375
-10.263350 7.647280 1.119777
-10.204483 7.606184 -2.015815
-10.218328 7.619279 1.565046
-10.169260 7.585457 -1.557734
-10.214746 7.622159 2.018631
-10.139844 7.566267 -1.106878
-10.213671 7.624130 2.477464
-10.142774 7.573969 -0.663411
-13.008185 9.717210 3.748585
-27.995468 20.920424 -0.610031
-11.524276 8.614987 3.855369
-6.090783 4.564782 -2.039494
-15.646044 11.730309 0.341334
-6.814346 5.110777 -1.966522
-10.243786 7.685661 0.671156
-8.167629 6.127971 -1.984795
-10.196756 7.653156 1.115419
-10.130479 7.606176 -2.006429
-10.161510 7.632249 1.560415
-10.123676 7.606596 -1.554809
-10.147024 7.626909 2.010496
-10.073556 7.571688 -1.102520
-10.136781 7.621984 2.465252
-10.066793 7.572110 -0.660166
-13.016231 9.794189 3.760732
-27.989365 21.068533 -0.611497
-11.537345 8.687700 3.869863
-6.077896 4.588342 -2.040529
-15.646492 11.816186 0.342242
-6.771586 5.115738 -1.959324
-10.213709 7.718963 0.670947
-8.136790 6.149342 -1.982506
-10.125480 7.655061 1.110538
-10.062903 7.610512 -1.998294
-10.080981 7.626955 1.552128
-10.033749 7.593970 -1.545060
-10.068366 7.622934 2.000171
-10.004174 7.574333 -1.097814
-10.060032 7.619390 2.453041
-9.987769 7.567398 -0.656712
-13.009919 9.860756 3.768830
-28.008074 21.236183 -0.613522
-11.525421 8.741928 3.876074
-6.063379 4.610701 -2.041047
-15.652897 11.907050 0.343289
-6.727325 5.119281 -1.951675
-10.191236 7.755207 0.671156
-8.102779 6.168194 -1.979453
-10.049558 7.652939 1.105135
-9.992280 7.612072 -1.989534
-10.013248 7.630811 1.545791
-9.948514 7.581479 -1.535798
-9.997475 7.621550 1.991098
-9.942820 7.582632 -1.093979
-10.006841 7.634213 2.446553
-9.926363 7.575559 -0.654409
-13.012778 9.931036 3.779178
-27.978821 21.360495 -0.614429
-11.531680 8.807069 3.887980
-6.032717 4.619038 -2.035871
-10.239548 7.842895 0.225136
-6.690203 5.126154 -1.945827
-10.171804 7.793820 0.671575
-8.079164 6.192642 -1.978689
-9.967206 7.642580 1.098860
-9.916825 7.606694 -1.979522
-9.946940 7.632555 1.539454
-9.910718 7.604761 -1.533848
-9.922003 7.616171 1.981086
-9.859154 7.570659 -1.087529
-9.940989 7.636261 2.436631
-9.855260 7.573143 -0.651373
-13.012222 9.999068 3.788626
-28.025156 21.543337 -0.617012
-11.519257 8.858215 3.893674
-6.014308 4.636657 -2.034835
-10.151727 7.829179 0.223775
-6.645393 5.126884 -1.937728
-10.155604 7.837821 0.672308
-8.061694 6.221797 -1.979453
-9.903956 7.646368 1.094676
-9.836827 7.597277 -1.968572
-9.866594 7.623020 1.530923
-9.865264 7.624742 -1.530923
-9.854727 7.619342 1.972952
-9.783809 7.567243 -1.082126
-9.851940 7.619939 2.420985
-9.787441 7.572783 -0.648547
-28.035164 21.707142 -0.618897
-6.003376 4.663411 -2.036906
-10.080120 7.830217 0.222797
-6.579756 5.112983 -1.923781
-10.129758 7.874451 0.672412
-8.029536 6.244071 -1.977163
-9.834980 7.650807 1.090144
-9.774618 7.606593 -1.961689
-9.780394 7.611088 1.521661
-9.797862 7.627428 -1.524586
-9.785991 7.620925 1.964504
-9.718040 7.570738 -1.077768
-9.777489 7.619793 2.409536
-9.712365 7.571765 -0.645407
-13.021781 10.155442 3.812470
-10.058761 7.844638 -0.222658
-11.539384 9.002587 3.921626
-5.977932 4.677195 -2.033800
