# This PCD file was generated using the MATLAB® pcwrite function
# from Computer Vision Toolbox®.
# .PCD v.7 - Point Cloud Data file format
VERSION .7
FIELDS x y z
SIZE 4 4 4
TYPE F F F
COUNT 1 1 1
WIDTH 1667
HEIGHT 1
VIEWPOINT 0 0 0 1 0 0 0
POINTS 1667
DATA ascii
-4.302350 5.158346 -1.799828
-6.560313 7.868345 0.178817
-5.065536 6.077687 -1.826603
-8.714564 10.455833 0.713339
-6.199292 7.440621 -1.882522
-6.458284 7.754224 0.882888
-6.310793 7.579826 -1.562155
-6.383678 7.670091 1.225275
-6.369644 7.655944 -1.222837
-6.343523 7.624548 1.570915
-6.322920 7.602483 -0.865108
-6.338346 7.623737 1.927171
-6.320395 7.604844 -0.518231
-6.341149 7.632526 2.290901
-6.351524 7.647729 2.663766
-4.263371 5.148037 -1.791028
-6.516329 7.868493 0.178329
-5.044112 6.092949 -1.826153
-8.712391 10.527736 0.716165
-6.162021 7.448599 -1.879087
-6.422291 7.765971 0.881667
-6.264224 7.574832 -1.556836
-6.337969 7.666739 1.221375
-6.358132 7.693856 -1.225518
-6.295479 7.620757 1.565596
-6.267163 7.589176 -0.861099
-6.301778 7.631092 1.923736
-6.287513 7.616518 -0.517603
-6.302158 7.636981 2.285953
-6.307585 7.648987 2.656519
-4.240139 5.154688 -1.788440
-6.471040 7.869570 0.177840
-5.015386 6.101488 -1.823453
-8.706604 10.592053 0.718573
-6.137284 7.468994 -1.879087
-6.409147 7.802623 0.883411
-6.222699 7.578334 -1.553082
-6.298576 7.673470 1.218937
-6.318643 7.700658 -1.223081
-6.252633 7.620210 1.561216
-6.215428 7.577566 -0.857438
-6.250207 7.622679 1.916104
-6.244428 7.618341 -0.516242
-6.258172 7.637828 2.279654
-6.262597 7.645950 2.648237
-4.209900 5.154494 -1.783263
-6.422141 7.863106 0.177212
-4.986500 6.107518 -1.820304
-8.708729 10.670346 0.721818
-6.109936 7.488850 -1.878706
-6.391947 7.837298 0.884805
-6.178809 7.575965 -1.548389
-6.232957 7.645080 1.211138
-6.251688 7.670788 -1.215037
-6.211020 7.623613 1.557462
-6.177619 7.585310 -0.855869
-6.211259 7.626617 1.911906
-6.192651 7.606479 -0.514044
-6.214357 7.635869 2.272905
-6.212712 7.639286 2.638402
-4.188233 5.164656 -1.781710
-12.948997 15.973574 0.358926
-4.960399 6.121213 -1.818954
-8.702247 10.742546 0.724539
-6.075105 7.499454 -1.876034
-6.367056 7.862660 0.885154
-6.134841 7.578602 -1.544321
-6.184912 7.643185 1.207238
-6.239759 7.713715 -1.218206
-6.169375 7.629429 1.554020
-6.144763 7.601705 -0.855172
-6.170920 7.634064 1.908090
-6.139623 7.598057 -0.511950
-6.167962 7.635854 2.266157
-19.777586 24.493132 -0.549506
-6.172535 7.646975 2.633225
-4.175331 5.187498 -1.784299
-12.949586 16.088774 0.360497
-4.939003 6.138490 -1.818954
-8.702250 10.819545 0.727679
-6.034048 7.504839 -1.871836
-6.343190 7.892155 0.885851
-6.088465 7.577936 -1.539628
-6.140790 7.643061 1.203825
-6.156858 7.665801 -1.207238
-6.115500 7.617029 1.547137
-6.101981 7.602907 -0.852906
-6.122015 7.630597 1.901603
-6.102987 7.609601 -0.511218
-6.119213 7.632562 2.258509
-19.649445 24.508966 -0.548320
-6.131309 7.650383 2.627013
-4.140311 5.180914 -1.777052
-12.947948 16.207994 0.362103
-4.914037 6.153507 -1.818055
-8.699324 10.893558 0.730610
-6.006587 7.524323 -1.871455
-6.315604 7.914247 0.885851
-6.048424 7.582158 -1.536187
-6.094169 7.642239 1.200169
-6.102735 7.655720 -1.202119
-6.076560 7.622885 1.544008
-6.049327 7.591441 -0.849246
-6.079438 7.631959 1.896641
-6.062700 7.613673 -0.510066
-6.084035 7.643203 2.255359
-19.508970 24.508572 -0.546784
-6.082912 7.644530 2.617696
-4.128206 5.202901 -1.779640
-12.946326 16.316639 0.363569
-4.891183 6.166714 -1.817155
-8.700955 10.973936 0.733960
-5.975410 7.539088 -1.869928
-6.292887 7.942493 0.886548
-5.993807 7.565013 -1.528678
-6.040447 7.626613 1.194563
-6.079779 7.679026 -1.202607
-6.031527 7.620814 1.539315
-6.010432 7.596884 -0.847502
-6.030953 7.622822 1.889391
-6.022553 7.614936 -0.508810
-6.045363 7.646520 2.250410
-19.366268 24.504349 -0.545178
-6.039423 7.644497 2.610449
-4.103757 5.207457 -1.776534
-12.942507 16.429276 0.365069
-4.856364 6.166910 -1.812206
-8.712014 11.067014 0.738146
-5.951591 7.560403 -1.870310
-6.278837 7.978974 0.888291
-5.957591 7.573470 -1.526175
-5.990477 7.618002 1.189932
-6.039441 7.683037 -1.199926
-5.990241 7.623185 1.535561
-5.969201 7.596410 -0.845236
-5.983692 7.617580 1.882903
-5.976198 7.610781 -0.507135
-6.001788 7.646117 2.244112
-19.241117 24.521454 -0.544061
-5.997203 7.645770 2.603720
-4.093886 5.232401 -1.780157
-12.942976 16.548386 0.366710
-4.834810 6.183824 -1.812206
-8.702845 11.135126 0.740659
-5.916699 7.570306 -1.867638
-6.252172 8.002414 0.888466
-5.911666 7.569310 -1.521169
-5.945522 7.615398 1.186276
-5.928316 7.596091 -1.183108
-5.953875 7.631587 1.533058
-5.926718 7.596778 -0.842970
-5.957064 7.638422 1.882903
-5.927493 7.603241 -0.505251
-5.946313 7.630129 2.233314
-19.093952 24.509602 -0.542316
-5.955049 7.646842 2.596990
-4.073227 5.243608 -1.779122
-12.952593 16.680332 0.368630
-4.810806 6.197582 -1.811306
-8.700165 11.208099 0.743589
-5.878204 7.575401 -1.863822
-6.225422 8.025763 0.888640
-5.877947 7.580531 -1.519292
-5.906740 7.620417 1.183839
-5.957695 7.688919 -1.194320
-5.903128 7.618496 1.526488
-5.886745 7.600091 -0.841053
-5.915939 7.640543 1.878324
-5.891138 7.611249 -0.504414
-5.905334 7.632342 2.227915
-18.963627 24.509516 -0.540920
-5.915473 7.648211 2.590779
-4.043100 5.242497 -1.773946
-12.955819 16.799202 0.370305
-4.792605 6.216589 -1.812206
-8.706095 11.296936 0.747462
-5.834950 7.574102 -1.858480
-7.406936 9.618103 1.062080
-5.839517 7.582767 -1.515850
-5.863274 7.616366 1.180183
-5.949111 7.730659 -1.197732
-5.860839 7.618703 1.522420
-5.841959 7.596904 -0.838438
-5.877406 7.642999 1.874126
-5.851256 7.611742 -0.503158
-5.863367 7.630251 2.221617
-18.812170 24.489933 -0.539035
-5.874623 7.650425 2.584567
-4.024519 5.254342 -1.773428
-12.946946 16.909418 0.371736
-4.768508 6.230185 -1.811306
-8.709087 11.382772 0.751126
-5.799066 7.579376 -1.855045
-7.400421 9.675845 1.065740
-5.795017 7.579565 -1.511157
-5.825805 7.622591 1.177989
-5.858219 7.667775 -1.184814
-5.827017 7.629694 1.520543
-5.797272 7.593494 -0.835824
-5.831632 7.638501 1.868020
-5.813747 7.617831 -0.502216
-5.829606 7.641375 2.218917
-18.690186 24.507753 -0.537988
-5.839685 7.660130 2.580944
-4.011078 5.276748 -1.776016
-12.945926 17.030928 0.373412
-4.737301 6.234378 -1.807707
-8.705542 11.460820 0.754266
-5.760560 7.586508 -1.851611
-7.403456 9.753686 1.071318
-5.754061 7.583444 -1.507716
-5.784761 7.623905 1.175064
-5.803824 7.651802 -1.179208
-5.781251 7.624804 1.515537
-5.755083 7.593043 -0.833557
-5.781068 7.630093 1.860770
-5.762874 7.608839 -0.500227
-5.789795 7.647155 2.214418
-18.556246 24.509069 -0.536592
-5.797753 7.660444 2.574214
-3.991472 5.289174 -1.775499
-12.949655 17.166061 0.375331
-4.702685 6.236142 -1.803208
-8.705169 11.543759 0.757720
-5.721045 7.589324 -1.847413
-7.404135 9.825616 1.076373
-5.712106 7.582971 -1.503648
-5.740064 7.622854 1.171652
-5.710081 7.585792 -1.165802
-5.743910 7.630732 1.512721
-5.715368 7.595573 -0.831640
-5.734337 7.623552 1.854282
-5.724277 7.612943 -0.499180
-5.738479 7.634604 2.204970
-18.429733 24.519342 -0.535405
-5.761692 7.668281 2.570073
-3.970670 5.299982 -1.774463
-12.958607 17.296928 0.377251
-4.686650 6.257942 -1.805007
-8.703126 11.625237 0.761070
-5.680404 7.590384 -1.842833
-7.405595 9.899264 1.081603
-5.667994 7.576565 -1.498642
-5.707622 7.632307 1.170189
-5.668252 7.582428 -1.162390
-5.699500 7.627002 1.508028
-5.678089 7.601110 -0.830071
-5.707851 7.640952 1.853900
-5.687048 7.615883 -0.498134
-5.701471 7.637977 2.200471
-18.291420 24.513002 -0.533869
-5.722186 7.671312 2.564379
-3.941539 5.297621 -1.769287
-12.953042 17.415869 0.378857
-4.662453 6.271135 -1.804107
-8.702996 11.710052 0.764628
-5.642318 7.591848 -1.838636
-7.397680 9.957352 1.085263
-5.632091 7.583615 -1.496139
-5.659645 7.623496 1.165802
-5.700902 7.681870 -1.174577
-5.655189 7.623053 1.503335
-5.627921 7.586296 -0.826411
-5.660093 7.632446 1.847031
-5.646159 7.616433 -0.496878
-5.662014 7.640608 2.195522
-18.174788 24.534927 -0.532962
-5.659736 7.643110 2.548332
-3.918433 5.305131 -1.767217
-12.952751 17.543020 0.380637
-4.638221 6.284235 -1.803208
-8.705938 11.799827 0.768501
-5.606457 7.598862 -1.835583
-7.400723 10.034423 1.090841
-5.586831 7.577788 -1.491134
-5.623576 7.630423 1.163852
-5.679942 7.709713 -1.175796
-5.614491 7.623659 1.499581
-5.594318 7.596268 -0.825365
-5.614791 7.626862 1.840925
-5.610065 7.623228 -0.496040
-5.620297 7.639917 2.189673
-18.105612 24.620777 -0.533450
-5.621577 7.647255 2.543156
-3.898747 5.317220 -1.766699
-12.956450 17.676838 0.382557
-4.607041 6.287812 -1.799608
-8.706004 11.886539 0.772165
-5.570618 7.605713 -1.832530
-7.404489 10.113247 1.096593
-5.544010 7.574929 -1.486753
-5.573464 7.617962 1.158978
-5.645962 7.719881 -1.174333
-5.573853 7.624075 1.495826
-5.548953 7.590016 -0.822576
-5.570760 7.622637 1.835201
-5.559859 7.610508 -0.493947
-5.584399 7.646901 2.186074
-18.083233 24.771042 -0.535335
-5.583463 7.651226 2.537980
-3.875616 5.324548 -1.764628
-12.955849 17.806034 0.384372
-4.587358 6.307007 -1.800508
-8.694999 11.958855 0.774886
-5.531337 7.607644 -1.828332
-7.399601 10.180934 1.101126
-5.509405 7.583049 -1.484563
-5.534009 7.619703 1.156296
-5.559503 7.657615 -1.161902
-5.537921 7.630697 1.493324
-5.517741 7.602891 -0.821879
-5.537203 7.632501 1.832911
-5.520363 7.612083 -0.492795
-5.539370 7.641105 2.178876
-19.059772 26.301023 -0.566959
-5.540853 7.648767 2.530733
-3.854742 5.334913 -1.763593
-12.947479 17.925716 0.385977
-4.560750 6.316663 -1.798709
-8.703461 12.058773 0.779387
-5.478320 7.590292 -1.819555
-7.401323 10.258404 1.106704
-5.473660 7.589416 -1.482060
-5.492284 7.618043 1.153128
-5.514167 7.651210 -1.158003
-5.495088 7.627542 1.488943
-5.478359 7.604322 -0.819961
-5.501346 7.639039 1.829858
-5.482087 7.615099 -0.491749
-5.492177 7.631922 2.170778
-19.016890 26.435577 -0.568425
-5.500587 7.649240 2.524521
-3.823712 5.331068 -1.757899
-12.953570 18.066690 0.388037
-4.536404 6.329376 -1.797809
-8.714826 12.163763 0.784202
-5.440359 7.593409 -1.815739
-6.041794 8.435975 0.907814
-5.436786 7.594019 -1.479244
-5.455262 7.622637 1.150934
-5.502443 7.691398 -1.161171
-5.454642 7.627394 1.485189
-5.436718 7.602330 -0.817695
-5.463232 7.642224 1.826042
-5.446183 7.621186 -0.490911
-5.454176 7.635188 2.166279
-5.460618 7.647036 -0.164018
-5.462630 7.652668 2.519345
-3.808442 5.349103 -1.759452
-12.958834 18.207922 0.390096
-4.518803 6.351522 -1.799608
-5.610832 7.886453 0.507240
-5.404715 7.599555 -1.812685
-6.004227 8.445648 0.906594
-5.386213 7.579139 -1.472674
-5.421721 7.631925 1.149472
-5.427470 7.640017 -1.150690
-5.420166 7.632557 1.482686
-5.395152 7.600142 -0.815429
-5.411524 7.626024 1.817647
-5.405679 7.620605 -0.489655
-5.417551 7.637341 2.161780
-5.407472 7.625951 -0.163180
-5.420463 7.647102 2.511580
-3.790682 5.361704 -1.759452
-12.956093 18.332443 0.391841
-4.483096 6.345783 -1.793760
-5.567360 7.880549 0.505670
-5.368161 7.601398 -1.808869
-5.973891 8.462256 0.906245
-5.340550 7.567906 -1.467043
-5.374643 7.619040 1.144841
-5.402106 7.657971 -1.150690
-5.387998 7.640802 1.480809
-5.358442 7.601705 -0.813686
-5.377160 7.631088 1.814594
-5.357377 7.605830 -0.487562
-5.380973 7.639330 2.157280
-5.368340 7.624220 -0.162761
-5.385069 7.650815 2.506922
-3.773992 5.375825 -1.759970
-12.959558 18.466967 0.393796
-4.458672 6.355827 -1.792410
-5.519178 7.870499 0.503786
-5.337289 7.611119 -1.806961
-5.938932 8.472233 0.905200
-5.309754 7.577487 -1.465478
-5.333405 7.614058 1.141428
-5.357122 7.650766 -1.146791
-5.349964 7.643381 1.477680
-5.317207 7.596582 -0.811246
-5.342823 7.636007 1.811541
-5.327545 7.617009 -0.487143
-5.343107 7.642097 2.152782
-5.327948 7.623242 -0.162342
-5.351690 7.660066 2.503816
-3.754098 5.387382 -1.759452
-12.963593 18.610548 0.395890
-4.438684 6.374552 -1.793310
-5.481401 7.874965 0.502844
-5.297228 7.610369 -1.802382
-5.896807 8.474919 0.903282
-5.271994 7.579758 -1.462350
-5.299994 7.622852 1.139966
-5.341714 7.685719 -1.149228
-5.311981 7.645786 1.474551
-5.283839 7.605278 -0.810200
-5.302695 7.635262 1.806961
-5.280424 7.606027 -0.485259
-5.298622 7.635085 2.145583
-5.281927 7.613864 -0.161749
-5.307306 7.653299 2.495533
-3.726477 5.387744 -1.755311
-12.971337 18.760952 0.398124
-4.413083 6.385197 -1.791960
-5.448200 7.885836 0.502321
-5.258354 7.611048 -1.798184
-5.862660 8.488893 0.902585
-5.238772 7.588359 -1.460472
-5.264331 7.628237 1.138016
-5.318237 7.709219 -1.149959
-5.277412 7.652897 1.472361
-5.236901 7.594150 -0.807062
-5.268209 7.642412 1.804290
-5.247043 7.614543 -0.484631
-5.256464 7.631065 2.139284
-5.247376 7.620727 -0.161505
-5.263035 7.646317 2.487251
-3.705462 5.397533 -1.754276
-12.957813 18.881964 0.399730
-4.392973 6.403775 -1.792860
-5.409346 7.888332 0.501274
-5.226203 7.621259 -1.796276
-5.860026 8.548748 0.906768
-5.197734 7.585418 -1.456405
-5.219725 7.620362 1.134116
-5.254283 7.673686 -1.141916
-5.242855 7.659863 1.470171
-5.194604 7.589368 -0.804622
-5.229306 7.642930 1.800092
-5.206899 7.613031 -0.483375
-5.219894 7.634891 2.135236
-5.212846 7.627439 -0.161260
-5.224323 7.647096 2.481557
-3.683479 5.407883 -1.753240
-12.957177 19.030157 0.401859
-4.359603 6.405335 -1.788811
-5.372535 7.896545 0.500541
-5.186089 7.622506 -1.792078
-5.898125 8.672311 0.917576
-5.154350 7.581545 -1.452025
-5.176140 7.616455 1.130704
-5.251780 7.730658 -1.147522
-5.203648 7.662684 1.467043
-5.162276 7.601762 -0.803925
-5.190229 7.645803 1.796276
-5.163262 7.608926 -0.481910
-5.182031 7.639455 2.131186
-5.165776 7.618360 -0.160667
-5.182171 7.645403 2.474828
-3.664581 5.420707 -1.753240
-12.965683 19.186281 0.404198
-4.328490 6.407597 -1.785212
-5.324818 7.885459 0.498657
-5.152855 7.630802 -1.789788
-5.870045 8.696151 0.917924
-5.121222 7.589668 -1.450148
-5.138419 7.618021 1.128266
-5.204785 7.719317 -1.143134
-5.168034 7.667698 1.464540
-5.127913 7.608172 -0.802704
-5.139378 7.628053 1.787880
-5.129974 7.616965 -0.481281
-5.143360 7.639717 2.126237
-5.133570 7.628049 -0.160492
-5.147902 7.652227 2.471204
-3.649942 5.439885 -1.755311
-12.961012 19.324423 0.406152
-4.316950 6.438853 -1.789711
-5.283069 7.879847 0.497192
-5.103236 7.614494 -1.781775
-5.790862 8.643755 0.910255
-5.083708 7.591083 -1.447019
-5.104067 7.624362 1.126560
-5.154865 7.700243 -1.137772
-5.131595 7.668376 1.461411
-5.092464 7.612776 -0.801310
-5.102900 7.631257 1.784446
-5.084488 7.606596 -0.479502
-5.105003 7.637288 2.120839
-5.082695 7.606788 -0.159690
-5.112842 7.654797 2.466546
-3.624383 5.440704 -1.751687
-12.985521 19.500454 0.408945
-4.290176 6.445021 -1.787461
-5.245844 7.880696 0.496145
-5.064904 7.611762 -1.777195
-5.727958 8.611486 0.904851
-5.047572 7.591450 -1.443890
-5.064470 7.619756 1.123392
-5.122707 7.707376 -1.136310
-5.093017 7.665609 1.457657
-5.045147 7.596426 -0.797824
-5.060189 7.621968 1.778340
-5.044877 7.601783 -0.478141
-5.073182 7.644434 2.118139
-5.044179 7.603603 -0.159271
-5.071412 7.647560 2.458781
-3.600994 5.444636 -1.749099
-11.537836 17.451614 0.365174
-4.266629 6.455961 -1.786561
-5.210596 7.887295 0.495412
-5.033144 7.618686 -1.774905
-5.681804 8.603830 0.902062
-5.001690 7.576825 -1.437946
-5.030428 7.623252 1.121442
-5.091401 7.718582 -1.135335
-5.059705 7.673444 1.455779
-5.012249 7.601473 -0.796603
-5.019761 7.615757 1.772997
-5.014148 7.610130 -0.477618
-5.037893 7.649076 2.114540
-5.006608 7.604464 -0.158922
-5.027695 7.639396 2.450499
-3.583025 5.458789 -1.749617
-11.525121 17.565344 0.366710
-4.238725 6.462667 -1.784312
-5.170983 7.887063 0.494261
-4.997905 7.623075 -1.771852
-5.673581 8.656939 0.905548
-4.963306 7.576061 -1.434504
-4.988560 7.617517 1.118029
-5.040510 7.699768 -1.129973
-5.026401 7.681140 1.453902
-4.976958 7.605585 -0.795209
-4.984546 7.620090 1.769944
-4.971158 7.602511 -0.476048
-4.990902 7.635623 2.105992
-4.971280 7.608502 -0.158642
-5.000999 7.656898 2.450499
-3.562896 5.469643 -1.749099
-11.516107 17.685907 0.368385
-4.212950 6.472525 -1.782962
-8.720509 13.402785 0.838003
-4.963772 7.628955 -1.769181
-5.866017 9.019082 0.941282
-4.929291 7.581748 -1.432314
-4.955451 7.624896 1.116567
-5.002785 7.700670 -1.127535
-4.990950 7.685387 1.451399
-4.937356 7.602861 -0.793117
-4.945091 7.617682 1.765365
-4.936979 7.608091 -0.475315
-4.949373 7.630108 2.099693
-4.940342 7.619097 -0.158503
-4.962681 7.656476 2.444805
-3.545880 5.485291 -1.750134
-11.509656 17.811653 0.370166
-4.192447 6.490465 -1.783862
-8.713759 13.495223 0.841876
-4.924334 7.626442 -1.764602
-5.876638 9.104787 0.948080
-4.896372 7.588949 -1.430437
-4.916971 7.623796 1.113886
-4.955439 7.686386 -1.122904
-4.942692 7.669552 1.445142
-4.905393 7.611674 -0.792246
-4.913156 7.626644 1.763457
-4.902820 7.613525 -0.474583
-4.911108 7.629313 2.094744
-4.900733 7.616115 -0.158084
-4.923382 7.654258 2.438593
-3.511063 5.473245 -1.742370
-11.511092 17.951040 0.372225
-4.162402 6.493576 -1.780712
-8.720692 13.604758 0.846901
-4.891325 7.633668 -1.762312
-5.563270 8.685678 0.902411
-4.863459 7.596013 -1.428560
-4.881766 7.627538 1.111936
-4.905041 7.666850 -1.117542
-4.908713 7.672589 1.442639
-4.857322 7.595182 -0.788759
-4.883329 7.638786 1.762312
-4.868687 7.618811 -0.473850
-4.882347 7.643126 2.093844
-4.865759 7.617158 -0.157770
-4.881339 7.644489 2.430311
-3.501274 5.500134 -1.747029
-11.506271 18.075142 0.374005
-4.147125 6.517207 -1.783412
-8.723534 13.714319 0.851820
-4.859384 7.642411 -1.760404
-5.523301 8.689910 0.900842
-4.822350 7.587091 -1.423867
-4.842608 7.621902 1.108767
-4.890234 7.699830 -1.119979
-4.873432 7.676334 1.440136
-4.823308 7.600314 -0.787539
-4.840090 7.626758 1.755824
-4.834834 7.621423 -0.473012
-4.845496 7.641170 2.088896
-4.826295 7.613829 -0.157351
-4.843249 7.643532 2.424617
-3.484049 5.513347 -1.747546
-11.508247 18.218330 0.376134
-4.116024 6.518463 -1.779813
-8.724649 13.822375 0.856635
-4.822488 7.640220 -1.756206
-5.480630 8.686275 0.898576
-4.787405 7.590513 -1.421364
-4.803270 7.618608 1.105842
-4.835806 7.673190 -1.113642
-4.836076 7.676588 1.437007
-4.790380 7.606988 -0.786493
-4.799839 7.622008 1.750863
-4.787986 7.606137 -0.471024
-4.810489 7.644844 2.085296
-4.791169 7.617089 -0.157072
-4.807286 7.645673 2.419958
-3.455609 5.512986 -1.743405
-11.509372 18.361742 0.378263
-4.089108 6.526185 -1.778013
-8.708150 13.903529 0.859775
-4.787158 7.646197 -1.753535
-5.443473 8.697859 0.897704
-4.755362 7.601309 -1.420112
-4.772434 7.628598 1.104867
-4.839517 7.738832 -1.120710
-4.798780 7.676671 1.433878
-4.753238 7.606769 -0.784750
-4.761468 7.622899 1.747047
-4.747385 7.603305 -0.469768
-4.767993 7.639279 2.078998
-4.756082 7.620194 -0.156792
-4.770344 7.646016 2.414782
-3.436345 5.525013 -1.743405
-11.503237 18.502298 0.380288
-4.060017 6.532853 -1.775764
-7.499892 12.067855 0.744636
-4.745937 7.639513 -1.748192
-5.403621 8.701572 0.896135
-4.717338 7.599402 -1.416671
-4.735023 7.630856 1.102674
-4.783916 7.712655 -1.114373
-4.757379 7.669872 1.429498
-4.725605 7.621622 -0.784576
-4.726558 7.626122 1.743994
-4.712398 7.606248 -0.468930
-4.731036 7.639309 2.074499
-4.713659 7.611250 -0.156269
-4.737523 7.652767 2.411676
-3.409935 5.525467 -1.739782
-11.517428 18.662872 0.382801
-4.042424 6.552914 -1.777563
-7.470304 12.114361 0.745892
-4.708937 7.639322 -1.744376
-5.352309 8.686458 0.892649
-4.682787 7.599866 -1.413855
-4.701363 7.632996 1.100724
-4.758312 7.728478 -1.114373
-4.720222 7.669609 1.426370
-4.684357 7.614312 -0.782136
-4.689924 7.623362 1.739796
-4.675642 7.603119 -0.467779
-4.694453 7.636694 2.069550
-4.676593 7.610619 -0.155920
-4.696627 7.646210 2.404429
-3.390585 5.535097 -1.739264
-11.510694 18.798460 0.384756
-4.020545 6.568646 -1.778013
-7.446736 12.171027 0.747776
-4.679482 7.648196 -1.742849
-5.316198 8.692260 0.891429
-4.642837 7.594256 -1.409788
-4.668480 7.639196 1.099262
-4.711642 7.712856 -1.109742
-4.686213 7.674239 1.424179
-4.649446 7.617011 -0.780741
-4.645898 7.611198 1.733309
-4.643870 7.610869 -0.467255
-4.668780 7.654699 2.070000
-4.645838 7.620067 -0.155780
-4.658846 7.644413 2.398735
-3.366261 5.540884 -1.737193
-11.511449 18.947906 0.386990
-3.985451 6.562654 -1.772614
-7.423895 12.229387 0.749765
-4.643268 7.651869 -1.739796
-5.290502 8.721910 0.892475
-4.598582 7.584197 -1.404782
-4.625317 7.628288 1.095362
-4.689836 7.737742 -1.110961
-4.651209 7.677034 1.421677
-4.607347 7.607633 -0.778126
-4.615935 7.624817 1.732546
-4.606639 7.612460 -0.466313
-4.624556 7.645079 2.062801
-4.608858 7.619128 -0.155431
-4.627138 7.652362 2.396147
-3.350890 5.559217 -1.739264
-11.511073 19.104727 0.389328
-3.959362 6.573878 -1.771715
-7.424443 12.327085 0.754161
-4.606405 7.651210 -1.735980
-5.262081 8.743736 0.892823
-4.568005 7.593433 -1.403530
-4.590167 7.633280 1.093655
-4.638947 7.717449 -1.105599
-4.617260 7.681370 1.419487
-4.579735 7.621963 -0.777952
-4.582217 7.629101 1.729874
-4.568731 7.609656 -0.465162
-4.583800 7.637784 2.056503
-4.571942 7.618025 -0.155082
-4.594436 7.658526 2.393041
-3.331463 5.570881 -1.739264
-11.522573 19.268080 0.391876
-3.938541 6.588643 -1.772164
-7.421319 12.419792 0.758243
-4.570607 7.652075 -1.732546
-5.249915 8.792842 0.895961
-4.538754 7.601753 -1.402279
-4.553637 7.629711 1.090974
-4.545185 7.618572 -1.089268
-4.576256 7.673687 1.415106
-4.536780 7.610519 -0.775163
-4.548849 7.630764 1.726821
-4.538358 7.616188 -0.464639
-4.547480 7.634525 2.051554
-4.538163 7.621909 -0.154838
-4.556804 7.656257 2.387347
-3.305084 5.568608 -1.735123
-11.523610 19.423407 0.394215
-3.914523 6.600676 -1.771715
-7.423903 12.518201 0.762744
-4.535196 7.650300 -1.728730
-4.684433 7.905187 0.803925
-4.502122 7.600554 -1.399150
-4.516863 7.628477 1.088537
-4.554965 7.695888 -1.098043
-4.540720 7.671822 1.411978
-4.499345 7.604944 -0.773071
-4.513192 7.631387 1.723387
-4.505647 7.621665 -0.464011
-4.511881 7.635251 2.047504
-4.499639 7.614535 -0.154384
-4.516654 7.646376 2.379582
-3.282686 5.575116 -1.733570
-11.517988 19.561457 0.396239
-3.889648 6.608581 -1.770365
-7.430798 12.630113 0.767978
-4.504485 7.659314 -1.727203
-4.640656 7.894009 0.801136
-4.462879 7.591600 -1.394770
-4.483494 7.629723 1.086587
-4.540476 7.729781 -1.100724
-4.504910 7.672297 1.409162
-4.465709 7.608575 -0.771851
-4.474939 7.624302 1.718426
-4.473271 7.624508 -0.463278
-4.482591 7.643449 2.045705
-4.463927 7.614670 -0.154070
-4.486027 7.655430 2.377512
-3.261255 5.580968 -1.732017
-11.522250 19.725870 0.398753
-3.856729 6.605291 -1.765866
-7.430965 12.731871 0.772583
-4.471142 7.660646 -1.724150
-4.605415 7.893868 0.799567
-4.428389 7.593482 -1.392267
-4.441840 7.619602 1.082931
-4.482486 7.692412 -1.093168
-4.473131 7.679439 1.407597
-4.432433 7.609569 -0.770457
-4.432494 7.612728 1.712320
-4.435580 7.621088 -0.462127
-4.443146 7.637151 2.039856
-4.430285 7.618105 -0.153826
-4.450541 7.656009 2.372853
-3.244661 5.597331 -1.733570
-11.523508 19.887081 0.401196
-3.833647 6.618714 -1.765866
-7.417503 12.811312 0.775828
-4.434539 7.659215 -1.720334
-4.569849 7.896098 0.798172
-4.396908 7.600346 -1.390703
-4.409254 7.624748 1.081469
-4.476467 7.744104 -1.098287
-4.436413 7.677904 1.404469
-4.401855 7.618095 -0.769760
-4.403932 7.624753 1.711557
-4.391972 7.607121 -0.460347
-4.413535 7.647552 2.038507
-4.399671 7.626594 -0.153686
-4.423787 7.671499 2.372853
-3.223176 5.605274 -1.732535
-4.533175 7.886617 0.158782
-3.807609 6.626986 -1.764516
-4.525897 7.880321 0.476257
-4.392129 7.647409 -1.714228
-4.534321 7.898180 0.796778
-4.361504 7.600227 -1.387887
-4.377671 7.631485 1.080250
-4.451385 7.763127 -1.098774
-4.399763 7.676203 1.401340
-4.365329 7.616127 -0.768016
-4.369479 7.626452 1.708504
-4.361423 7.615471 -0.459928
-4.380038 7.651073 2.035357
-4.362095 7.622814 -0.153302
-4.382596 7.661740 2.365088
-3.194020 5.599710 -1.727358
-4.508590 7.907603 0.158887
-3.784454 6.640235 -1.764516
-4.504291 7.906484 0.476885
-4.356660 7.647343 -1.710794
-4.327131 7.601670 -1.385384
-4.343150 7.632918 1.078300
-4.407577 7.749282 -1.094630
-4.365133 7.677776 1.398837
-4.327887 7.612266 -0.766099
-4.339919 7.636539 1.707359
-4.325936 7.615019 -0.458986
-4.346570 7.654451 2.032208
-4.322625 7.615386 -0.152848
-4.335806 7.641706 2.354218
-3.175458 5.608037 -1.726841
-3.755896 6.638525 -1.760917
-4.314255 7.628527 0.459300
-4.328749 7.654156 -1.709267
-4.307311 7.619351 0.765750
-4.292536 7.596311 -1.381942
-4.316221 7.641337 1.077569
-4.394920 7.783836 -1.097555
-4.331279 7.674251 1.395709
-4.356831 7.719523 -0.775512
-4.293721 7.610807 1.698582
-4.301008 7.626833 -0.458882
-4.303360 7.634118 2.023210
-4.293772 7.620218 -0.152674
-4.300398 7.635092 2.348006
-3.158702 5.624139 -1.728394
-4.278862 7.621722 0.152569
-3.725072 6.637998 -1.757318
-4.280762 7.631345 0.458568
-4.295283 7.657233 -1.706596
-4.275817 7.625649 0.764879
-4.254406 7.590569 -1.378188
-4.272059 7.625185 1.073182
-4.340565 7.750633 -1.090731
-4.296747 7.675531 1.393206
-4.264654 7.618203 -0.763833
-4.260419 7.613755 1.695910
-4.255836 7.608680 -0.456893
-4.269080 7.635485 2.019611
-4.262271 7.626431 -0.152499
-4.270895 7.644995 2.346453
-3.135292 5.628380 -1.726323
-4.247365 7.627877 0.152394
-3.702825 6.652664 -1.757768
-4.251186 7.641005 0.458254
-4.259940 7.656738 -1.703161
-4.249171 7.640530 0.764879
-4.221163 7.593288 -1.375998
-4.236740 7.624433 1.070988
-4.309626 7.758797 -1.089756
-4.264173 7.680122 1.391328
-4.244803 7.645236 -0.765053
-4.227146 7.616565 1.693239
-4.217622 7.602532 -0.455637
-4.231058 7.629890 2.014212
-4.225927 7.623774 -0.152150
-4.236691 7.646340 2.342312
-3.113756 5.635909 -1.725288
-4.209113 7.621649 0.151976
-3.672047 6.651900 -1.754168
-4.206152 7.622574 0.456265
-4.222751 7.652655 -1.698963
-4.215740 7.643103 0.763659
-4.189865 7.599327 -1.374433
-4.205307 7.630484 1.069769
-4.271982 7.754666 -1.087075
-4.224953 7.672464 1.387261
-4.210403 7.646044 -0.763659
-4.194854 7.620954 1.690949
-4.189135 7.613708 -0.455428
-4.197827 7.632659 2.011062
-4.188694 7.619201 -0.151766
-4.204394 7.650923 2.339206
-3.090350 5.639967 -1.723217
-4.179603 7.631033 0.151871
-3.648806 6.664676 -1.754168
-4.186229 7.649476 0.456998
-4.192241 7.660461 -1.697437
-4.180431 7.642039 0.762090
-4.158572 7.605241 -1.372869
-4.172931 7.634666 1.068307
-4.246792 7.773015 -1.087562
-4.191515 7.675032 1.385071
-4.172226 7.639712 -0.761567
-4.163521 7.626935 1.689041
-4.153924 7.612504 -0.454485
-4.166490 7.638713 2.008813
-4.155369 7.621488 -0.151522
-4.166570 7.645196 2.332995
-3.071567 5.652417 -1.723735
-4.139575 7.620977 0.151382
-3.631097 6.687649 -1.756868
-4.147118 7.641220 0.455637
-4.157984 7.661242 -1.694384
-4.146127 7.642576 0.760695
-4.118818 7.595399 -1.368489
-4.136798 7.631733 1.065869
-4.210175 7.770338 -1.085125
-4.155293 7.672246 1.381942
-4.118019 7.603422 -0.756512
-4.128462 7.625883 1.685607
-4.122571 7.618176 -0.453962
-4.132385 7.639497 2.005214
-4.122084 7.623632 -0.151277
-4.133426 7.647799 2.329371
-3.051819 5.663104 -1.723735
-4.109156 7.628337 0.151243
-3.593874 6.674545 -1.750119
-4.112849 7.641580 0.454800
-4.120052 7.654963 -1.689804
-4.113759 7.646476 0.759649
-4.084797 7.595811 -1.365986
-4.096036 7.619898 1.062213
-4.179265 7.777994 -1.084150
-4.124750 7.679741 1.380691
-4.085798 7.607218 -0.755466
-4.090676 7.619490 1.681027
-4.082730 7.607883 -0.452497
-4.098325 7.640137 2.001615
-4.086945 7.622113 -0.150963
-4.098490 7.646857 2.324713
-3.030210 5.670315 -1.722700
-4.076848 7.632052 0.151033
-3.568717 6.683612 -1.749219
-4.072042 7.629461 0.453229
-4.091455 7.665835 -1.689041
-4.079542 7.646726 0.758255
-4.053608 7.601310 -1.364421
-4.062874 7.621889 1.060507
-4.144623 7.778518 -1.082200
-4.086771 7.673171 1.376936
-4.051723 7.607366 -0.754071
-4.062207 7.630258 1.680264
-4.048643 7.607982 -0.451659
-4.059732 7.632031 1.995766
-4.054679 7.625741 -0.150754
-4.067240 7.652586 2.322124
-3.011304 5.682564 -1.723217
-4.043632 7.633866 0.150789
-3.544454 6.694305 -1.748769
-4.039244 7.628799 0.452392
-4.053653 7.659247 -1.684462
-4.048168 7.652112 0.757383
-4.020587 7.603188 -1.362231
-4.030680 7.625493 1.059045
-4.111883 7.782406 -1.080737
-4.053923 7.672707 1.374433
-4.016772 7.605607 -0.752503
-4.029133 7.632237 1.677593
-4.020200 7.618535 -0.451450
-4.036705 7.653049 1.997565
-4.020041 7.621455 -0.150405
-4.046348 7.674576 2.324713
-2.981564 5.674231 -1.717523
-4.016432 7.643694 0.150719
-3.518609 6.699122 -1.746970
-4.008878 7.635779 0.451973
-4.017768 7.655968 -1.680646
-4.006621 7.637967 0.754594
-3.992598 7.611233 -1.361293
-4.009056 7.645851 1.060020
-4.080522 7.785450 -1.079275
-4.021613 7.676313 1.372556
-3.982802 7.605462 -0.751108
-4.011997 7.661210 1.681027
-3.987502 7.617670 -0.450613
-4.004978 7.654307 1.994416
-3.989703 7.628355 -0.150265
-4.003421 7.657838 2.315395
-2.959160 5.677233 -1.715453
-3.978641 7.636385 0.150300
-3.496105 6.713092 -1.747420
-3.974820 7.635555 0.451136
-3.990546 7.665765 -1.679883
-3.970237 7.630002 0.752503
-3.953245 7.600587 -1.356913
-3.976850 7.649231 1.058557
-4.038676 7.771463 -1.075375
-3.997527 7.695564 1.373495
-3.951133 7.606250 -0.749888
-3.960804 7.628123 1.670724
-3.960888 7.631541 -0.450613
-3.964772 7.642295 1.987668
-3.965814 7.647560 -0.150370
-3.962443 7.644323 2.307113
-2.941984 5.692677 -1.717006
-3.945537 7.637790 0.150056
-3.464605 6.709670 -1.743371
-3.946308 7.645833 0.450927
-3.954756 7.662203 -1.676066
-3.941753 7.640271 0.752154
-3.925783 7.612586 -1.356600
-3.939208 7.641893 1.055632
-4.015163 7.792572 -1.076350
-3.955262 7.679617 1.368176
-3.934591 7.639481 -0.751805
-3.925164 7.624447 1.666907
-3.932399 7.641768 -0.450403
-3.937181 7.654354 1.987218
-3.928121 7.640016 -0.149951
-3.929556 7.646080 2.303490
-2.921216 5.701192 -1.716488
-3.912469 7.639058 0.149811
-3.438497 6.716520 -1.742021
-3.908678 7.638226 0.449671
-3.921728 7.663726 -1.673395
-3.909614 7.643342 0.751108
-3.909079 7.645589 -1.360041
-3.897153 7.625546 1.051489
-3.950006 7.732293 -1.066113
-3.923043 7.682820 1.366299
-3.893404 7.624777 -0.749016
-3.894065 7.629359 1.664999
-3.882099 7.609193 -0.447682
-3.897161 7.642010 1.980469
-3.885991 7.623394 -0.149358
-3.894946 7.644259 2.298831
-2.902173 5.713077 -1.717006
-3.874914 7.631273 0.149393
-3.414150 6.726744 -1.741571
-3.878379 7.644698 0.449252
-3.889624 7.666863 -1.671105
-3.881105 7.653390 0.750760
-3.863614 7.622186 -1.353471
-3.868719 7.635561 1.051001
-3.926577 7.753120 -1.067088
-3.884604 7.673555 1.362231
-3.856868 7.618767 -0.747099
-3.862093 7.632394 1.662710
-3.851005 7.613787 -0.447158
-3.864304 7.643393 1.977320
-3.846731 7.611926 -0.148869
-3.867366 7.656085 2.298313
-2.875260 5.709370 -1.712865
-3.848254 7.644752 0.149393
-3.388895 6.735139 -1.740671
-3.844489 7.643917 0.448415
-3.850487 7.655841 -1.665763
-3.844524 7.647309 0.748842
-3.826338 7.614446 -1.349717
-3.837585 7.640151 1.049783
-3.892366 7.752585 -1.065138
-3.850704 7.672945 1.359729
-3.819524 7.610815 -0.745007
-3.823102 7.621262 1.657367
-3.817244 7.612900 -0.446321
-3.832363 7.646383 1.974620
-3.812969 7.611004 -0.148590
-3.826779 7.641899 2.290031
-2.852726 5.714186 -1.711312
-3.809047 7.633088 0.148904
-3.364496 6.745183 -1.740221
-3.815112 7.651926 0.448101
-3.819361 7.660448 -1.663854
-3.810699 7.646417 0.747448
-3.785645 7.599465 -1.344711
-3.808236 7.648170 1.049051
-3.863513 7.762569 -1.064651
-3.821259 7.681034 1.358790
-3.787611 7.613398 -0.743961
-3.794725 7.631046 1.656604
-3.787092 7.619022 -0.445902
-3.803912 7.656223 1.973721
-3.784598 7.620687 -0.148520
-3.794929 7.644827 2.286925
-2.832761 5.724110 -1.711312
-3.777057 7.635583 0.148695
-3.334022 6.742911 -1.736622
-3.784406 7.653792 0.447472
-3.786507 7.661415 -1.661183
-3.780453 7.652528 0.746750
-3.751221 7.596694 -1.341895
-3.768338 7.634715 1.045395
-3.834634 7.772449 -1.064163
-3.788773 7.679492 1.356287
-3.754842 7.614066 -0.742741
-3.757650 7.623113 1.652024
-3.751644 7.614281 -0.444856
-3.766834 7.648475 1.968322
-3.754007 7.622431 -0.148311
-3.764435 7.646972 2.283819
-2.811062 5.730494 -1.710276
-3.749956 7.644476 0.148625
-3.312500 6.755680 -1.737072
-3.748875 7.649023 0.446426
-3.755423 7.665769 -1.659275
-3.751966 7.662097 0.746402
-3.722535 7.601995 -1.340644
-3.739511 7.640036 1.044420
-3.785286 7.736977 -1.057582
-3.757606 7.683797 1.354723
-3.726492 7.623545 -0.742393
-3.728903 7.628476 1.650498
-3.722868 7.619501 -0.444437
-3.726910 7.631158 1.960673
-3.723869 7.628300 -0.148171
-3.736027 7.656593 2.282784
-2.790352 5.736309 -1.709241
-3.717129 7.644929 0.148380
-3.288044 6.765450 -1.736622
-3.714295 7.645895 0.445484
-3.719686 7.656991 -1.654696
-3.714355 7.649404 0.743961
-3.693387 7.609611 -1.339705
-3.707618 7.642328 1.042958
-3.757391 7.748356 -1.057338
-3.714389 7.663095 1.348778
-3.697713 7.628690 -0.741695
-3.697113 7.630846 1.648208
-3.691894 7.623463 -0.443914
-3.693459 7.630087 1.957074
-3.690249 7.626852 -0.147892
-3.702547 7.655676 2.278643
-2.769474 5.744274 -1.708723
-3.682606 7.641646 0.148066
-3.262718 6.773375 -1.735722
-3.681520 7.646215 0.444751
-3.687826 7.659314 -1.652406
-3.683309 7.653348 0.743090
-3.665091 7.618896 -1.339079
-3.675759 7.644489 1.041496
-3.720860 7.741745 -1.054657
-3.678209 7.656426 1.345337
-3.658984 7.616408 -0.739255
-3.667056 7.636624 1.646682
-3.660077 7.625499 -0.443286
-3.671861 7.653475 1.959774
-3.654094 7.619852 -0.147508
-3.671627 7.659842 2.276055
-2.741911 5.738218 -1.704065
-3.649012 7.640020 0.147787
-3.235698 6.777687 -1.733923
-3.652228 7.653611 0.444437
-3.658533 7.666824 -1.651261
-3.649707 7.651773 0.741695
-3.626570 7.606682 -1.334699
-3.646492 7.651896 1.040764
-3.695519 7.758271 -1.055145
-3.647213 7.660302 1.343772
-3.622096 7.607548 -0.737163
-3.634473 7.636969 1.644010
-3.626571 7.623801 -0.442448
-3.640937 7.657447 1.957524
-3.624038 7.625338 -0.147368
-3.634917 7.651672 2.269843
-2.723516 5.751247 -1.705100
-3.620612 7.649095 0.147717
-3.209517 6.783656 -1.732573
-3.626342 7.668120 0.444542
-3.628389 7.672450 -1.649735
-3.629788 7.678875 0.743090
-3.593246 7.605005 -1.332196
-3.617215 7.659194 1.040033
-3.669265 7.772919 -1.055389
-3.615396 7.662266 1.341895
-3.592119 7.612936 -0.736466
-3.600254 7.633629 1.640576
-3.594828 7.625573 -0.441820
-3.605050 7.650718 1.952575
-3.595696 7.634322 -0.147298
-3.604896 7.657321 2.267772
-2.705884 5.765966 -1.706653
-3.599836 7.674359 0.147962
-3.182511 6.787760 -1.730773
-3.608026 7.698818 0.445588
-3.598251 7.677959 -1.648208
-3.626629 7.742018 0.747971
-3.561654 7.606767 -1.330319
-3.587931 7.666381 1.039302
-3.641270 7.783880 -1.055145
-3.585282 7.667682 1.340644
-3.569745 7.634453 -0.737338
-3.569427 7.637257 1.638668
-3.565654 7.632646 -0.441506
-3.570075 7.645599 1.948076
-3.563103 7.634143 -0.147054
-3.572429 7.657602 2.264149
-2.684113 5.771872 -1.705618
-3.599996 7.744907 0.149078
-3.157975 6.797061 -1.730324
-3.607210 7.767519 0.448833
-3.561507 7.669104 -1.643629
-3.626424 7.812461 0.753549
-3.535078 7.619154 -1.330319
-3.566996 7.691463 1.041008
-3.603222 7.773131 -1.051976
-3.539392 7.638927 1.333447
-3.538046 7.636021 -0.736292
-3.532848 7.628292 1.634088
-3.529758 7.625110 -0.440355
-3.534365 7.638558 1.943127
-3.526362 7.624754 -0.146635
-3.544865 7.668274 2.263631
-2.658489 5.766706 -1.701476
-3.604422 7.822183 0.150335
-3.134604 6.805726 -1.729874
-3.610667 7.842937 0.452497
-3.532773 7.673738 -1.642102
-3.623819 7.875122 0.758429
-3.508143 7.627244 -1.329693
-3.546447 7.714071 1.042470
-3.567481 7.763391 -1.049051
-3.507443 7.636262 1.330945
-3.496070 7.611502 -0.732805
-3.502619 7.629260 1.631799
-3.504454 7.636773 -0.440355
-3.507388 7.646695 1.942227
-3.494393 7.621864 -0.146356
-3.506541 7.651887 2.255349
-2.638341 5.775951 -1.701476
-3.600352 7.885650 0.151312
-3.109208 6.813081 -1.728974
-3.612277 7.919094 0.456160
-3.499444 7.671734 -1.639049
-3.624408 7.949361 0.764356
-3.469208 7.612482 -1.325000
-3.524434 7.737243 1.043933
-3.515680 7.721598 -1.041739
-3.477495 7.641267 1.329693
-3.468656 7.621845 -0.732631
-3.462958 7.612848 1.625693
-3.471161 7.634415 -0.439517
-3.481483 7.660665 1.942677
-3.463629 7.624912 -0.146181
-3.474217 7.651768 2.251726
-2.618165 5.785125 -1.701476
-3.601648 7.961939 0.152534
-3.075774 6.802584 -1.723575
-3.615870 8.000814 0.460138
-3.466986 7.671379 -1.636378
-3.626166 8.027328 0.770631
-3.435299 7.608342 -1.322184
-3.495773 7.745879 1.043445
-3.495237 7.748298 -1.043689
-3.445931 7.642554 1.327816
-3.442031 7.633905 -0.732631
-3.431525 7.614149 1.623403
-3.430546 7.615525 -0.437738
-3.451522 7.665662 1.940878
-3.428787 7.618721 -0.145832
-3.445903 7.660324 2.250690
-2.594004 5.785414 -1.698888
-3.605726 8.045632 0.153895
-3.044839 6.797274 -1.719526
-3.611591 8.066250 0.463173
-3.433770 7.669099 -1.633325
-3.633932 8.119956 0.778301
-3.406298 7.614878 -1.321246
-3.467905 7.756222 1.043202
-3.451968 7.724206 -1.038814
-3.415202 7.645519 1.326252
-3.410486 7.634960 -0.731585
-3.403326 7.622495 1.622640
-3.404754 7.629280 -0.437843
-3.415214 7.656308 1.935479
-3.402984 7.632470 -0.145867
-3.412849 7.658190 2.246549
-2.574576 5.796200 -1.699406
-3.607645 8.125792 0.155187
-3.022676 6.811423 -1.720426
-3.615803 8.151837 0.467360
-3.400609 7.666682 -1.630272
-3.633831 8.196341 0.784402
-3.374897 7.615885 -1.319368
-3.447239 7.782801 1.045152
-3.398467 7.676308 -1.030771
-3.377304 7.632102 1.321871
-3.376559 7.630420 -0.730016
-3.369549 7.618170 1.619205
-3.369221 7.621024 -0.436691
-3.383744 7.657487 1.932779
-3.365011 7.618692 -0.145379
-3.381417 7.659452 2.243443
-2.547324 5.789238 -1.694747
-3.610657 8.209723 0.156548
-2.997314 6.818364 -1.719526
-3.615443 8.228408 0.471024
-3.369086 7.667722 -1.627982
-3.606802 8.212624 0.784750
-3.343529 7.616766 -1.317491
-3.422441 7.800241 1.045883
-3.401152 7.755387 -1.039789
-3.347468 7.636609 1.320620
-3.341102 7.622087 -0.728099
-3.352388 7.651465 1.623785
-3.338593 7.623590 -0.436168
-3.349177 7.651401 1.928280
-3.334387 7.621233 -0.145204
-3.344599 7.648198 2.236714
-2.526330 5.796323 -1.694230
-3.501312 8.037117 0.153023
-2.974271 6.830572 -1.719976
-3.448812 7.924159 0.452915
-3.339951 7.674035 -1.626837
-3.438229 7.903611 0.754071
-3.309043 7.610276 -1.314363
-3.399150 7.821241 1.047101
-3.361403 7.738082 -1.035890
-3.319219 7.644623 1.319994
-3.310510 7.624566 -0.727228
-3.310811 7.628901 1.616534
-3.312754 7.637030 -0.436273
-3.319349 7.655892 1.926481
-3.303790 7.623651 -0.145030
-3.316344 7.656282 2.235679
-2.504551 5.801558 -1.693194
-3.411441 7.906076 0.150300
-2.941150 6.819439 -1.714577
-3.416388 7.925143 0.452287
-3.309259 7.676632 -1.624930
-4.675215 10.850508 1.033667
-3.280897 7.618151 -1.313737
-3.370260 7.829412 1.046614
-3.317894 7.711476 -1.030771
-3.287833 7.645274 1.318117
-3.282303 7.632413 -0.726879
-3.277960 7.625982 1.613481
-3.277401 7.628362 -0.435121
-3.289531 7.660270 1.924681
-3.274004 7.627785 -0.144890
-3.285026 7.657160 2.232573
-2.480486 5.801385 -1.690606
-3.378320 7.905065 0.150056
-2.913499 6.820705 -1.712327
-5.982183 14.011478 0.798437
-3.278586 7.679109 -1.623021
-4.671717 10.947392 1.041337
-3.248082 7.615022 -1.311234
-3.349136 7.855739 1.048564
-3.272281 7.679182 -1.024921
-3.253383 7.638530 1.314988
-3.249393 7.629161 -0.725484
-3.251318 7.637379 1.613481
-3.246846 7.630567 -0.434598
-3.255905 7.655567 1.920632
-3.246575 7.637328 -0.144855
-3.251480 7.652578 2.227915
-2.462481 5.815344 -1.692159
-3.341354 7.894710 0.149637
-2.888914 6.829037 -1.711877
-5.983799 14.151846 0.805241
-3.244117 7.672424 -1.619205
-4.673809 11.059065 1.050401
-3.216871 7.615395 -1.309357
-3.323240 7.871037 1.049051
-3.248544 7.697871 -1.025896
-3.220560 7.635279 1.312485
-3.221195 7.636785 -0.725136
-3.221590 7.641444 1.611954
-3.217089 7.634490 -0.434179
-3.225383 7.657906 1.918383
-3.214462 7.635714 -0.144611
-3.228496 7.672783 2.230503
-2.435442 5.807872 -1.687500
-3.307590 7.891572 0.149358
-2.864307 6.837282 -1.711428
-5.988545 14.295033 0.812254
-3.215038 7.678268 -1.618060
-4.669787 11.158018 1.058245
-3.187983 7.621109 -1.308418
-3.295743 7.882591 1.049051
-3.227775 7.723817 -1.027846
-3.190651 7.634982 1.310608
-3.186837 7.629599 -0.723393
-3.190356 7.641774 1.609665
-3.185803 7.634615 -0.433551
-3.197129 7.665520 1.917483
-3.184507 7.635257 -0.144401
-3.189652 7.651352 2.221185
-2.409969 5.803848 -1.683877
-3.272202 7.880334 0.148939
-2.840123 6.843144 -1.710528
-5.988349 14.435765 0.819058
-3.182203 7.674936 -1.615008
-4.671240 11.271802 1.067483
-3.155885 7.615217 -1.305602
-3.271865 7.898979 1.049783
-3.199109 7.727142 -1.026871
-3.159450 7.635121 1.308731
-3.153334 7.624106 -0.721824
-3.159747 7.639611 1.606993
-3.158944 7.641446 -0.433342
-3.169461 7.670677 1.916133
-3.154783 7.638933 -0.144262
-3.159977 7.655295 2.219115
-2.392178 5.815382 -1.684912
-3.243916 7.889859 0.148904
-2.807331 6.831386 -1.705129
-5.988002 14.578516 0.825966
-3.153003 7.676367 -1.613099
-4.674698 11.386758 1.076896
-3.123285 7.611565 -1.303099
-3.248790 7.921372 1.051245
-3.167600 7.727241 -1.025409
-3.126786 7.631480 1.306228
-3.121233 7.617929 -0.720255
-3.125618 7.632427 1.603177
-3.122417 7.628396 -0.431981
-3.139712 7.674479 1.914333
-3.127340 7.648048 -0.144227
-3.132504 7.664493 2.218597
-2.374780 5.830852 -1.686983
-3.215600 7.899283 0.148869
-2.784200 6.842949 -1.705579
-5.986738 14.721437 0.832874
-3.123231 7.680051 -1.611573
-4.675432 11.502677 1.086309
-3.098926 7.627913 -1.304038
-3.226349 7.945537 1.052951
-3.141352 7.740091 -1.025653
-3.100129 7.642348 1.306228
-3.094625 7.628777 -0.720255
-3.098221 7.641471 1.602796
-3.090517 7.626293 -0.431248
-3.096811 7.645656 1.904436
-3.096875 7.649650 -0.144052
-3.100660 7.662844 2.214973
-2.350801 5.830147 -1.684394
-3.186513 7.906749 0.148799
-2.758842 6.849010 -1.704679
-5.988277 14.873789 0.840306
-3.089073 7.672693 -1.607757
-4.676900 11.622436 1.096071
-3.066385 7.624021 -1.301535
-3.194154 7.945699 1.051489
-3.118754 7.762061 -1.027115
-3.062389 7.625627 1.301535
-3.064262 7.630290 -0.719384
-3.071530 7.652238 1.602796
-3.064619 7.638888 -0.431353
-3.065025 7.643759 1.901286
-3.058996 7.632570 -0.143529
-3.069580 7.662861 2.211868
-2.323272 5.820376 -1.679218
-3.151482 7.899252 0.148450
-2.737082 6.864030 -1.706029
-5.986601 15.020766 0.847424
-3.059362 7.676136 -1.606230
-4.676120 11.738641 1.105483
-3.035367 7.623668 -1.299658
-3.173737 7.975246 1.053926
-3.079903 7.743388 -1.023215
-3.032835 7.628927 1.300283
-3.029514 7.620572 -0.717466
-3.037548 7.644669 1.598979
-3.030565 7.630975 -0.430306
-3.039764 7.658033 1.902186
-3.024221 7.622756 -0.143145
-3.036406 7.657367 2.207209
-2.302233 5.826654 -1.678700
-3.117280 7.893465 0.148136
-2.706667 6.857228 -1.701980
-5.992040 15.188343 0.855693
-3.032550 7.686768 -1.606230
-4.673854 11.853127 1.114722
-3.002220 7.617676 -1.296842
-3.147331 7.989971 1.054414
-3.046311 7.737466 -1.021021
-3.004741 7.635790 1.299658
-2.998518 7.619976 -0.716420
-3.007969 7.647919 1.597453
-2.999527 7.630355 -0.429678
-3.000188 7.635948 1.894088
-2.997592 7.633267 -0.143145
-3.005425 7.657129 2.204103
-2.281878 5.834655 -1.678700
-3.085337 7.893123 0.147927
-2.675624 6.848483 -1.697481
-5.995647 15.354283 0.863857
-3.001413 7.686334 -1.603940
-4.677359 11.984445 1.125529
-2.970587 7.615225 -1.294652
-3.121587 8.006455 1.055145
-3.010633 7.725858 -1.018097
-2.975916 7.640711 1.298719
-2.969730 7.624828 -0.715897
-2.983392 7.663859 1.598598
-2.968527 7.629611 -0.429050
-2.972807 7.644559 1.893638
-2.965859 7.630636 -0.142900
-2.973779 7.654969 2.200480
-2.259407 5.837179 -1.677148
-3.055604 7.898249 0.147822
-2.653106 6.861416 -1.698380
-5.991521 15.495167 0.870661
-2.970320 7.685776 -1.601651
-4.675702 12.104777 1.135291
-2.942563 7.621864 -1.294026
-3.094336 8.019156 1.055389
-2.939361 7.621489 -1.002985
-2.947721 7.643165 1.297468
-2.941665 7.631428 -0.715549
-2.943919 7.641250 1.591729
-2.940443 7.636199 -0.428841
-2.939106 7.636702 1.889139
-2.940541 7.640429 -0.142900
-2.946992 7.661181 2.199444
-2.240400 5.848638 -1.678183
-3.027251 7.902736 0.147717
-2.626856 6.861077 -1.696131
-5.990927 15.655889 0.878511
-2.935059 7.674092 -1.597071
-4.681081 12.245716 1.146970
-2.914448 7.624200 -1.292775
-3.075518 8.049770 1.058070
-2.935314 7.686829 -1.010297
-2.915387 7.638645 1.294965
-2.912876 7.636067 -0.715026
-2.919961 7.654641 1.592492
-2.912256 7.638443 -0.428422
-2.912376 7.642765 1.888239
-2.903174 7.622615 -0.142377
-2.918855 7.667811 2.198409
-2.216196 5.843392 -1.674559
-2.995392 7.902036 0.147508
-2.602198 6.868382 -1.695681
-5.992120 15.824261 0.886781
-2.902640 7.665424 -1.593255
-4.682059 12.371112 1.157254
-2.883625 7.623241 -1.290897
-3.057932 8.088310 1.061726
-2.930218 7.754592 -1.017853
-2.885217 7.639534 1.293400
-2.880576 7.631276 -0.713631
-2.897386 7.675807 1.594782
-2.879936 7.633612 -0.427585
-2.881556 7.641943 1.885540
-2.872319 7.621476 -0.142167
-2.881859 7.650835 2.190645
-2.194766 5.851475 -1.674559
-2.961471 7.895593 0.147194
-2.574785 6.868301 -1.693431
-5.992910 15.994702 0.895154
-2.873147 7.672335 -1.592492
-4.675094 12.490819 1.166841
-2.848746 7.615256 -1.287769
-3.087409 8.253251 1.081956
-2.871845 7.681102 -1.006885
-2.858530 7.649560 1.293400
-2.849740 7.630085 -0.712585
-2.854812 7.647749 1.586768
-2.845653 7.627276 -0.426643
-2.850806 7.645150 1.883740
-2.840808 7.618339 -0.141923
-2.854458 7.659038 2.190127
-2.171637 5.851857 -1.672489
-2.929729 7.898895 0.147054
-2.545531 6.866728 -1.690732
-5.991837 16.172009 0.903842
-2.844985 7.678634 -1.591729
-4.679207 12.635981 1.178869
-2.815288 7.606630 -1.284640
-3.191433 8.627563 1.129485
-2.861573 7.739985 -1.013222
-2.826368 7.648867 1.291523
-2.820372 7.636741 -0.712237
-2.828781 7.659510 1.587149
-2.812097 7.618425 -0.425596
-2.820053 7.644085 1.881041
-2.813557 7.630578 -0.141958
-2.823029 7.660385 2.187539
-2.148179 5.854335 -1.670936
-2.902141 7.909073 0.147054
-2.519531 6.870083 -1.689382
-5.991029 16.344721 0.912320
-2.811421 7.674262 -1.588676
-4.678071 12.776528 1.190373
-2.788749 7.620606 -1.285266
-3.199503 8.743045 1.143134
-2.824993 7.723826 -1.009809
-2.795580 7.647555 1.289646
-2.785495 7.624082 -0.710145
-2.797323 7.660605 1.585241
-2.783469 7.626805 -0.425491
-2.785341 7.636061 1.876542
-2.782794 7.629080 -0.141748
-2.793623 7.662932 2.185468
-2.131460 5.862498 -1.671453
-2.870448 7.899358 0.146705
-2.495942 6.872469 -1.688033
-5.996216 16.519285 0.921008
-2.786627 7.681212 -1.588294
-4.687028 12.919584 1.202401
-2.762756 7.619563 -1.283701
-3.205158 8.844504 1.155078
-2.784487 7.687869 -1.003960
-2.765491 7.639583 1.286830
-2.764916 7.642164 -0.711016
-2.775911 7.676740 1.586768
-2.756781 7.627999 -0.425073
-2.761345 7.640628 1.875642
-2.753376 7.622739 -0.141469
-2.768881 7.669854 2.184950
-2.106690 5.861182 -1.668865
-2.839449 7.904180 0.146600
-2.472055 6.885239 -1.688933
-5.997687 16.714102 0.930638
-2.754480 7.680285 -1.586004
-4.682693 13.056702 1.213557
-2.732813 7.624059 -1.282763
-3.209544 8.958975 1.168483
-2.765661 7.724187 -1.007372
-2.734145 7.640367 1.285266
-2.730180 7.633485 -0.709273
-2.742467 7.672074 1.583715
-2.725446 7.628647 -0.424549
-2.733324 7.650697 1.875642
-2.720041 7.617712 -0.141190
-2.731659 7.654479 2.177704
-2.083255 5.863402 -1.667312
-2.804435 7.897573 0.146286
-2.441587 6.879562 -1.685333
-5.998087 16.900574 0.939849
-2.719776 7.667650 -1.581425
-4.678741 13.197718 1.225061
-2.694293 7.604233 -1.277757
-3.206502 9.054884 1.179452
-2.733357 7.723045 -1.005910
-2.703502 7.638692 1.283388
-2.696871 7.624186 -0.707530
-2.710437 7.666792 1.580662
-2.698799 7.638115 -0.424549
-2.702018 7.651476 1.873392
-2.694098 7.629047 -0.141225
-2.703639 7.660324 2.176668
-2.060852 5.865171 -1.665759
-2.773592 7.893623 0.146042
-2.414887 6.876589 -1.682634
-6.001235 17.098557 0.949688
-2.692996 7.677096 -1.581425
-4.678789 13.345582 1.237263
-2.669064 7.613125 -1.277757
-3.204029 9.144150 1.189689
-2.718886 7.763916 -1.010053
-2.675519 7.644354 1.282763
-2.669585 7.631672 -0.707356
-2.683703 7.672031 1.579899
-2.666865 7.628167 -0.423503
-2.674060 7.653036 1.871593
-2.666134 7.634628 -0.141155
-2.674974 7.664241 2.175115
-2.038218 5.862850 -1.663171
-2.746675 7.905147 0.146077
-2.388313 6.877612 -1.680834
-6.000196 17.278732 0.958585
-2.663015 7.673002 -1.578754
-4.686738 13.511615 1.251208
-2.639886 7.614930 -1.276505
-3.207182 9.256568 1.202851
-2.672930 7.718962 -1.002985
