# This PCD file was generated using the MATLAB® pcwrite function
# from Computer Vision Toolbox®.
# .PCD v.7 - Point Cloud Data file format
VERSION .7
FIELDS x y z
SIZE 4 4 4
TYPE F F F
COUNT 1 1 1
WIDTH 1622
HEIGHT 1
VIEWPOINT 0 0 0 1 0 0 0
POINTS 1622
DATA ascii
-23.844267 3.283217 -2.955332
-53.031010 7.339788 -2.805731
-7.849824 1.099030 -2.123869
-9.502447 1.333788 -2.215318
-11.892354 1.671361 -2.334357
-15.969246 2.250012 -2.554262
-23.805729 3.358388 -2.951920
-52.919365 7.503270 -2.801125
-7.827015 1.122312 -2.118693
-9.474824 1.361965 -2.209919
-11.890634 1.711349 -2.335121
-15.969518 2.304085 -2.555514
-23.695629 3.427258 -2.939733
-52.953487 7.687326 -2.804265
-7.849607 1.154929 -2.125940
-9.485435 1.397303 -2.213518
-11.907588 1.758358 -2.339700
-15.960965 2.362604 -2.555514
-23.781704 3.524496 -2.951920
-7.834065 1.180595 -2.122834
-9.491812 1.433806 -2.216218
-11.866436 1.794628 -2.332831
-15.964339 2.420077 -2.557391
-23.670498 3.596732 -2.939733
-7.833504 1.209890 -2.123869
-9.484823 1.466632 -2.215768
-11.859778 1.838109 -2.332831
-15.935842 2.475545 -2.554262
-23.657799 3.679331 -2.939733
-7.821815 1.234656 -2.121799
-9.489270 1.501254 -2.218017
-11.857495 1.878042 -2.333594
-15.904134 2.524657 -2.550508
-23.644812 3.761890 -2.939733
-7.809830 1.260720 -2.119728
-9.485895 1.534680 -2.218467
-11.854743 1.920049 -2.334357
-15.895224 2.580158 -2.550508
-23.729502 3.860341 -2.951920
-7.816818 1.289861 -2.122834
-44.876900 7.413218 0.793945
-9.468945 1.565876 -2.215768
-11.859591 1.963342 -2.336647
-45.058941 7.467526 3.995917
-15.886121 2.635627 -2.550508
-23.715881 3.943150 -2.951920
-45.169151 7.510103 7.252303
-45.285301 7.561906 10.599694
-7.816078 1.317780 -2.123869
-9.473308 1.598889 -2.218017
-11.852665 2.004725 -2.336647
-15.869504 2.686975 -2.549257
-23.702677 4.021768 -2.951920
-44.645706 7.599341 -2.373436
-7.807858 1.343037 -2.122834
-9.463829 1.631286 -2.217118
-11.834344 2.042017 -2.334357
-15.867812 2.743700 -2.550508
-42.949509 7.457261 8.473446
-44.642521 7.759254 -2.374692
-42.436604 7.391097 -0.751885
-7.799316 1.369615 -2.121799
-9.473432 1.667010 -2.220717
-11.800076 2.078546 -2.329015
-15.823125 2.792888 -2.544876
-23.505913 4.157418 -2.930958
-44.760693 7.940856 -2.382438
-7.802094 1.398195 -2.123869
-9.440701 1.695247 -2.214418
-11.808205 2.122505 -2.332067
-15.809388 2.847404 -2.544250
-23.561584 4.252131 -2.939733
-41.284817 7.458061 6.644711
-41.103577 7.432739 8.119305
-40.813831 7.402414 -0.724031
-7.800967 1.426116 -2.124904
-9.427058 1.726787 -2.212619
-11.796863 2.163000 -2.331304
-15.811012 2.904714 -2.546128
-40.640224 7.473536 5.073665
-23.448984 4.316382 -2.927546
-40.884312 7.540564 8.081142
-40.556446 7.494732 9.521729
-7.811134 1.456170 -2.129046
-9.420973 1.759683 -2.212619
-11.800819 2.206331 -2.333594
-15.804658 2.960618 -2.546753
-23.461088 4.403336 -2.930958
-39.859776 7.509972 9.364263
-38.993889 7.346830 -0.692616
-7.794616 1.481263 -2.125940
-38.913536 7.395001 0.691395
-9.426574 1.793097 -2.215318
-11.793046 2.247510 -2.333594
-15.790874 3.012273 -2.546128
-23.446356 4.481112 -2.930958
-39.069111 7.495246 9.184302
-38.378864 7.369760 -0.682145
-7.782074 1.505635 -2.123869
-38.298523 7.416726 0.680923
-9.420257 1.825994 -2.215318
-39.159031 7.597559 2.090508
-11.785528 2.286605 -2.333594
-15.733725 3.058326 -2.538619
-23.376017 4.552299 -2.924133
-38.172787 7.440780 6.159764
-37.715401 7.351624 -3.361771
-37.669952 7.370066 -0.669998
-7.807097 1.538766 -2.132151
-9.400442 1.856223 -2.212169
-11.773623 2.326967 -2.332831
-15.730703 3.114763 -2.539870
-40.591732 8.044731 5.080977
-37.662193 7.477809 6.081547
-37.052429 7.356740 -3.304946
-37.020916 7.363915 -1.978195
-37.739136 7.513625 8.883767
-37.016434 7.376456 -0.658828
-7.786526 1.562968 -2.128010
-36.975391 7.428689 0.658305
-9.395816 1.889408 -2.212619
-37.029568 7.453012 1.979555
-11.757730 2.366501 -2.331304
-15.704244 3.166531 -2.537367
-37.006374 7.468506 4.635423
-23.273617 4.701239 -2.915359
-36.934956 7.467519 5.968288
-36.397694 7.358896 -3.248817
-36.972546 7.481837 7.332408
-37.307777 7.563231 8.788387
-36.414291 7.388715 -0.648566
-7.773452 1.588593 -2.125940
-36.263542 7.417450 0.646088
-9.385345 1.921412 -2.211719
-36.658962 7.511672 1.961133
-11.753243 2.408320 -2.332067
-15.716317 3.226094 -2.541122
-36.797298 7.560095 4.612512
-23.257063 4.782451 -2.915359
-36.196651 7.449850 5.853152
-35.786346 7.365402 -3.196524
-35.794941 7.380204 -1.915392
-36.414684 7.514600 8.584132
-35.789024 7.392008 -0.637886
-7.760293 1.614144 -2.123869
-35.720589 7.436393 0.636873
-9.374765 1.953367 -2.210819
-36.644249 7.642037 1.961761
-11.733235 2.446928 -2.329778
-15.689489 3.277706 -2.538619
-36.836742 7.702309 4.620798
-23.240229 4.863599 -2.915359
-35.845608 7.508130 5.800591
-35.272892 7.388170 -3.152946
-35.674286 7.478744 7.085120
-35.155182 7.376316 -1.882524
-35.808460 7.519920 8.447362
-35.164177 7.391026 -0.627205
-7.758392 1.642021 -2.124904
-35.037106 7.421801 0.625145
-9.379328 1.988506 -2.213518
-36.679871 7.783161 1.965111
-11.739986 2.491127 -2.332831
-15.654766 3.327525 -2.534864
-36.813519 7.831665 4.621286
-23.126030 4.924023 -2.903172
-35.200947 7.501461 5.700473
-34.611637 7.375876 -3.096121
-35.079628 7.481998 6.972161
-34.597939 7.385583 -1.854054
-35.637154 7.613926 8.413169
-34.586716 7.395802 -0.617361
-7.756391 1.669907 -2.125940
-34.479271 7.429479 0.615651
-9.349471 2.016303 -2.208120
-36.689003 7.912334 1.966995
-11.738894 2.533749 -2.334357
-34.622066 7.479235 3.098910
-15.666225 3.387156 -2.538619
-36.801479 7.963480 4.623236
-23.070772 4.992290 -2.898297
-34.480850 7.467627 5.587840
-34.024891 7.375087 -3.045919
-34.477711 7.479538 6.857676
-34.025444 7.387651 -1.824746
-34.065662 7.402600 -0.608496
-7.754585 1.696445 -2.126975
-33.958275 7.435141 0.606785
-9.350348 2.048964 -2.209919
-36.678173 8.037377 1.967832
-11.730428 2.572663 -2.334357
-33.915951 7.444493 3.037901
-15.631755 3.434003 -2.534864
-22.740005 4.999712 -2.858811
-33.904144 7.460510 5.498359
-33.494350 7.376465 -3.000598
-33.961906 7.485649 6.759982
-33.423454 7.373092 -1.793763
-33.529327 7.402576 -0.599351
-34.271217 7.572643 9.404449
-7.745145 1.721313 -2.125940
-33.476669 7.446122 0.598618
-9.335893 2.078267 -2.208120
-36.645992 8.164492 1.967623
-11.702669 2.607280 -2.330541
-33.408806 7.449387 2.994671
-15.643416 3.490984 -2.538619
-33.454342 7.471799 4.208880
-22.385328 5.003712 -2.816401
-33.581024 7.512400 5.450177
-32.971958 7.376145 -2.955974
-33.438782 7.486707 6.660760
-32.938869 7.380817 -1.769060
-36.486198 8.182376 8.632722
-32.999886 7.406587 -0.590345
-7.735320 1.747486 -2.124904
-32.888741 7.435921 0.588565
-9.336184 2.112563 -2.209919
-38.966476 8.824364 2.093857
-11.697326 2.648981 -2.331304
-32.993980 7.477875 2.959809
-15.611870 3.541199 -2.535490
-33.002171 7.491851 4.155257
-22.034773 5.006177 -2.774478
-33.593124 7.638335 5.456435
-32.452534 7.378990 -2.911699
-32.899406 7.486638 6.558487
-32.468899 7.394631 -1.745195
-36.491611 8.317483 8.640821
-32.494225 7.412330 -0.581759
-33.181648 7.575232 9.119748
-7.729173 1.774475 -2.124904
-32.375351 7.438739 0.579839
-9.336349 2.146887 -2.211719
-38.993832 8.973758 2.096997
-11.680358 2.688033 -2.329778
-32.579361 7.503574 2.924947
-15.591715 3.593899 -2.534239
-32.550278 7.508832 4.101635
-21.684481 5.006257 -2.732555
-31.986570 7.396434 -2.872305
-32.322193 7.474041 6.448581
-31.913622 7.385442 -1.716724
-36.526901 8.459763 8.656116
-32.778629 7.603704 9.016221
-7.715092 1.801038 -2.122834
-31.909090 7.448967 0.571950
-9.313618 2.175915 -2.208120
-39.036175 9.127097 2.100975
-11.674248 2.731723 -2.330541
-32.163662 7.532068 2.890084
-15.605364 3.657332 -2.538619
-31.974974 7.493776 4.032413
-21.330591 5.003046 -2.690144
-33.538979 7.872664 5.456435
-31.456261 7.389585 -2.826983
-31.866484 7.491822 6.363099
-31.450846 7.399889 -1.693278
-36.491856 8.592690 8.655217
-32.138893 7.573624 8.847470
-7.720037 1.830630 -2.125940
-31.469095 7.467978 0.564550
-9.316955 2.212740 -2.210819
-39.018005 9.273808 2.101812
-11.668462 2.773362 -2.331304
-31.652596 7.529031 2.846506
-15.561755 3.704464 -2.533613
-31.483839 7.500502 3.973916
-21.084259 5.026864 -2.661383
-33.605972 8.018470 5.472078
-31.002630 7.403018 -2.788635
-31.400940 7.498129 6.275326
-30.962496 7.399154 -1.668366
-31.495972 7.532450 7.476473
-31.599911 7.568969 8.706674
-7.702007 1.856200 -2.122834
-30.984039 7.467217 0.556313
-9.301598 2.243419 -2.209019
-39.000927 9.413698 2.102650
-11.639135 2.811504 -2.327488
-31.043806 7.504547 2.794213
-15.571113 3.767046 -2.537367
-31.013699 7.502998 3.917856
-21.008701 5.086423 -2.654071
-33.627689 8.147815 5.480213
-30.573854 7.413535 -2.752378
-30.953510 7.511322 6.191370
-30.515945 7.410772 -1.645757
-31.055347 7.547505 7.378395
-33.412167 8.120293 -0.600188
-31.423126 7.642704 8.665262
-7.688631 1.878551 -2.120763
-30.520111 7.462575 0.548424
-9.290321 2.273326 -2.208120
-11.626431 2.847119 -2.326725
-30.536295 7.483479 2.750635
-15.547690 3.813123 -2.535490
-30.583790 7.506436 3.866671
-20.941595 5.143752 -2.647734
-33.640293 8.262853 5.486470
-30.113148 7.402067 -2.712984
-30.624733 7.533487 6.130312
-30.147306 7.421630 -1.627125
-30.618990 7.543410 7.280316
-33.347660 8.215654 -0.599490
-7.685777 1.906308 -2.121799
-30.087610 7.462650 0.541094
-9.295971 2.307408 -2.211269
-39.100456 9.712602 2.111442
-11.616423 2.887686 -2.326725
-30.123295 7.493828 2.715773
-15.496621 3.855123 -2.529233
-30.100271 7.493679 3.808661
-20.747215 5.169014 -2.625310
-33.641914 8.387868 5.491476
-29.136030 7.269826 -2.627223
-30.233850 7.543747 6.057041
-29.114893 7.269950 -1.572696
-30.189217 7.543805 7.184037
-33.376972 8.346563 -0.600537
-7.675666 1.930843 -2.120763
-29.658026 7.466084 0.533834
-9.274632 2.336511 -2.208120
-39.012085 9.835359 2.108511
-11.606272 2.928215 -2.326725
-29.673271 7.486445 2.677424
-15.506053 3.914996 -2.532987
-29.712107 7.507282 3.762838
-20.625120 5.215127 -2.612148
-33.639236 8.512033 5.495856
-29.067986 7.360727 -2.623388
-29.623650 7.506936 5.940266
-29.122898 7.385450 -1.574580
-29.754686 7.545669 7.086858
-32.169178 8.163950 -0.579315
-7.676024 1.960875 -2.122834
-29.196484 7.463802 0.526016
-9.266006 2.370487 -2.208120
-38.975777 9.978279 2.108511
-11.595461 2.970737 -2.326725
-29.375422 7.525933 2.653021
-15.472466 3.966893 -2.529859
-29.295982 7.516479 3.713603
-20.605867 5.290687 -2.612148
-29.161470 7.492809 4.768749
-28.917315 7.435463 -2.612232
-29.242290 7.524465 5.869285
-28.890610 7.439355 -1.563484
-29.315424 7.548745 6.988779
-28.885826 7.443492 -0.520675
-32.470833 8.373343 8.985163
-7.668787 1.988994 -2.122834
-28.793430 7.473302 0.519244
-9.253482 2.403455 -2.207220
-38.994835 10.128329 2.111442
-11.569820 3.007241 -2.323672
-28.888723 7.514182 2.611535
-15.461645 4.024575 -2.530484
-28.876356 7.521719 3.663880
-20.594957 5.364579 -2.613123
-28.856054 7.521816 4.723070
-28.567299 7.451872 -2.582947
-28.816933 7.522354 5.789145
-28.524364 7.451307 -1.545062
-28.949514 7.562367 6.907797
-28.573336 7.469428 -0.515509
-29.006254 7.588006 8.033743
-7.643464 2.009502 -2.117657
-28.455204 7.486314 0.513589
-9.245461 2.434128 -2.207220
-28.585331 7.525892 1.549145
-11.548393 3.042591 -2.321382
-28.536133 7.523583 2.581902
-15.467315 4.080866 -2.533613
-28.494261 7.523181 3.618545
-20.584732 5.434873 -2.614098
-28.567396 7.547832 4.679894
-28.176453 7.449800 -2.549828
-28.590647 7.564645 5.748694
-28.117212 7.444640 -1.524337
-28.521135 7.551587 6.811518
-28.285519 7.494485 -0.510762
-28.644814 7.595033 7.940569
-7.636759 2.034838 -2.117657
-28.113344 7.496143 0.507865
-9.229808 2.462764 -2.205420
-28.153662 7.517420 1.527163
-11.534447 3.079858 -2.320619
-28.418634 7.593485 2.573535
-15.415528 4.121930 -2.527355
-28.127815 7.526298 3.575159
-20.550297 5.502587 -2.612148
-28.056223 7.517643 4.600425
-27.770540 7.441095 -2.515315
-28.569199 7.660432 5.749457
-27.729715 7.440524 -1.504659
-28.103130 7.545985 6.717938
-28.297812 7.603553 -0.511460
-28.636782 7.699993 7.945745
-7.638935 2.064003 -2.120246
-27.646879 7.475229 0.499907
-9.221155 2.494965 -2.205420
-27.787947 7.523781 1.508741
-11.546366 3.126259 -2.325199
-28.465033 7.712439 2.580159
-15.412488 4.178813 -2.529233
-27.672226 7.508001 3.520562
-20.534792 5.575333 -2.612635
-27.686684 7.522307 4.544109
-27.402161 7.445004 -2.484287
-28.572596 7.768352 5.755563
-27.352823 7.441853 -1.485609
-27.719364 7.546772 6.632457
-28.298111 7.709639 -0.511949
-27.812012 7.582425 7.724196
-7.640999 2.093207 -2.122834
-27.267693 7.474942 0.493519
-9.208631 2.526107 -2.204520
-27.393034 7.514443 1.488644
-11.535383 3.166545 -2.325199
-28.430250 7.809643 2.579461
-15.405425 4.234682 -2.530484
-27.289846 7.506624 3.475226
-20.473099 5.635389 -2.607273
-27.299723 7.514474 4.484664
-27.060986 7.453833 -2.455700
-28.488523 7.852392 5.744114
-26.995516 7.445945 -1.467605
-27.332182 7.543931 6.546076
-28.314796 7.815142 -0.512717
-27.458979 7.584093 7.633091
-7.639230 2.121416 -2.124387
-26.907497 7.472217 0.487446
-9.188937 2.553499 -2.201821
-27.035664 7.517981 1.470640
-11.512910 3.203637 -2.322909
-28.448881 7.921663 2.583645
-15.376073 4.281507 -2.527981
-26.958843 7.511828 3.436228
-20.469597 5.707516 -2.609223
-26.976503 7.526897 4.435856
-26.693222 7.452878 -2.424673
-28.534184 7.966883 5.758616
-26.620581 7.437612 -1.448555
-26.935411 7.530634 6.456995
-28.310453 7.920397 -0.513136
-27.090038 7.584068 7.537846
-7.596819 2.136798 -2.114552
-26.538614 7.469665 0.481233
-9.191223 2.588730 -2.204520
-26.667078 7.515862 1.452009
-11.487107 3.237532 -2.319856
-28.441631 8.021369 2.585388
-15.368640 4.337300 -2.529233
-26.603874 7.513086 3.394305
-20.438087 5.775690 -2.607760
-26.592710 7.519963 4.377037
-26.296421 7.436178 -2.390856
-28.585537 8.088897 5.774644
-26.302359 7.447773 -1.432645
-26.642721 7.549173 6.393109
-28.309566 8.026815 -0.513624
-26.687986 7.572062 7.433283
-7.611609 2.169658 -2.120763
-26.208546 7.475594 0.475718
-9.182131 2.620795 -2.204520
-26.356451 7.527730 1.436517
-11.475736 3.277613 -2.319856
-28.459436 8.133741 2.589571
-15.338213 4.386571 -2.526730
-26.295031 7.525080 3.358232
-20.394901 5.840439 -2.604836
-26.235882 7.518062 4.322598
-25.960026 7.439013 -2.362618
-28.651491 8.215681 5.793725
-25.945995 7.444794 -1.414641
-26.376455 7.573290 6.335522
-26.312344 7.564824 7.335968
-7.598421 2.194609 -2.119210
-25.848026 7.470419 0.469644
-9.154206 2.647417 -2.200021
-26.049908 7.538626 1.421235
-11.467996 3.318742 -2.320619
-15.300038 4.433488 -2.522975
-26.058880 7.556011 3.331421
-20.393456 5.917127 -2.607273
-25.913540 7.523674 4.273790
-25.677507 7.455145 -2.339260
-25.624502 7.449454 -1.398522
-26.046730 7.577133 6.262638
-25.992723 7.571265 7.254180
-7.585151 2.219489 -2.117657
-25.553116 7.481933 0.464758
-9.144909 2.679358 -2.200021
-25.674614 7.527245 1.402185
-11.467645 3.362067 -2.322909
-29.457283 8.641818 2.685791
-15.322377 4.498000 -2.529233
-25.742846 7.561887 3.294372
-20.346012 5.980436 -2.603861
-25.564951 7.519326 4.220603
-25.326385 7.449158 -2.309627
-29.576559 8.704855 5.992929
-25.314789 7.455342 -1.383030
-25.549065 7.529190 6.149262
-25.640030 7.565725 7.163076
-7.577357 2.245953 -2.117657
-25.212431 7.477832 0.459033
-9.148578 2.715145 -2.203171
-25.322699 7.520154 1.384391
-11.429492 3.394249 -2.317566
-29.461311 8.754813 2.688929
-15.268714 4.540197 -2.522975
-25.423283 7.564513 3.256837
-20.328819 6.052559 -2.604348
-25.235645 7.518278 4.170543
-24.990896 7.445361 -2.281389
-29.568571 8.814767 5.997509
-24.990038 7.454603 -1.366701
-25.227592 7.530262 6.078177
-25.769011 7.696763 -0.469435
-25.298803 7.561136 7.075078
-7.558370 2.269057 -2.114552
-24.910389 7.482957 0.454007
-9.127848 2.743695 -2.200471
-25.059130 7.537169 1.371411
-11.417574 3.434125 -2.317566
-29.438202 8.859897 2.689626
-15.260340 4.595743 -2.524227
-25.107822 7.566152 3.219788
-20.315166 6.125775 -2.605323
-24.933140 7.523005 4.124865
-24.682455 7.447367 -2.255591
-29.567692 8.927013 6.003614
-24.692373 7.459771 -1.351838
-24.936272 7.538198 6.014292
-32.088959 9.706564 -0.585179
-24.994904 7.565451 6.997432
-7.552252 2.295987 -2.115069
-24.589497 7.480235 0.448632
-9.121943 2.776675 -2.201371
-24.684937 7.518689 1.352361
-11.416785 3.477394 -2.319856
-29.475710 8.983506 2.695901
-15.217753 4.640917 -2.519847
-24.636971 7.518177 3.162754
-20.305056 6.200126 -2.606786
-24.612019 7.519948 4.076057
-24.378113 7.448481 -2.230141
-29.566391 9.039355 6.009721
-24.394979 7.462945 -1.336975
-24.730921 7.570437 5.971101
-32.081650 9.826716 -0.585668
-24.691290 7.567732 6.919786
-7.546038 2.322906 -2.115587
-24.280394 7.478902 0.443466
-9.097298 2.803906 -2.197772
-24.433332 7.535349 1.340010
-11.400825 3.516065 -2.319093
-29.470825 9.094566 2.698342
-15.231659 4.703334 -2.524853
-24.333673 7.518568 3.127168
-20.287083 6.272139 -2.607273
-24.313868 7.521753 4.031004
-24.077875 7.448746 -2.205040
-24.074976 7.457050 -1.320855
-24.719233 7.661340 5.974700
-32.085354 9.950483 -0.586366
-24.421175 7.578299 6.851458
-7.543416 2.350957 -2.117140
-24.005968 7.486219 0.438928
-9.066990 2.829262 -2.192823
-24.118408 7.525902 1.324100
-11.395978 3.558181 -2.320619
-15.184982 4.747044 -2.519847
-24.015516 7.512197 3.089632
-20.227173 6.331057 -2.602398
-24.047489 7.526806 3.990957
-23.815966 7.458904 -2.183426
-28.254871 8.854537 5.755563
-23.785805 7.458575 -1.306410
-24.662592 7.738240 5.967502
-32.094154 10.069999 -0.587134
-24.064142 7.555081 6.758283
-7.535163 2.377274 -2.117140
-23.752165 7.493587 0.434739
-9.072426 2.864005 -2.196422
-23.844404 7.531840 1.310493
-11.357281 3.589656 -2.315277
-29.471203 9.320517 2.704268
-15.195524 4.805713 -2.524227
-23.778503 7.524717 3.062333
-20.153078 6.381320 -2.595573
-23.734835 7.520014 3.943401
-23.531487 7.460105 -2.159719
-23.752563 7.530192 4.843496
-23.528677 7.463734 -1.293640
-24.651655 7.824698 5.971101
-32.096924 10.194074 -0.587832
-23.816690 7.568824 6.696167
-7.510675 2.396963 -2.112481
-23.539181 7.516833 0.431319
-9.051236 2.892100 -2.193723
-23.532610 7.523793 1.294792
-11.345315 3.627299 -2.315277
-29.462908 9.425474 2.706360
-15.141029 4.846682 -2.517969
-23.449612 7.510793 3.023335
-20.157148 6.460106 -2.598986
-23.475191 7.528021 3.904605
-23.237213 7.451706 -2.134967
-23.490593 7.537481 4.795412
-23.232449 7.459122 -1.278777
-24.648308 7.918450 5.976950
-32.095413 10.317067 -0.588460
-23.506907 7.560819 6.616450
-7.504102 2.423758 -2.112999
-23.303492 7.531310 0.427479
-9.054064 2.927874 -2.196872
-23.300978 7.539481 1.283487
-11.355000 3.674129 -2.319856
-29.448780 9.534407 2.708103
-15.063885 4.880023 -2.507958
-23.264631 7.541179 3.002861
-20.142027 6.532883 -2.599961
-23.193239 7.526991 3.862055
-23.017761 7.470043 -2.117187
-23.206457 7.535750 4.742749
-22.985926 7.468580 -1.266635
-25.354410 8.243038 6.155111
-32.085831 10.437693 -0.588949
-23.340761 7.597386 6.577110
-7.499267 2.451137 -2.114034
-23.067989 7.544240 0.423640
-9.032677 2.955823 -2.194173
-23.023966 7.538733 1.269670
-11.338373 3.712522 -2.319093
-29.468334 9.654514 2.712984
-15.054267 4.935035 -2.509209
-23.147629 7.592645 2.991161
-20.126644 6.605629 -2.600936
-22.945368 7.535173 3.825136
-22.715179 7.459580 -2.091738
-22.956192 7.543173 4.696954
-22.728239 7.472665 -1.253865
-25.369911 8.346102 6.165908
-32.098579 10.565892 -0.589856
-23.086575 7.603876 6.512923
-7.501670 2.480941 -2.117140
-22.790918 7.541786 0.419032
-9.007504 2.982435 -2.190573
-22.732080 7.531126 1.255016
-11.299253 3.743437 -2.313750
-29.483625 9.773612 2.717516
-15.006950 4.977604 -2.504203
-23.132286 7.677157 2.992624
-20.024338 6.649564 -2.590699
-22.656481 7.528021 3.781334
-22.488583 7.472234 -2.073261
-22.717339 7.552650 4.653450
-22.444279 7.466213 -1.239630
-25.384998 8.449380 6.176706
-32.103245 10.691776 -0.590624
-22.828962 7.607457 6.447700
-7.492964 2.507110 -2.117140
-22.525528 7.541306 0.414634
-9.009974 3.018192 -2.193723
-22.504923 7.543144 1.243921
-11.274949 3.779110 -2.311460
-14.993228 5.031219 -2.504829
-20.001005 6.719422 -2.590699
-22.412861 7.534054 3.745041
-22.235733 7.474513 -2.052343
-22.422878 7.541772 4.598497
-22.202284 7.471889 -1.227697
-25.399672 8.552870 6.187503
-32.080887 10.808872 -0.590904
-22.439804 7.564906 6.345208
-7.458549 2.524579 -2.109893
-22.290726 7.549329 0.410795
-9.012302 3.054002 -2.196872
-22.228779 7.536999 1.230104
-11.261689 3.818444 -2.311460
-14.878306 5.050503 -2.488560
-23.085646 7.841012 2.993599
-19.932322 6.773869 -2.584849
-22.124598 7.523208 3.701240
-21.983150 7.475111 -2.031426
-22.173382 7.544114 4.552703
-21.964308 7.477262 -1.215974
-25.351217 8.635192 6.183005
-32.088390 10.936273 -0.591741
-22.197500 7.569618 6.284127
-7.449692 2.550599 -2.109893
-22.029657 7.546727 0.406467
-8.994212 3.082915 -2.195072
-21.998297 7.544570 1.218800
-11.255720 3.860279 -2.312987
-29.458811 10.108986 2.724837
-14.714857 5.052372 -2.464156
-23.061890 7.922838 2.994086
-19.919817 6.847276 -2.586311
-21.896461 7.531005 3.667450
-21.734606 7.475337 -2.010857
-21.924145 7.544806 4.506909
-21.741673 7.486261 -1.205088
-25.372509 8.741405 6.195602
-32.095390 11.063857 -0.592579
-21.922571 7.561391 6.213728
-7.444394 2.577851 -2.110928
-21.787777 7.548954 0.402487
-8.957620 3.105356 -2.188774
-21.771807 7.551927 1.207705
-11.249597 3.902117 -2.314513
-29.479813 10.231354 2.730067
-14.559042 5.055753 -2.441004
-23.952908 8.322531 3.113518
-19.884544 6.912858 -2.584849
-21.664810 7.536005 3.633034
-21.505146 7.480466 -1.992032
-21.686296 7.547728 4.463404
-21.489073 7.483284 -1.192527
-25.371284 8.840178 6.202800
-32.105663 11.192947 -0.593487
-21.739174 7.583143 6.169211
-7.437173 2.604461 -2.111446
-21.561251 7.554868 0.398787
-8.937531 3.133379 -2.186524
-21.528011 7.547435 1.195563
-11.221086 3.936165 -2.311460
-29.515354 10.359269 2.736690
-14.399659 5.056797 -2.417226
-23.961166 8.419260 3.118393
-19.857765 6.977444 -2.584362
-21.468250 7.547531 3.604250
-21.290953 7.489369 -1.974600
-21.441298 7.546465 4.418374
-21.244289 7.481294 -1.180385
-25.349182 8.926854 6.204600
-32.106098 11.312631 -0.594185
-21.681112 7.643630 6.159894
-7.423033 2.627174 -2.109893
-21.332499 7.554236 0.395018
-8.943623 3.168858 -2.190573
-21.276953 7.538740 1.183002
-11.200570 3.970728 -2.309934
-21.301315 7.555747 1.977389
-14.237604 5.052986 -2.392822
-23.966785 8.510630 3.122780
-19.800844 7.031300 -2.579974
-21.320253 7.575033 3.583601
-21.055744 7.485188 -1.955078
-21.194185 7.538575 4.372579
-21.034964 7.486076 -1.170128
-25.359829 9.025241 6.214498
-32.098553 11.429770 -0.594743
-21.699322 7.731048 6.172317
-7.403366 2.647872 -2.106787
-21.111521 7.554865 0.391388
-8.944072 3.202440 -2.193273
-21.058723 7.544258 1.172326
-11.194734 4.010497 -2.311460
-21.021069 7.534914 1.953683
-14.105486 5.058827 -2.373424
-23.983278 8.606147 3.128630
-19.761234 7.095009 -2.578024
-21.078032 7.571935 3.547308
-20.820799 7.479528 -1.935555
-20.991711 7.545062 4.335944
-20.822081 7.488201 -1.159660
-25.375847 9.130864 6.226195
-32.111134 11.560719 -0.595720
-21.581326 7.774010 6.146435
-7.397711 2.675013 -2.107822
-20.870659 7.550951 0.387409
-8.921846 3.229662 -2.190573
-20.833206 7.545625 1.161230
-11.173283 4.046876 -2.309934
-20.799829 7.537643 1.935555
-13.916892 5.046085 -2.344640
-20.780741 7.538938 2.714274
-19.736351 7.163941 -2.578024
-20.858374 7.575336 3.514770
-20.622272 7.489589 -1.919518
-20.773340 7.548563 4.296256
-20.608109 7.492593 -1.149193
-20.824091 7.575228 5.115837
-20.623112 7.506199 -0.383080
-20.813444 7.579588 5.935238
-7.390143 2.701483 -2.108340
-20.607542 7.537210 0.383011
-8.892217 3.254088 -2.186074
-20.611689 7.546884 1.150344
-11.148026 4.081803 -2.307644
-20.601276 7.547150 1.919518
-13.773071 5.048406 -2.323365
-20.575384 7.545811 2.690876
-19.696312 7.227320 -2.576074
-20.646370 7.580021 3.483483
-20.397749 7.488743 -1.901041
-20.558891 7.551981 4.257330
-20.401863 7.498336 -1.139145
-20.640226 7.590035 5.077146
-20.420374 7.513236 -0.379799
-20.616447 7.589457 5.886580
-7.369795 2.723246 -2.105234
-20.333525 7.517564 0.378403
-8.888115 3.287813 -2.187874
-20.420387 7.557781 1.141133
-11.133711 4.120693 -2.307644
-20.414125 7.559515 1.904527
-13.662748 5.062140 -2.307722
-20.385122 7.556866 2.669426
-19.641184 7.284985 -2.572175
-20.319763 7.540711 3.432798
-20.184692 7.490586 -1.883610
-20.329954 7.548524 4.215353
-20.169622 7.492999 -1.127631
-20.376143 7.573773 5.018658
-20.221592 7.520339 -0.376588
-20.408770 7.594004 5.834816
-7.372913 2.753686 -2.108858
-20.116096 7.517093 0.374843
-8.874759 3.318136 -2.187424
-20.173143 7.546442 1.128782
-11.108226 4.155405 -2.305354
-20.193552 7.558089 1.886399
-13.522901 5.064077 -2.287072
-20.213623 7.573652 2.650415
-19.600763 7.347931 -2.570225
-20.078772 7.531117 3.396506
-19.994261 7.499419 -1.868270
-20.115995 7.549085 4.176427
-19.960098 7.494560 -1.117373
-20.148912 7.569462 4.969169
-20.058575 7.539519 -0.374040
-20.295343 7.632563 5.809970
-7.339761 2.770535 -2.102129
-19.898916 7.515205 0.371282
-8.864944 3.349783 -2.187874
-19.986015 7.556067 1.119780
-11.082636 4.189987 -2.303065
-19.969513 7.553817 1.867922
-13.453413 5.091672 -2.278312
-20.181496 7.642051 2.649683
-19.563860 7.412083 -2.568762
-19.867647 7.531142 3.365219
-19.759302 7.490072 -1.848748
-19.891272 7.544067 4.135213
-19.754553 7.496160 -1.107324
-19.943827 7.571964 4.925078
-20.052696 7.617307 -0.374424
-20.297472 7.714338 5.818253
-7.331850 2.796827 -2.102646
-19.704422 7.520448 0.368141
-8.853199 3.380706 -2.187874
-19.776676 7.555929 1.109522
-11.089950 4.237055 -2.307644
-19.753195 7.550913 1.850142
-13.439249 5.140011 -2.278938
-20.193630 7.727355 2.654802
-19.523035 7.474650 -2.566812
-19.693663 7.543918 3.340189
-19.565586 7.494856 -1.833060
-19.699825 7.550221 4.100867
-19.552971 7.497851 -1.097485
-19.753527 7.578711 4.884587
-20.059589 7.700153 -0.375052
-7.327449 2.824490 -2.104199
-19.484015 7.514345 0.364511
-8.828617 3.406678 -2.184725
-19.601120 7.567374 1.101149
-11.056776 4.268672 -2.303828
-19.566883 7.558080 1.835151
-13.417540 5.185467 -2.278312
-20.177643 7.802094 2.656265
-19.444986 7.522698 -2.559988
-19.475626 7.538454 3.307651
-19.349785 7.489744 -1.815280
-19.504919 7.553712 4.065758
-19.332996 7.491011 -1.086599
-19.570692 7.587041 4.845896
-20.060555 7.780974 -0.375576
-20.293549 7.875422 5.832747
-7.321146 2.851451 -2.105234
-19.289976 7.516966 0.361370
-8.802145 3.431814 -2.181125
-19.377352 7.558811 1.090053
-11.041808 4.307242 -2.303828
-19.351065 7.552444 1.817371
-13.347834 5.212156 -2.269552
-20.183565 7.885481 2.660652
-19.252214 7.525481 -2.538051
-19.276258 7.538764 3.278241
-19.171366 7.497741 -1.800986
-19.310234 7.555936 4.030649
-19.139347 7.492917 -1.077179
-19.337234 7.574286 4.794607
-20.027687 7.848763 -0.375471
-20.305506 7.961722 5.844134
-7.311148 2.876989 -2.105234
-19.099878 7.519789 0.358298
-8.802804 3.467518 -2.184275
-19.194765 7.564887 1.081261
-11.001135 4.335679 -2.298485
-19.224495 7.580480 1.807959
-13.245030 5.225370 -2.255159
-20.200235 7.973376 2.666502
-19.063349 7.528478 -2.516602
-19.080809 7.539222 3.249457
-18.985720 7.501651 -1.785995
-19.108467 7.554002 3.994014
-18.945921 7.493572 -1.067758
-19.140347 7.574335 4.752316
-20.063383 7.943650 -0.376658
-20.302732 8.042520 5.851381
-7.290290 2.898211 -2.102129
-18.908138 7.520643 0.355191
-8.776162 3.492458 -2.180676
-18.984001 7.554649 1.070794
-10.989582 4.375506 -2.299248
-18.983206 7.562015 1.787739
-13.190010 5.256943 -2.248902
-20.220221 8.062956 2.672839
-18.878389 7.531715 -2.495641
-18.934608 7.554144 3.228808
-18.766975 7.491057 -1.767867
-18.914248 7.553669 3.958905
-18.789820 7.507786 -1.060431
-18.958174 7.578886 4.713624
-20.064783 8.021274 -0.377181
-20.297474 8.118411 5.857593
-7.274751 2.921479 -2.100575
-18.723513 7.519207 0.352190
-8.778998 3.527354 -2.184275
-18.835209 7.571704 1.063885
-10.981527 4.416771 -2.300775
-18.786648 7.559800 1.771702
-13.139521 5.287380 -2.243271
-20.208103 8.135897 2.674789
-18.706003 7.534942 -2.476141
-18.893467 7.614281 3.226305
-18.589191 7.495425 -1.753574
-18.743429 7.557616 3.928376
-18.572189 7.492344 -1.049545
-18.777529 7.578987 4.674933
-20.084871 8.110733 -0.378089
-20.304834 8.203688 5.867946
-7.265023 2.945588 -2.100575
-18.541494 7.521381 0.349258
-8.748576 3.550649 -2.179776
-18.653219 7.574286 1.055093
-10.955906 4.448731 -2.298485
-18.635956 7.571065 1.759849
-13.131963 5.337677 -2.245148
-20.201645 8.215361 2.677713
-18.532490 7.540338 -2.456642
-18.874092 7.683166 3.227556
-18.412914 7.495432 -1.739280
-18.531471 7.547464 3.889451
-18.397957 7.496830 -1.041172
-18.584940 7.576804 4.633542
-20.082355 8.191372 -0.378578
-20.326159 8.294948 5.882440
-7.256484 2.971661 -2.101093
-18.378197 7.529954 0.346675
-8.728915 3.578209 -2.177976
-18.452963 7.568111 1.045254
-10.936677 4.485458 -2.297722
-18.436150 7.564974 1.743464
-13.102286 5.378983 -2.243271
-20.205898 8.299404 2.682101
-18.344479 7.538583 -2.435193
-18.839848 7.745997 3.226305
-18.253962 7.505110 -1.726730
-18.377918 7.559824 3.862738
-18.223919 7.500195 -1.032798
-18.396202 7.574854 4.593050
-20.088774 8.275890 -0.379241
-21.340155 8.795774 6.184741
-7.247852 2.997714 -2.101611
-18.185501 7.525246 0.343533
-8.723576 3.611637 -2.179776
-18.260365 7.563691 1.035833
-10.902815 4.516094 -2.293906
-18.273426 7.572837 1.730564
-13.076133 5.421656 -2.242019
-22.578806 9.366300 3.001398
-18.164045 7.538653 -2.414719
-18.805399 7.808684 3.225053
-18.062048 7.500018 -1.711042
-18.180994 7.553128 3.826865
-18.039017 7.497837 -1.023796
-18.232897 7.582155 4.558858
-30.638910 12.747471 -0.579245
-21.348558 8.886544 6.196128
-7.224864 3.017783 -2.097987
-18.004141 7.523908 0.340601
-8.710914 3.642069 -2.179776
-18.075392 7.561100 1.026832
-10.894230 4.557155 -2.295432
-18.085144 7.568884 1.715225
-13.068059 5.471848 -2.243896
-22.553297 9.448127 3.002373
-17.987495 7.539086 -2.394733
-18.774384 7.872752 3.224428
-17.877743 7.496759 -1.696051
-18.067617 7.580089 3.808548
-17.865408 7.498915 -1.015422
-18.051800 7.580863 4.520167
-30.642157 12.874482 -0.580153
-7.203609 3.038478 -2.094882
-17.841433 7.529175 0.338018
-8.703533 3.674727 -2.181125
-17.920101 7.569744 1.019505
-10.874640 4.593626 -2.294669
-17.904453 7.566816 1.700583
-13.034324 5.511277 -2.241393
-17.818476 7.541483 -2.375721
-17.719366 7.503182 -1.683500
-17.932587 7.597156 3.785650
-17.706722 7.505118 -1.007886
-17.881699 7.582965 4.484174
-30.652260 13.004790 -0.581200
-17.921494 7.607222 5.216757
-7.200067 3.066633 -2.096952
-17.660511 7.525563 0.335086
-8.678105 3.699734 -2.177976
-17.739250 7.566428 1.010712
-10.851315 4.628476 -2.293143
-17.734995 7.568277 1.686987
-13.000473 5.550534 -2.238890
-22.548857 9.631855 3.010660
-17.667917 7.550590 -2.359147
-19.772429 8.454053 3.405892
-17.548346 7.503107 -1.669730
-17.772387 7.602568 3.757411
-17.537195 7.505585 -0.999722
-17.720766 7.587804 4.450431
-30.654461 13.132187 -0.582108
-17.763433 7.613418 5.178452
-7.186308 3.088967 -2.095917
-17.506868 7.528782 0.332643
-8.655047 3.723871 -2.175277
-17.570969 7.563617 1.002548
-10.821481 4.658226 -2.290090
-17.596346 7.578186 1.676179
-12.978368 5.592052 -2.238265
-22.535021 9.714436 3.013098
-17.478729 7.538383 -2.337210
-19.769678 8.530531 3.410272
-17.381199 7.503511 -1.656308
-17.617298 7.605436 3.729934
-17.365524 7.500346 -0.991348
-17.539875 7.579276 4.411290
-30.640120 13.246459 -0.582666
-17.589149 7.607861 5.134970
-7.182026 3.118363 -2.097987
-17.348413 7.532506 0.330130
-8.638422 3.752507 -2.174377
-17.408911 7.565995 0.994802
-10.793532 4.693160 -2.287800
-17.422293 7.579042 1.662234
-12.957785 5.639583 -2.238265
-22.537378 9.808884 3.017973
-17.303068 7.534361 -2.317224
-19.757891 8.607378 3.413400
-17.227045 7.508417 -1.644106
-17.452538 7.610317 3.700932
-17.198792 7.503242 -0.983393
-17.379810 7.585830 4.377997
-30.641340 13.374139 -0.583574
-17.431477 7.612003 5.096665
-7.172867 3.144190 -2.098505
-17.188833 7.538215 0.327617
-8.646025 3.793540 -2.179776
-17.247051 7.567335 0.987056
-10.787870 4.735543 -2.290090
-17.235201 7.569311 1.646895
-12.927168 5.680012 -2.236387
-22.548525 9.912192 3.024310
-17.144503 7.540189 -2.299675
-19.765696 8.692995 3.419971
-17.054840 7.504307 -1.630161
-17.285711 7.609494 3.671165
-17.059170 7.513320 -0.976903
-17.201645 7.579660 4.339756
-30.653030 13.506822 -0.584691
-17.256311 7.607340 5.053183
-7.138882 3.159046 -2.091776
-17.021107 7.532056 0.324894
-8.629835 3.820610 -2.178876
-17.096352 7.572491 0.979939
-10.778453 4.776353 -2.291616
-17.092106 7.577742 1.635739
-12.901039 5.719644 -2.235136
-22.551821 10.003010 3.029185
-17.003279 7.545469 -2.284075
-19.783979 8.783580 3.428418
-16.893801 7.503945 -1.617262
-17.055840 7.575920 3.627661
-16.902748 7.511452 -0.969367
-17.066013 7.587577 4.311862
-17.520031 7.793091 -0.334702
-17.091984 7.606265 5.012807
-7.130131 3.183490 -2.092293
-16.859602 7.531068 0.322311
-8.596874 3.841967 -2.173927
-16.931244 7.570165 0.971983
-10.751801 4.807261 -2.289326
-16.954123 7.583940 1.624932
-12.875585 5.762224 -2.234197
-22.527637 10.086537 3.030647
-16.842777 7.544719 -2.266039
-19.771223 8.860664 3.431547
-16.747005 7.505332 -1.605583
-16.871645 7.564726 3.594078
-16.726999 7.503373 -0.960784
-16.900749 7.584862 4.276770
-30.660147 13.766352 -0.586645
-16.984264 7.629472 4.988996
-7.134826 3.215502 -2.096952
-16.716541 7.537270 0.320077
-8.583410 3.871953 -2.173927
-16.777287 7.571707 0.964656
-10.734957 4.844761 -2.289326
-16.767746 7.570928 1.609592
-12.853592 5.806321 -2.233884
-22.528471 10.181457 3.035522
-16.668015 7.536407 -2.246052
-19.790567 8.952422 3.440307
-16.597265 7.507906 -1.593730
-16.702051 7.558814 3.563549
-16.580620 7.507349 -0.953875
-16.742811 7.584307 4.243476
-30.659260 13.894753 -0.587553
-16.785107 7.610529 4.938268
-7.113008 3.235588 -2.093846
-16.570002 7.540911 0.317773
-8.578712 3.905926 -2.176177
-16.608982 7.565646 0.956492
-10.707260 4.877321 -2.287037
-16.621559 7.574882 1.598088
-12.822464 5.846233 -2.232007
-22.528917 10.276512 3.040397
-16.493521 7.526963 -2.226066
-18.616344 8.499652 3.241323
-16.564842 7.566498 3.539889
-16.439869 7.512881 -0.947281
-16.627619 7.602189 4.220982
-30.650579 14.019990 -0.588321
-16.635473 7.612802 4.902033
-7.084114 3.252337 -2.088670
-16.456358 7.558639 0.316098
-8.557941 3.932593 -2.174377
-16.466331 7.570186 0.949793
-10.668763 4.904828 -2.282457
-16.482792 7.581234 1.587280
-12.812744 5.895911 -2.233884
-16.484697 7.589088 2.228259
-16.333721 7.523033 -2.208029
-18.550678 8.548050 3.235065
-16.424223 7.571671 3.515465
-16.292030 7.514177 -0.940268
-16.441734 7.586699 4.180490
-30.652288 14.150365 -0.589298
-16.464985 7.604403 4.859587
-7.077976 3.279482 -2.090223
-16.371815 7.589125 0.314981
-8.547697 3.964082 -2.175277
-16.343298 7.579370 0.944141
-10.662264 4.946995 -2.284747
-16.326109 7.578326 1.574730
-12.767003 5.928952 -2.229504
-16.335688 7.589707 2.211685
-16.188555 7.524779 -2.191942
-18.558058 8.626173 3.241323
-16.262411 7.566017 3.486462
-16.151625 7.517900 -0.933674
-16.287954 7.584818 4.148098
-30.648705 14.272194 -0.590136
-16.334606 7.610012 4.828528
-7.068235 3.304987 -2.090740
-16.324821 7.633210 0.314562
-8.527444 3.989103 -2.173477
-16.179260 7.572032 0.936186
-10.616482 4.970863 -2.278641
-16.184086 7.581178 1.563574
-12.740116 5.967905 -2.228253
-16.195389 7.589925 2.196086
-16.012535 7.507635 -2.171468
-18.549294 8.700968 3.245077
-16.081390 7.546770 -1.554161
-16.127039 7.568193 3.462802
-15.998244 7.511153 -0.926242
-16.142773 7.582448 4.117504
-30.667471 14.411410 -0.591462
-16.182070 7.607802 4.791258
-7.064226 3.331705 -2.092811
-16.316160 7.698681 0.314911
-8.494084 4.009692 -2.168528
-16.019087 7.565347 0.928440
-10.603490 5.007719 -2.279404
-16.050772 7.583736 1.553115
-12.726352 6.015714 -2.229504
-16.043182 7.587002 2.179024
-15.857037 7.502358 -2.153919
-18.515236 8.763978 3.244451
-15.972772 7.563940 3.435325
-15.865436 7.516500 -0.920066
-15.998219 7.582832 4.087360
-30.674797 14.545781 -0.592579
-16.043711 7.611248 4.758130
-7.056042 3.358004 -2.093846
-16.274748 7.748709 0.314632
-8.487073 4.042672 -2.170328
-15.877190 7.566228 0.921741
-10.575312 5.039634 -2.277115
-15.909101 7.584838 1.541959
-12.694576 6.055002 -2.227627
-15.909105 7.591661 2.164400
-15.726850 7.508057 -2.139782
-18.488096 8.830254 3.245077
-15.743790 7.519522 -1.526446
-15.866558 7.581559 3.418153
-15.730986 7.520151 -0.913786
-15.873205 7.591543 4.062166
-30.652699 14.666578 -0.593137
-15.902037 7.612157 4.723965
-7.019897 3.370905 -2.086599
-16.276438 7.819326 0.315190
-8.472909 4.072274 -2.170328
-15.757084 7.576595 0.916298
-10.532885 5.064605 -2.271772
-15.746072 7.574688 1.528712
-12.676922 6.100990 -2.228253
-15.785927 7.600646 2.151238
-15.582509 7.506054 -2.123695
-18.482075 8.906742 3.249457
-15.593604 7.514752 -1.514418
-15.788710 7.612172 3.407086
-15.585910 7.517749 -0.906878
-15.734283 7.592701 4.033372
-30.666145 14.804787 -0.594394
-15.757077 7.610482 4.688766
-7.008088 3.395388 -2.086599
-16.259838 7.881331 0.315400
-8.455136 4.100121 -2.169428
-15.644287 7.589706 0.911274
-10.469216 5.079060 -2.261850
-15.637083 7.589587 1.520693
-12.634225 6.134850 -2.224498
-15.634314 7.594982 2.134176
-15.466942 7.517016 -2.111508
-18.493505 8.991934 3.256966
-15.456183 7.515123 -1.503611
-15.740856 7.656933 3.402506
-15.466188 7.526663 -0.901435
-15.590295 7.590425 4.003229
-30.657427 14.932758 -0.595232
-15.622746 7.612971 4.656672
-6.992721 3.418134 -2.085564
-16.214266 7.929253 0.315051
-8.440772 4.129611 -2.169428
-15.528002 7.600370 0.906040
-10.389706 5.085368 -2.248493
-15.513869 7.596810 1.511281
-12.609187 6.177174 -2.223873
-15.493623 7.593601 2.118577
-15.322971 7.513280 -2.095422
-18.492157 9.071218 3.262285
-15.343999 7.526907 -1.495244
-15.717557 7.713563 3.403269
-15.323285 7.523388 -0.894631
-15.483245 7.605274 3.982533
-30.669725 15.071433 -0.596488
-15.495523 7.618024 4.626649
-6.977282 3.440815 -2.084529
-16.181108 7.983149 0.314946
-8.422812 4.157325 -2.168528
-15.401090 7.605006 0.900179
-10.299717 5.085965 -2.232847
-15.365790 7.590907 1.499427
-12.591089 6.222901 -2.224498
-15.363812 7.596607 2.104440
-15.186338 7.512149 -2.080310
-18.490475 9.150612 3.267603
-15.210488 7.527404 -1.484785
-15.722206 7.784061 3.410139
-15.189549 7.523639 -0.888351
-15.374534 7.618611 3.961388
-30.695761 15.217480 -0.598024
-15.347691 7.611978 4.590415
-6.972147 3.468590 -2.086599
-16.921148 8.421826 0.329920
-8.408247 4.186703 -2.168528
-15.299368 7.621314 0.895782
-10.209853 5.085994 -2.217201
-15.239338 7.594731 1.489666
-12.565753 6.265055 -2.223873
-15.228845 7.596138 2.089572
-15.053450 7.511932 -2.065686
-18.479628 9.225688 3.271358
-15.070033 7.523497 -1.473629
-15.680889 7.831872 3.407086
-15.063142 7.526622 -0.882489
-15.272893 7.634764 3.942042
-15.572515 7.787934 -0.303916
-15.243279 7.626611 4.567121
-6.942731 3.484242 -2.081423
-16.913095 8.491605 0.330339
-8.393582 4.216026 -2.168528
-15.172732 7.624453 0.889921
-10.128884 5.089868 -2.203462
-15.113049 7.597770 1.479905
-12.554398 6.314202 -2.225750
-15.110026 7.602854 2.076898
-14.942024 7.521594 -2.053986
-18.486130 9.309682 3.278241
-14.954707 7.531245 -1.464914
-15.660468 7.890095 3.408612
-14.940467 7.530617 -0.876837
-15.148710 7.638891 3.916848
-15.438109 7.788204 -0.301822
-15.087214 7.614491 4.528298
-6.933974 3.510198 -2.082458
-16.906540 8.562341 0.330793
-8.366646 4.239134 -2.165379
-15.054722 7.627786 0.884478
-10.042762 5.090576 -2.188579
-14.969157 7.591001 1.468400
-12.514664 6.349050 -2.222621
-14.994888 7.610630 2.064711
-14.809481 7.519778 -2.039362
-18.486858 9.387032 3.283873
-14.816418 7.526553 -1.453932
-15.625828 7.941159 3.407086
-14.825072 7.537460 -0.871603
-15.022946 7.641365 3.891203
-15.308821 7.786774 -0.299797
-14.955133 7.610162 4.496205
-6.928561 3.537895 -2.084529
-16.895863 8.627447 0.331142
-8.350807 4.265970 -2.164929
-14.928407 7.629391 0.878616
-9.953262 5.088958 -2.172933
-14.853879 7.597841 1.459684
-12.497059 6.392315 -2.223247
-14.877677 7.613291 2.052036
-14.699646 7.525425 -2.027662
-18.496176 9.473118 3.291382
-14.683664 7.523713 -1.443473
-15.644837 8.016206 3.417008
-14.689799 7.530094 -0.865113
-14.928164 7.655571 3.873207
-15.178353 7.787221 -0.297773
-14.839108 7.616444 4.469288
-6.913355 3.559083 -2.083493
-16.138536 8.311893 0.316866
-8.332400 4.293308 -2.164029
-14.792950 7.622136 0.872127
-9.873511 5.089551 -2.159195
-14.722352 7.592266 1.449226
-12.467646 6.432276 -2.221995
-14.761046 7.618739 2.039605
-14.560402 7.518402 -2.012063
-18.494499 9.549809 3.296700
-14.584287 7.533959 -1.436152
-15.737105 8.132962 3.443339
-14.576490 7.536378 -0.859985
-14.769799 7.639590 3.839015
-15.060084 7.789739 -0.295958
-14.709107 7.611452 4.437711
-6.888887 3.576964 -2.079870
-16.050545 8.334035 0.315679
-8.314658 4.319120 -2.163129
-14.681187 7.629516 0.867102
-9.792974 5.091385 -2.145457
-14.593242 7.590288 1.439116
-12.435733 6.468117 -2.220118
-14.617718 7.606256 2.023275
-14.450873 7.522649 -2.000364
-18.478571 9.623434 3.299829
-14.462486 7.535107 -1.426739
-15.751838 8.206873 3.452498
-14.454006 7.533901 -0.854228
-14.649349 7.638971 3.814270
-14.933519 7.790463 -0.294003
-14.588254 7.613590 4.409242
-6.871854 3.597100 -2.078317
-15.978841 8.367747 0.314841
-8.306437 4.351733 -2.164929
-14.565578 7.630890 0.861764
-9.708221 5.088286 -2.130573
-14.493879 7.599780 1.431795
-12.416579 6.513319 -2.220744
-14.501431 7.610193 2.010844
-14.333132 7.525063 -1.987689
-18.488531 9.706697 3.307338
-14.338642 7.531144 -1.416978
-15.752636 8.277334 3.458986
-14.335691 7.535984 -0.848785
-14.453568 7.601165 3.770180
-14.822649 7.795265 -0.292328
-14.485991 7.621448 4.385948
-6.852421 3.617460 -2.076247
-16.921856 8.933212 0.334004
-8.298854 4.382895 -2.166729
-14.431129 7.624771 0.855379
-9.638329 5.094622 -2.119125
-14.347497 7.586989 1.419941
-12.387926 6.550764 -2.219492
-14.384872 7.609967 1.998170
-14.220372 7.526124 -1.975502
-18.588963 9.842344 3.331429
-14.227755 7.536385 -1.408611
-14.222383 7.536722 -0.843551
-14.328422 7.596113 3.744085
-14.707016 7.800116 -0.290583
-14.375680 7.627600 4.360584
-6.849984 3.646802 -2.079352
-15.912975 8.475332 0.314702
-8.262095 4.402286 -2.161330
-14.322012 7.634396 0.850564
-9.551189 5.091293 -2.103860
-14.247087 7.597650 1.412620
-12.348146 6.587759 -2.216677
-14.234295 7.597210 1.981108
-14.108640 7.533309 -1.963803
-18.503975 9.884355 3.322669
-14.101188 7.532497 -1.398675
-15.763728 8.424116 3.474250
-14.097793 7.537005 -0.837794
-14.216282 7.603547 3.722040
-14.643066 7.835095 -0.289884
-14.238624 7.621885 4.327455
-6.837213 3.670691 -2.079352
-15.833967 8.504334 0.313724
-8.258694 4.437555 -2.164479
-14.193244 7.629496 0.844493
-9.474564 5.092997 -2.090885
-14.118704 7.592604 1.402510
-12.319857 6.628011 -2.215738
-14.134274 7.607337 1.970871
-13.973893 7.524164 -1.948691
-18.493708 9.961996 3.327049
-14.002893 7.542932 -1.391528
-15.737684 8.480954 3.475014
-13.972944 7.533097 -0.831932
-14.098750 7.604093 3.698195
-29.412523 15.870129 -0.583364
-14.111630 7.617404 4.296914
-6.824358 3.694535 -2.079352
-15.923754 8.624312 0.316098
-8.246580 4.468214 -2.165379
-14.080484 7.632355 0.839364
-9.380784 5.084873 -2.074094
-14.008046 7.596253 1.394143
-12.296646 6.670976 -2.215738
-14.013419 7.605497 1.957709
-13.860316 7.525536 -1.936504
-18.479652 10.037806 3.330803
-13.888940 7.544216 -1.382813
-15.742483 8.554585 3.482646
-13.876376 7.543665 -0.827746
-13.969405 7.597398 3.671201
-29.378023 15.984170 -0.583783
-13.993330 7.616744 4.268961
-6.789377 3.706299 -2.072623
-15.795269 8.626170 0.314143
-8.227512 4.495104 -2.164479
-13.980152 7.641224 0.834968
-9.321633 5.094987 -2.064935
-13.890543 7.595399 1.385079
-12.255955 6.704379 -2.212609
-13.910164 7.612436 1.946985
-13.757350 7.531928 -1.925780
-18.499941 10.132617 3.340815
-13.771653 7.542883 -1.373749
-15.757289 8.634017 3.492568
-13.762389 7.544055 -0.822512
-13.865910 7.603948 3.650956
-29.385160 16.121256 -0.585040
-13.871819 7.613488 4.239974
-6.789937 3.737431 -2.076764
-15.656459 8.621450 0.311979
-8.213480 4.524735 -2.164929
-13.858520 7.634538 0.829211
-9.269402 5.108544 -2.057303
-13.787175 7.601513 1.377409
-12.220371 6.740438 -2.210419
-13.798344 7.613952 1.935042
-13.657983 7.539610 -1.915542
-18.499096 10.212049 3.346759
-13.652804 7.539857 -1.364510
-15.727057 8.688965 3.492568
-13.659060 7.549539 -0.817906
-13.754009 7.605157 3.628461
-29.387535 16.249575 -0.586157
-13.770426 7.617368 4.216681
-6.775160 3.760172 -2.076247
-15.505389 8.605394 0.309536
-8.188207 4.546271 -2.162230
-13.751471 7.638256 0.824396
-9.241217 5.135149 -2.055013
-13.676970 7.603123 1.369042
-12.197951 6.780926 -2.210419
-13.681070 7.608532 1.922123
-13.553109 7.540466 -1.904330
-18.503036 10.298652 3.353955
-13.546327 7.542885 -1.356492
-15.741036 8.764947 3.502108
-13.546708 7.546195 -0.812673
-13.653817 7.608979 3.608665
-29.400501 16.391001 -0.587553
-13.664454 7.621162 4.192351
-6.755909 3.778847 -2.074176
-15.363575 8.596969 0.307302
-8.162086 4.569114 -2.159530
-13.630623 7.633516 0.818744
-9.224137 5.165766 -2.055013
-13.578679 7.607535 1.361721
-12.155252 6.812840 -2.206978
-13.571316 7.609641 1.910424
-13.440143 7.539168 -1.892144
-18.503151 10.383478 3.360525
-13.455215 7.550710 -1.349868
-15.746298 8.840024 3.510123
-13.440182 7.548444 -0.807858
-13.538828 7.606960 3.585270
-29.405863 16.528805 -0.588809
-13.567044 7.629045 4.170610
-6.746045 3.804302 -2.075211
-15.235938 8.595521 0.305347
-8.135902 4.591833 -2.156831
-13.520413 7.633912 0.813720
-9.188954 5.188278 -2.051197
-13.493059 7.621572 1.355795
-12.131395 6.855231 -2.206978
-13.459997 7.609096 1.898481
-13.327348 7.537177 -1.879957
-18.487421 10.459681 3.364280
-13.350739 7.553486 -1.342024
-15.746098 8.912342 3.516992
-13.332066 7.549060 -0.802938
-13.446064 7.616714 3.567724
-29.379303 16.649097 -0.589438
-13.447903 7.623952 4.142140
-6.715929 3.818279 -2.070035
-15.118931 8.599220 0.303602
-8.128294 4.625021 -2.159080
-13.399953 7.627706 0.808067
-9.163962 5.216437 -2.049670
-13.369417 7.613413 1.346033
-12.109109 6.898511 -2.207291
-13.362643 7.615734 1.888487
-13.225079 7.540393 -1.869232
-18.500559 10.552534 3.373353
-13.236029 7.549698 -1.333134
-15.738766 8.980870 3.522334
-13.237985 7.556939 -0.798856
-13.394011 7.649107 3.560975
-29.386993 16.789238 -0.590764
-13.333989 7.621003 4.115223
-6.712616 3.847463 -2.073141
-15.005555 8.604198 0.301927
-8.101958 4.647549 -2.156381
-13.276238 7.618765 0.802206
-9.137184 5.243507 -2.047762
-13.225263 7.592580 1.334180
-12.069539 6.931884 -2.204475
-13.253361 7.614863 1.876788
-13.126393 7.544964 -1.858995
-13.233797 7.609768 2.417851
-13.133599 7.552153 -1.325465
-15.754970 9.063166 3.533020
-13.135357 7.559269 -0.794251
-13.367231 7.695812 3.560975
-29.397511 16.931643 -0.592160
-13.270480 7.646283 4.103835
-6.699146 3.870870 -2.073141
-13.531555 7.821896 0.272816
-8.072190 4.667997 -2.152782
-13.150619 7.604759 0.796135
-9.091637 5.259639 -2.041656
-13.129702 7.598779 1.327208
-12.028173 6.964075 -2.201346
-13.137372 7.609345 1.864114
-13.024403 7.546944 -1.848271
-13.140122 7.613997 2.405337
-13.039932 7.558982 -1.318666
-15.741917 9.128943 3.537217
-13.022513 7.554959 -0.789017
-13.345342 7.745360 3.562325
-29.400013 17.063160 -0.593347
-13.191590 7.659207 4.087271
-6.677245 3.889370 -2.070552
-13.422601 7.818414 0.271141
-8.046562 4.688853 -2.150082
-13.029094 7.595291 0.790378
-9.059652 5.283432 -2.038604
-13.027377 7.600388 1.319538
-12.003307 7.002928 -2.201033
-13.040064 7.610837 1.853877
-12.920449 7.544051 -1.837059
-13.033296 7.612990 2.390632
-12.929175 7.555199 -1.310125
-15.753936 9.205855 3.546758
-12.933591 7.560806 -0.785144
-13.322948 7.791540 3.563225
-29.395498 17.198000 -0.594464
-13.109756 7.673003 4.070189
-6.672642 3.916380 -2.073141
-13.312455 7.816619 0.269465
-8.028467 4.715924 -2.149632
-12.921568 7.593170 0.785458
-9.035312 5.309468 -2.037077
-12.940269 7.607197 1.313263
-11.966871 7.037773 -2.198843
-12.943267 7.615041 1.843883
-12.815341 7.542789 -1.825847
-12.924935 7.610330 2.375614
