# This PCD file was generated using the MATLAB® pcwrite function
# from Computer Vision Toolbox®.
# .PCD v.7 - Point Cloud Data file format
VERSION .7
FIELDS x y z
SIZE 4 4 4
TYPE F F F
COUNT 1 1 1
WIDTH 1704
HEIGHT 1
VIEWPOINT 0 0 0 1 0 0 0
POINTS 1704
DATA ascii
6.795124 7.748354 -0.540107
6.836991 7.793358 2.393479
6.802163 7.750921 -0.180004
6.822498 7.771357 2.770917
3.717836 4.224484 -1.507880
6.828864 7.756738 0.180388
4.223218 4.795362 -1.475229
4.528056 5.139688 -1.331465
14.303566 16.229925 1.892674
5.246261 5.950717 -1.256482
7.092964 8.042554 1.316676
6.446914 7.307448 -1.196513
6.854514 7.766721 1.640685
6.837081 7.746969 -0.903979
6.881366 7.794398 2.021049
6.835348 7.739559 -0.541154
6.875768 7.782587 2.397528
6.856989 7.758594 -0.180737
6.896926 7.801047 2.790070
3.724871 4.202807 -1.504774
6.879780 7.759785 0.181016
4.234760 4.774757 -1.473429
9.739853 10.977984 0.769129
4.555089 5.134132 -1.334136
9.728602 10.961439 1.282235
5.272248 5.938275 -1.257733
8.924304 10.048161 1.650111
6.459199 7.270057 -1.194076
6.896020 7.758986 1.644126
6.890556 7.752839 -0.907466
6.943747 7.809948 2.031353
6.892854 7.749975 -0.543561
6.922325 7.780375 2.404277
6.901308 7.754035 -0.181191
6.926686 7.779808 2.791105
3.734374 4.184013 -1.502703
6.929460 7.761085 0.181610
4.256593 4.765761 -1.475229
9.759486 10.923065 0.767664
4.589989 5.137232 -1.339098
14.605056 16.340624 1.917426
5.295577 5.922782 -1.258359
8.913008 9.965158 1.641580
6.484539 7.247464 -1.194076
6.949409 7.764307 1.650384
6.932192 7.745071 -0.909383
6.984065 7.800288 2.035169
6.950515 7.760083 -0.545969
6.972847 7.782291 2.412375
6.960366 7.765634 -0.182029
6.970568 7.774279 2.797834
3.741207 4.162333 -1.499598
6.967207 7.748745 0.181889
4.275811 4.753770 -1.476129
4.618397 5.132855 -1.342151
14.837955 16.485012 1.940436
5.300359 5.886644 -1.254605
8.922495 9.905964 1.636949
6.504478 7.218891 -1.193101
7.001562 7.770571 1.656641
6.979196 7.743022 -0.911998
7.019137 7.784611 2.037459
7.015011 7.777306 -0.548900
7.016943 7.776710 2.418224
7.006176 7.764778 -0.182552
7.019608 7.776936 2.807152
3.766086 4.160706 -1.503739
7.019706 7.755247 0.182587
4.281086 4.728010 -1.472530
4.658698 5.141434 -1.348638
14.930201 16.471495 1.944968
5.317196 5.866108 -1.253979
8.924624 9.842501 1.631343
6.531051 7.200220 -1.193588
7.056522 7.776803 1.663211
7.034297 7.749599 -0.915658
7.063385 7.781645 2.042801
7.048821 7.762870 -0.549528
7.076758 7.790905 2.429921
7.046680 7.755079 -0.182901
7.070100 7.778119 2.816469
3.777259 4.145338 -1.502703
7.068289 7.754339 0.183146
4.296250 4.711598 -1.472080
4.679689 5.130309 -1.349783
5.326985 5.835841 -1.251476
8.914757 9.762911 1.623300
6.537403 7.156858 -1.190176
7.103611 7.774000 1.667904
7.085495 7.754174 -0.918970
7.114350 7.783023 2.049670
7.088007 7.751482 -0.550470
7.114431 7.777659 2.433521
7.110158 7.770265 -0.183844
7.129819 7.789014 2.829410
3.795624 4.136399 -1.504256
7.122355 7.759088 0.183844
4.311354 4.695136 -1.471630
4.706868 5.124062 -1.352454
5.352673 5.823027 -1.252727
8.919224 9.699584 1.617938
6.562341 7.133999 -1.190176
7.146757 7.766597 1.671659
7.136805 7.755782 -0.922108
7.177377 7.797141 2.059974
7.139373 7.753140 -0.552354
7.170585 7.784309 2.443418
7.144016 7.752749 -0.184018
7.175294 7.783967 2.836657
3.792996 4.104679 -1.497527
7.176545 7.763545 0.184542
4.322423 4.674335 -1.469830
4.750054 5.134984 -1.359705
5.364913 5.795610 -1.250850
6.584506 7.108134 -1.189689
7.193950 7.766043 1.676665
7.178732 7.746896 -0.924025
7.223233 7.792198 2.065317
7.197627 7.761857 -0.554761
7.216270 7.779232 2.449717
7.199606 7.761268 -0.184786
7.220777 7.781373 2.844421
3.812567 4.097070 -1.499598
7.218600 7.757269 0.184961
4.336572 4.658551 -1.469380
4.790700 5.142792 -1.366192
5.376021 5.769118 -1.248973
8.424660 9.037502 1.517030
6.599920 7.077547 -1.188226
7.253352 7.775553 1.684174
7.226119 7.743642 -0.926640
7.265109 7.785425 2.069896
7.247860 7.764224 -0.556645
7.267293 7.782325 2.458265
7.251224 7.762393 -0.185414
7.271639 7.781525 2.853739
3.819528 4.077356 -1.497009
7.275714 7.764127 0.185729
4.343478 4.633431 -1.466231
4.822499 5.142631 -1.370390
15.752257 16.792065 2.014344
5.388018 5.741673 -1.247096
8.437133 8.987780 1.513617
6.621866 7.051573 -1.187739
7.304796 7.776100 1.689805
7.281755 7.748862 -0.930300
7.311061 7.780047 2.075239
7.285860 7.750519 -0.557483
7.326457 7.790980 2.469063
7.309787 7.770536 -0.186217
7.329206 7.788454 2.865645
3.838425 4.067544 -1.498562
7.324732 7.761950 0.186287
4.362302 4.621075 -1.467131
26.578106 28.144911 2.028751
4.850754 5.134911 -1.373062
15.887597 16.812410 2.023756
5.411739 5.724759 -1.247721
8.495727 8.987126 1.518492
6.638259 7.019760 -1.186276
7.359047 7.779253 1.696063
7.334778 7.750895 -0.933612
7.348978 7.763178 2.077910
7.349927 7.761467 -0.560204
7.372383 7.782468 2.474911
7.358870 7.768203 -0.186776
7.376282 7.783854 2.873409
3.851266 4.052722 -1.498045
7.377931 7.761141 0.186915
4.381895 4.607881 -1.468031
4.874060 5.123638 -1.374588
5.431690 5.705832 -1.247721
8.569679 8.999051 1.525804
6.655725 6.986760 -1.184814
7.403862 7.769390 1.699817
7.381034 7.745435 -0.936053
7.416668 7.780111 2.089359
7.390756 7.750220 -0.561251
7.431788 7.790524 2.485709
7.405241 7.759984 -0.187229
7.438109 7.791702 2.886350
3.861383 4.035066 -1.496492
7.429870 7.761340 0.187544
4.393909 4.588336 -1.466681
4.920434 5.136365 -1.382602
15.985284 16.680946 2.021316
5.442004 5.676856 -1.245531
8.620274 8.989143 1.529217
6.671830 6.954888 -1.183351
7.458293 7.772002 1.706074
7.436996 7.749809 -0.939713
7.457376 7.768338 2.093175
7.445435 7.753183 -0.563344
7.475140 7.781398 2.491108
7.451680 7.754275 -0.187718
7.488024 7.789365 2.895150
3.872765 4.018779 -1.495457
7.484669 7.764156 0.188242
4.405840 4.568760 -1.465331
4.950603 5.131875 -1.386037
5.453557 5.649297 -1.243654
8.670906 8.978988 1.532629
6.700372 6.938438 -1.184326
7.510097 7.774225 1.712019
7.487540 7.748161 -0.942677
7.509010 7.767665 2.100044
7.505769 7.761609 -0.565856
7.534764 7.791593 2.502356
7.510725 7.764014 -0.188556
7.531276 7.782540 2.901879
3.887417 4.007300 -1.495974
7.532658 7.762252 0.188800
4.423680 4.556922 -1.466231
4.982640 5.130920 -1.390234
15.681966 16.143030 1.969023
5.475013 5.634016 -1.244280
8.058605 8.289737 1.419534
6.720578 6.913332 -1.183839
7.562004 7.776184 1.717963
7.538197 7.748996 -0.945814
7.563483 7.772267 2.108058
7.550972 7.756710 -0.567322
7.593187 7.800075 2.513153
7.561539 7.764853 -0.189184
7.585353 7.786580 2.912750
3.895285 3.988859 -1.493904
7.590495 7.770132 0.189603
4.426511 4.529683 -1.462182
5.016095 5.131217 -1.394814
5.482616 5.604530 -1.241777
8.094379 8.271482 1.420997
6.733555 6.878488 -1.181889
7.616746 7.777965 1.724221
7.587552 7.748153 -0.948777
7.615317 7.773791 2.115309
7.604610 7.760159 -0.569415
7.632648 7.786044 2.517202
7.627803 7.778386 -0.190161
7.639539 7.787641 2.923102
3.917311 3.983503 -1.497009
7.635804 7.762119 0.190057
4.449127 4.521152 -1.464431
5.046371 5.126269 -1.398248
5.510466 5.593801 -1.243654
8.853313 8.984074 1.548716
6.746377 6.843629 -1.179939
7.661883 7.769613 1.728288
7.649529 7.757085 -0.953135
7.685146 7.790490 2.127139
7.651295 7.753469 -0.570881
7.684425 7.784315 2.525301
7.666147 7.763097 -0.190441
7.701977 7.796658 2.936561
3.928474 3.967058 -1.495974
7.693812 7.766674 0.190825
4.464882 4.505593 -1.464431
9.769584 9.855210 0.727261
5.075293 5.119776 -1.401301
5.516042 5.560511 -1.240525
8.221842 8.285223 1.433184
6.764630 6.814405 -1.178964
7.716790 7.770859 1.734545
7.699016 7.752960 -0.955924
7.726131 7.777542 2.130955
7.713511 7.762128 -0.573497
7.740396 7.786472 2.534749
7.719992 7.763228 -0.191104
7.753672 7.794376 2.945879
3.931385 3.942379 -1.491833
7.749124 7.768083 0.191523
4.475078 4.484461 -1.462632
9.750303 9.767337 0.723283
5.122259 5.131207 -1.409315
15.897422 15.919638 1.968325
5.535420 5.541221 -1.240525
8.974752 8.981023 1.558953
6.788377 6.790749 -1.178964
7.773203 7.773206 1.741116
7.742940 7.742943 -0.958016
7.781000 7.778286 2.138587
7.773051 7.767628 -0.575905
7.803377 7.795212 2.546446
7.781001 7.770147 -0.191942
7.794503 7.780913 2.951055
3.947859 3.931359 -1.492868
7.798869 7.763555 0.192081
4.486560 4.464690 -1.461282
9.739025 9.688170 0.719933
5.151273 5.124374 -1.412368
15.952899 15.864045 1.968325
5.560331 5.527437 -1.241777
8.972252 8.916059 1.553103
6.800775 6.755817 -1.177014
7.832527 7.778041 1.748312
7.829296 7.774833 -0.965337
7.830396 7.773211 2.144693
7.824220 7.764362 -0.577684
7.852674 7.789886 2.553644
7.843573 7.778142 -0.192814
7.854545 7.786298 2.963478
3.965680 3.921628 -1.494421
7.854362 7.764403 0.192779
4.502118 4.449001 -1.461282
9.740107 9.621830 0.717526
5.164940 5.102221 -1.411223
9.767651 9.645673 1.201006
5.572564 5.501054 -1.240213
9.020277 8.901416 1.556028
6.810183 6.718098 -1.174577
7.891981 7.782552 1.755508
7.891856 7.782429 -0.969695
7.899427 7.787176 2.156142
7.881147 7.766444 -0.579882
7.908974 7.791145 2.563092
7.892050 7.771760 -0.193338
7.909209 7.785939 2.973831
3.968317 3.896934 -1.490280
7.915664 7.770562 0.193617
4.512056 4.427800 -1.459482
9.735135 9.550010 0.714700
5.178513 5.080038 -1.410079
9.724442 9.536191 1.191593
5.591734 5.481567 -1.240213
9.102333 8.919894 1.564802
6.833590 6.694286 -1.174577
7.937449 7.772922 1.759575
7.955987 7.791075 -0.974227
7.947604 7.780157 2.161866
7.928192 7.758445 -0.581348
7.966770 7.793468 2.572990
7.942004 7.766537 -0.193896
7.977784 7.798795 2.989360
3.979130 3.880359 -1.489245
7.977104 7.776386 0.194455
4.527486 4.412021 -1.459482
9.731218 9.479733 0.711978
5.211685 5.076998 -1.414276
9.714847 9.460489 1.186364
5.609418 5.460639 -1.239900
9.130571 8.885296 1.564315
6.854069 6.667625 -1.174089
7.992855 7.772712 1.765832
8.001702 7.781315 -0.976493
8.002870 7.779734 2.169498
7.988172 7.762735 -0.583755
8.021880 7.792770 2.581988
7.994891 7.763841 -0.194525
8.022977 7.788394 2.996089
3.989875 3.863759 -1.488210
8.018570 7.762400 0.194804
4.542858 4.396192 -1.459482
9.733893 9.419634 0.709885
5.235018 5.064237 -1.415803
9.724898 9.404358 1.183575
5.622763 5.435534 -1.238648
9.087300 8.781640 1.551641
6.860170 6.627107 -1.171165
8.049841 7.776361 1.772716
8.066080 7.789320 -0.981025
8.062463 7.783114 2.178276
8.045400 7.763931 -0.585953
8.071475 7.786366 2.589187
8.052257 7.767827 -0.195292
8.076570 7.788568 3.006442
4.003338 3.849807 -1.488210
8.078862 7.769031 0.195641
4.540554 4.364895 -1.454084
9.739350 9.359307 0.707896
5.252666 5.045930 -1.415803
9.714557 9.328951 1.178346
5.626510 5.403174 -1.235520
9.170788 8.803699 1.560903
6.884975 6.607069 -1.171652
8.108299 7.778296 1.779599
8.137794 7.803872 -0.986429
8.109481 7.776720 2.184000
8.097055 7.762085 -0.587838
8.142273 7.802705 2.603584
8.121194 7.779794 -0.196305
8.134406 7.789721 3.017830
4.016082 3.836511 -1.488210
8.134854 7.768406 0.196340
4.558581 4.351711 -1.454983
9.732775 9.291099 0.705175
5.260847 5.020353 -1.413513
9.728141 9.280179 1.176254
5.648194 5.386229 -1.236145
9.309226 8.874359 1.579183
6.893628 6.569299 -1.169215
8.165511 7.781344 1.786482
8.196810 7.808448 -0.990438
8.180655 7.790334 2.195830
8.160268 7.768199 -0.590454
8.194869 7.798419 2.611682
8.167231 7.772118 -0.196793
8.200782 7.801319 3.032842
4.032251 3.825129 -1.489245
8.188132 7.767537 0.197003
4.570158 4.333889 -1.454084
9.727463 9.221340 0.702453
5.278337 5.001960 -1.413513
9.722863 9.210546 1.171722
5.660287 5.362036 -1.234894
9.376082 8.878925 1.585520
6.921139 6.551862 -1.170189
8.218445 7.777239 1.792113
8.255861 7.809909 -0.994273
8.229264 7.784748 2.201936
8.213554 7.767171 -0.592443
8.247590 7.796638 2.620230
8.213207 7.761414 -0.197247
8.258861 7.801828 3.044230
4.028706 3.795134 -1.483033
8.257313 7.775858 0.197980
4.594524 4.325125 -1.456783
9.737772 9.166800 0.700883
5.281470 4.970048 -1.409697
9.723030 9.146515 1.167887
5.685657 5.346668 -1.236145
9.719527 9.136827 1.637924
6.939319 6.521015 -1.169215
8.275774 7.776908 1.798684
8.303397 7.800146 -0.996713
8.302105 7.796197 2.213766
8.281282 7.773925 -0.595269
8.300274 7.789021 2.627878
8.289830 7.779220 -0.198434
8.308586 7.794101 3.052512
4.041930 3.781047 -1.483033
8.304959 7.768922 0.198504
4.611690 4.312527 -1.457683
9.746369 9.110928 0.699208
5.307394 4.959624 -1.411987
9.731602 9.090761 1.165098
5.694696 5.319692 -1.234268
9.742517 9.097774 1.636705
6.949297 6.487129 -1.167265
8.343307 7.785711 1.807444
8.366999 7.805088 -1.001071
8.350881 7.790052 2.219872
8.346457 7.783195 -0.598095
8.363113 7.796006 2.639575
8.354966 7.785687 -0.199341
8.365429 7.792701 3.063382
4.048785 3.762363 -1.480963
8.362788 7.768471 0.199237
4.612436 4.283141 -1.453184
9.745912 9.046955 0.696906
5.323811 4.941998 -1.411987
9.758771 9.055731 1.164749
5.708888 5.295750 -1.233329
9.753839 9.044811 1.633293
6.974807 6.465536 -1.167752
8.403761 7.787419 1.814640
8.433757 7.815215 -1.005952
8.398189 7.779532 2.225215
8.402879 7.781159 -0.600189
8.434611 7.807803 2.653523
8.407045 7.779562 -0.199935
8.419522 7.788380 3.073217
4.064732 3.750829 -1.481998
8.428073 7.774482 0.200144
4.624495 4.264371 -1.452284
9.753933 8.991222 0.695231
5.346802 4.928708 -1.413513
9.400587 8.662473 1.118382
5.728793 5.277126 -1.233642
9.250887 8.518558 1.544085
6.985651 6.430392 -1.165802
8.467235 7.791475 1.822462
8.496174 7.818104 -1.010135
8.471528 7.792703 2.237427
8.462335 7.781520 -0.602492
8.483336 7.798093 2.660271
8.465069 7.778584 -0.200668
8.485069 7.794230 3.087194
4.080650 3.739226 -1.483033
8.475801 7.763927 0.200633
4.645098 4.253470 -1.454084
9.312352 8.524231 0.661631
5.346597 4.894105 -1.408934
9.283777 8.495107 1.100951
5.738430 5.249102 -1.231765
9.265918 8.472816 1.541647
6.996335 6.395252 -1.163852
8.519170 7.784526 1.827781
8.549886 7.812594 -1.013273
8.530570 7.792212 2.245822
8.527795 7.786947 -0.605213
8.537850 7.793397 2.668819
8.521715 7.775943 -0.201366
8.549335 7.798412 3.100652
4.096534 3.727561 -1.484068
8.556108 7.782732 0.201889
4.646942 4.225429 -1.450034
9.302143 8.455402 0.658805
5.366552 4.878055 -1.409697
9.280936 8.433168 1.097116
5.768416 5.239662 -1.234268
9.276330 8.423074 1.538479
7.015675 6.368125 -1.163365
8.572621 7.778636 1.833412
8.596285 7.800108 -1.015539
8.591162 7.792727 2.254599
8.596351 7.794698 -0.608144
8.603984 7.798884 2.680967
8.575481 7.770316 -0.201994
8.608003 7.797056 3.112040
4.092319 3.697697 -1.477857
8.602516 7.770241 0.202343
4.671787 4.218326 -1.453184
9.310847 8.404142 0.657340
5.386464 4.861921 -1.410460
9.286652 8.379363 1.094327
5.786670 5.219496 -1.234268
9.282090 8.369370 1.534579
7.037862 6.343595 -1.163365
8.636408 7.781723 1.841234
8.656021 7.799396 -1.019374
8.640195 7.782397 2.260324
8.653194 7.791370 -0.610237
8.674606 7.807917 2.694464
8.645661 7.779125 -0.203006
8.662459 7.791504 3.121875
4.113830 3.691129 -1.480963
8.666801 7.773547 0.203216
4.677779 4.194185 -1.450484
9.317816 8.351598 0.655770
5.397553 4.837849 -1.408934
9.295068 8.328283 1.091887
5.800441 5.195310 -1.233329
9.269835 8.299844 1.527754
7.057003 6.316343 -1.162877
8.703269 7.787091 1.849681
8.732195 7.812972 -1.025126
8.703890 7.784912 2.269864
8.698204 7.777094 -0.611493
8.738134 7.810053 2.705711
8.698111 7.771550 -0.203600
8.722742 7.790820 3.133781
4.125247 3.675463 -1.480445
8.725244 7.771174 0.203949
4.686570 4.172647 -1.448685
9.314088 8.289811 0.653467
5.411473 4.816370 -1.408170
9.252635 8.232215 1.083520
5.821495 5.177655 -1.233955
9.272047 8.243697 1.523367
7.055269 6.270569 -1.158978
8.767318 7.789462 1.857503
8.792185 7.811555 -1.028961
8.776513 7.794899 2.281694
8.764132 7.781159 -0.614215
8.784293 7.796318 2.711560
8.764075 7.775648 -0.204507
8.794690 7.800059 3.149828
4.142393 3.664880 -1.481998
8.792755 7.776445 0.204891
4.698186 4.153681 -1.447785
9.166377 8.101174 0.641116
5.425312 4.794849 -1.407407
9.160365 8.093021 1.069401
5.821764 5.141612 -1.230201
9.273981 8.187630 1.518980
7.068183 6.238024 -1.157515
8.822598 7.783643 1.863448
8.859736 7.816407 -1.033667
8.834593 7.791484 2.289708
8.815209 7.771655 -0.615890
8.852387 7.801686 2.724157
8.827177 7.776731 -0.205345
8.855206 7.798681 3.161734
4.129035 3.627448 -1.472680
8.860416 7.781331 0.205834
4.712657 4.137255 -1.447785
9.254644 8.121826 0.645302
5.436112 4.770703 -1.405881
9.284416 8.145086 1.080557
5.839677 5.121258 -1.230201
9.284591 8.139506 1.516055
7.104844 6.226398 -1.159953
8.882404 7.781434 1.870331
8.912445 7.807751 -1.036630
8.892751 7.787762 2.297722
8.896381 7.788198 -0.619658
8.926497 7.811803 2.738554
8.887383 7.774836 -0.206113
8.918729 7.799518 3.174675
4.147497 3.618092 -1.474751
8.913148 7.772695 0.206427
4.731474 4.124624 -1.449135
9.322090 8.123586 0.648024
5.455694 4.754276 -1.406644
9.300776 8.102157 1.079162
5.854536 5.098252 -1.229575
9.288993 8.086191 1.512155
7.117551 6.193740 -1.158490
8.948257 7.784095 1.878465
8.981730 7.813213 -1.041511
8.956920 7.788877 2.307263
8.950647 7.780680 -0.621542
8.984595 7.807446 2.748002
8.967303 7.789666 -0.207335
8.976534 7.794935 3.185545
4.163022 3.606121 -1.475786
8.982552 7.778189 0.207404
4.741424 4.104256 -1.447785
9.323303 8.070408 0.646244
5.466319 4.730063 -1.405118
9.306396 8.050091 1.076548
5.863332 5.070031 -1.227698
9.275114 8.017366 1.505330
7.132046 6.164907 -1.157515
9.018864 7.793123 1.887851
9.045136 7.813067 -1.045695
9.028633 7.796054 2.318711
9.004966 7.772882 -0.623426
9.045843 7.808167 2.758800
9.018822 7.782096 -0.207928
9.049147 7.805500 3.202109
4.180813 3.597339 -1.477857
9.047710 7.782266 0.208312
4.741711 4.077074 -1.443736
9.316700 8.010797 0.643942
5.478995 4.709352 -1.404354
9.308860 7.998413 1.073759
5.892102 5.060854 -1.230201
9.279056 7.967169 1.501674
7.131363 6.123120 -1.154103
9.089623 7.801771 1.897237
9.092168 7.801192 -1.048135
9.091690 7.798028 2.328252
9.054950 7.763780 -0.625101
9.102752 7.804766 2.768248
9.093167 7.793787 -0.209045
9.111655 7.806875 3.215050
4.189781 3.580945 -1.476822
9.120601 7.792484 0.209394
4.750758 4.057532 -1.442386
9.318778 7.956186 0.642162
5.479648 4.678413 -1.400538
9.303509 7.940335 1.070098
5.920873 5.051546 -1.232704
9.282768 7.917034 1.498018
7.152692 6.098191 -1.154103
9.155892 7.803307 1.905372
9.137699 7.787801 -1.050401
9.151873 7.797116 2.337029
9.132346 7.777737 -0.628660
9.178907 7.814629 2.783094
9.150776 7.787917 -0.209743
9.182991 7.812578 3.230579
4.193419 3.558798 -1.473716
9.190445 7.796820 0.210371
4.772323 4.047227 -1.444636
9.325167 7.905525 0.640697
5.498941 4.661795 -1.401301
9.297731 7.879469 1.066263
5.953541 5.043617 -1.235832
9.289138 7.866625 1.494606
7.164847 6.065489 -1.152640
9.234343 7.814687 1.916010
9.149618 7.742988 -1.048658
9.217999 7.798097 2.346951
9.200618 7.780631 -0.631486
9.243335 7.813996 2.794342
9.211501 7.784329 -0.210511
9.238247 7.804160 3.240415
4.211726 3.549116 -1.475786
9.243603 7.786595 0.210965
4.780460 4.025522 -1.442836
9.325205 7.849771 0.638813
5.506170 4.634984 -1.399012
9.297737 7.823878 1.063126
5.992275 5.040605 -1.240213
9.298311 7.818819 1.491681
7.185974 6.040443 -1.152640
9.294839 7.810362 1.922893
9.167439 7.703310 -1.047612
9.270721 7.787337 2.353438
9.259840 7.775441 -0.633684
9.298915 7.805485 2.802890
9.284575 7.790687 -0.211558
9.317234 7.815320 3.258532
4.218162 3.529435 -1.473716
9.321342 7.796621 0.212117
4.797474 4.011309 -1.443736
9.338756 7.805647 0.637871
5.522315 4.615737 -1.399012
9.321931 7.788821 1.062777
6.041673 5.046248 -1.246783
9.328592 7.788860 1.492168
7.200919 6.010237 -1.151665
9.379684 7.825956 1.934782
9.183567 7.662325 -1.046392
9.343078 7.792656 2.364887
9.314536 7.766094 -0.635568
9.372513 7.811653 2.816837
9.351657 7.791512 -0.212466
9.391957 7.822313 3.275096
4.227485 3.512219 -1.472680
9.388496 7.797256 0.213024
4.796452 3.982091 -1.439237
9.370558 7.776824 0.638185
5.538394 4.596431 -1.399012
9.393534 7.793124 1.067832
6.072935 5.036479 -1.249599
9.406157 7.798057 1.500212
7.227969 5.990129 -1.152640
9.455620 7.833496 1.944793
9.204118 7.625139 -1.045695
9.427682 7.807576 2.379388
9.393898 7.776835 -0.639127
9.429748 7.803740 2.825835
9.408074 7.783038 -0.213129
9.454937 7.819027 3.287520
4.242699 3.499901 -1.473716
9.454228 7.796240 0.213897
4.816337 3.970283 -1.441036
9.440804 7.779634 0.641116
5.545313 4.569581 -1.396722
9.466812 7.798293 1.073061
6.113351 5.034086 -1.254292
9.468569 7.794195 1.505818
7.230439 5.949728 -1.149715
9.528672 7.838091 1.954180
9.229138 7.591701 -1.045520
9.491274 7.804543 2.388547
9.458015 7.774436 -0.641639
9.496079 7.802941 2.837533
9.475364 7.783149 -0.214036
9.518004 7.815400 3.299943
4.244430 3.476500 -1.470092
9.532445 7.804994 0.215049
4.821118 3.946043 -1.438337
9.516006 7.788767 0.644465
5.561232 4.550194 -1.396722
9.521738 7.787903 1.076199
6.147707 5.026471 -1.257733
9.538757 7.796268 1.512642
7.251165 5.924450 -1.149715
9.597446 7.841442 1.962940
9.232434 7.540536 -1.042906
9.551913 7.798682 2.396943
9.528422 7.776732 -0.644570
9.564022 7.803014 2.849680
9.535204 7.779502 -0.214804
9.569322 7.804549 3.308743
4.249044 3.455569 -1.467504
9.595509 7.803624 0.215886
4.844763 3.938637 -1.441486
9.578788 7.784472 0.646872
5.567937 4.523328 -1.394432
9.598355 7.794813 1.081777
6.179677 5.018508 -1.260862
9.618497 7.808384 1.521173
7.255360 5.887862 -1.147278
9.661576 7.837763 1.970449
9.249416 7.500731 -1.041860
9.621943 7.802828 2.408010
9.594500 7.777790 -0.647291
9.647381 7.817876 2.866776
9.604256 7.780153 -0.215747
9.650556 7.814862 3.327378
4.263486 3.443886 -1.468539
9.666250 7.805259 0.216864
4.844835 3.910684 -1.437437
9.646512 7.786532 0.649699
5.595131 4.514700 -1.397485
9.661368 7.792964 1.085961
6.224838 5.019224 -1.266494
9.673517 7.797184 1.525561
7.272772 5.860014 -1.146791
9.742887 7.850300 1.981712
9.264931 7.462516 -1.040814
9.696527 7.807359 2.419840
9.665151 7.779323 -0.650222
9.720162 7.820799 2.880273
9.678304 7.787119 -0.216829
9.698997 7.800981 3.335142
4.266439 3.421732 -1.465433
9.729523 7.803185 0.217701
4.862337 3.898255 -1.438787
9.717267 7.787793 0.652629
5.592469 4.480413 -1.392906
9.738278 7.799043 1.091538
6.263034 5.015843 -1.270874
9.742712 7.799796 1.532385
7.285967 5.830901 -1.145816
9.813422 7.850794 1.990472
9.290925 7.430128 -1.040814
9.756099 7.802135 2.428236
9.728337 7.777158 -0.652734
9.776489 7.812856 2.889271
9.756987 7.794474 -0.217981
9.775982 7.806861 3.352224
4.281381 3.409224 -1.466469
9.804991 7.804836 0.218748
4.868967 3.874341 -1.436537
9.781702 7.780714 0.655037
5.614222 4.465752 -1.394432
9.812224 7.802206 1.096768
6.299931 5.007606 -1.274628
9.820967 7.803555 1.540185
7.307289 5.804159 -1.145816
9.888539 7.851626 1.999858
9.299636 7.384029 -1.038896
9.827684 7.800502 2.438921
9.809975 7.783655 -0.656293
9.843228 7.807249 2.900519
9.810558 7.778540 -0.218539
9.854493 7.810575 3.369307
4.293252 3.394262 -1.466469
9.877675 7.806518 0.219761
4.885520 3.859737 -1.437437
5.620529 4.438831 -1.392143
9.876934 7.797534 1.100951
6.348387 5.010057 -1.280886
9.885547 7.798742 1.546035
7.321270 5.773697 -1.144841
9.308146 7.337951 -1.036979
9.910359 7.809903 2.452659
9.868462 7.774086 -0.658386
9.904104 7.799363 2.910417
9.875356 7.773940 -0.219377
9.913576 7.801218 3.380177
4.286840 3.364940 -1.460257
9.937904 7.797912 0.220494
4.891296 3.836647 -1.435188
9.925366 7.782486 0.661003
5.632900 4.416760 -1.391379
9.951137 7.799880 1.106181
6.395379 5.011017 -1.286830
9.958031 7.799682 1.553103
7.341381 5.748104 -1.144841
9.327425 7.300505 -1.036282
9.945884 7.778963 -0.661736
9.954428 7.780055 -0.220529
4.316846 3.364204 -1.466469
10.010805 7.798820 0.221506
4.906198 3.820746 -1.435638
10.007634 7.790730 0.664667
5.645186 4.394657 -1.390616
10.006600 7.787129 1.109318
6.433102 5.004428 -1.290897
7.345725 5.710265 -1.142403
9.340268 7.258119 -1.034887
10.017144 7.778499 -0.664667
10.030502 7.783261 -0.221611
4.325507 3.346752 -1.465433
19.979450 15.453023 0.440883
4.902545 3.790486 -1.430689
5.666705 4.379729 -1.392143
6.470857 4.997637 -1.294965
7.365614 5.684587 -1.142403
9.365549 7.225469 -1.034887
4.331035 3.326924 -1.463363
20.066572 15.408768 0.441616
4.923475 3.779284 -1.432938
5.660153 4.343187 -1.386800
6.513342 4.994252 -1.299971
9.815441 7.523490 1.518492
7.375957 5.651598 -1.140941
9.390712 7.192735 -1.034887
12.280525 9.399364 -0.810475
4.339549 3.309443 -1.462328
20.177492 15.382268 0.442872
4.939738 3.764435 -1.433838
5.684649 4.330543 -1.389090
6.552740 4.988238 -1.304351
7.395641 5.625815 -1.140941
9.398315 7.146648 -1.032970
12.297356 9.344358 -0.809428
20.174051 15.324048 -0.442209
4.347994 3.291944 -1.461292
20.336800 15.397356 0.445246
4.956857 3.751561 -1.435188
5.705995 4.315409 -1.390616
6.588156 4.980775 -1.308105
7.404754 5.594079 -1.139478
9.415252 7.107798 -1.032098
12.369728 9.334805 -0.812149
20.211451 15.241498 -0.441860
4.358887 3.277506 -1.461292
20.430387 15.356305 0.446118
4.959015 3.726042 -1.432038
5.713994 4.291748 -1.389090
6.638678 4.982650 -1.314675
7.430587 5.572962 -1.140453
9.424425 7.065778 -1.030529
12.322314 9.231696 -0.806916
4.381137 3.270361 -1.464916
20.495085 15.293274 0.446363
4.971992 3.708708 -1.432038
48.613964 36.248955 3.178049
5.719496 4.264737 -1.386800
6.667120 4.967706 -1.316865
7.430888 5.532766 -1.137529
9.444240 7.029266 -1.030007
12.309588 9.155254 -0.803985
28.801266 21.405306 -0.626367
4.384766 3.249296 -1.462328
4.981773 3.689014 -1.431139
48.798000 36.121803 3.181817
5.728037 4.240072 -1.385273
6.698710 4.954981 -1.319681
7.440578 5.499712 -1.136066
9.463906 6.992711 -1.029484
13.318379 9.833518 -0.867626
28.631216 21.124189 -0.621061
4.389858 3.229390 -1.460257
4.997761 3.673909 -1.432038
49.026810 36.026928 3.188516
5.733312 4.213075 -1.382984
6.725520 4.938581 -1.321558
7.456529 5.471360 -1.135579
9.473801 6.949025 -1.027915
13.362288 9.794055 -0.868254
28.653160 20.986300 -0.619944
4.388621 3.204936 -1.456116
5.007408 3.654142 -1.431139
5.754325 4.197668 -1.384510
6.729949 4.905764 -1.319056
7.482002 5.449971 -1.136554
9.494780 6.913565 -1.027566
13.419005 9.763800 -0.869719
28.690247 20.867647 -0.619246
4.399782 3.189596 -1.456116
4.995830 3.620363 -1.424390
5.765763 4.175252 -1.383747
6.752581 4.888051 -1.320307
7.480731 5.411170 -1.133629
9.505936 6.871044 -1.026172
13.493399 9.749662 -0.872440
28.759668 20.765038 -0.619176
4.418175 3.180630 -1.458704
5.019507 3.610871 -1.427539
5.785954 4.160692 -1.385273
43.204521 31.057060 4.655162
6.763183 4.859844 -1.319056
7.493126 5.380392 -1.132654
9.530286 6.840648 -1.026346
13.637713 9.781655 -0.879558
28.822231 20.657524 -0.618967
4.432392 3.167438 -1.459739
15.214058 10.868117 0.326360
5.032082 3.593327 -1.427539
15.202560 10.851892 0.978892
5.787658 4.131346 -1.382221
43.416470 30.980110 4.666318
6.773675 4.831617 -1.317804
7.505394 5.349595 -1.131679
9.544373 6.800400 -1.025300
13.688043 9.745578 -0.880605
15.207199 10.819177 -0.325767
4.430817 3.143003 -1.455598
15.163820 10.752481 0.324475
5.038235 3.571233 -1.425740
15.168643 10.747956 0.974286
5.789228 4.102039 -1.379167
6.790498 4.807944 -1.317804
7.517541 5.318776 -1.130704
9.564796 6.764743 -1.024951
13.715457 9.693125 -0.880186
15.179527 10.719895 -0.324370
4.437023 3.124180 -1.454045
15.224151 10.715599 0.324964
5.057045 3.558109 -1.427539
15.193000 10.685745 0.973449
5.825994 4.097617 -1.384510
6.797544 4.777394 -1.315927
7.536060 5.292504 -1.130704
9.576940 6.723298 -1.023731
13.729586 9.631429 -0.878930
15.265982 10.701275 -0.325418
4.463736 3.119741 -1.459222
15.317196 10.701334 0.326151
5.056654 3.531507 -1.423940
15.289162 10.673809 0.977217
5.830603 4.070513 -1.382221
44.065277 30.751816 4.701180
6.810938 4.751374 -1.315301
7.554488 5.266168 -1.130704
24.913412 17.360445 4.809422
9.592178 6.684130 -1.022860
13.700835 9.540078 -0.874953
15.375464 10.698178 -0.326953
4.457139 3.092027 -1.453528
15.393891 10.675154 0.326988
5.062544 3.509395 -1.422141
15.346028 10.634022 0.978473
5.844777 4.050135 -1.382221
6.814490 4.718576 -1.312798
7.563031 5.232987 -1.129241
25.048590 17.325071 4.823814
9.600703 6.640408 -1.021291
13.753772 9.505818 -0.876209
15.458790 10.676257 -0.327931
4.472677 3.079738 -1.455081
15.513425 10.678040 0.328734
5.066736 3.486180 -1.419891
15.462042 10.634720 0.983497
5.839467 4.016358 -1.377641
6.830918 4.694762 -1.312798
7.571432 5.199813 -1.127779
9.613970 6.600087 -1.020245
13.707812 9.403522 -0.871184
15.558641 10.665191 -0.329257
4.473832 3.057564 -1.451975
5.096574 3.480562 -1.424840
15.578250 10.634730 0.988522
5.843723 3.989307 -1.375351
6.857054 4.677569 -1.314675
7.576416 5.164406 -1.125829
9.625419 6.558640 -1.019025
13.766972 9.373597 -0.872859
4.478081 3.037592 -1.449904
5.111920 3.464936 -1.425740
5.870615 3.977695 -1.378404
6.863527 4.646959 -1.312798
7.591107 5.135705 -1.125342
9.635054 6.516069 -1.017630
13.773127 9.307594 -0.871184
4.495067 3.026259 -1.451975
5.111050 3.438368 -1.422141
5.890980 3.961563 -1.379931
6.873149 4.618564 -1.311547
7.618878 5.115813 -1.126804
9.659396 6.483505 -1.017805
13.822123 9.270582 -0.872231
4.512581 3.017493 -1.454563
5.118585 3.420130 -1.421241
5.890335 3.934314 -1.376878
6.881052 4.592563 -1.310295
7.601880 5.069825 -1.121929
9.673085 6.448709 -1.017107
49.282742 32.842628 11.511889
13.788014 9.185038 -0.868254
28.643166 19.066511 -0.600607
4.518259 2.998517 -1.453010
5.132116 3.403320 -1.421691
5.894215 3.907219 -1.374588
6.897040 4.568517 -1.310295
7.632775 5.052022 -1.123879
9.687226 6.409409 -1.016236
13.800000 9.123631 -0.866997
28.609426 18.900297 -0.598513
4.528698 2.982725 -1.453010
5.142337 3.384312 -1.421241
5.911098 3.888777 -1.375351
49.550873 32.586025 5.188555
6.926151 4.553093 -1.312798
7.647042 5.023174 -1.123392
9.694552 6.365710 -1.014667
13.761621 9.029396 -0.862601
28.604992 18.754261 -0.597047
4.514826 2.951045 -1.445246
5.147594 3.362077 -1.419441
5.914773 3.861681 -1.373062
49.330627 32.195068 5.153693
6.922151 4.515935 -1.309044
7.687812 5.011624 -1.126804
9.695017 6.317688 -1.012401
13.746195 8.950786 -0.859671
28.623350 18.623768 -0.596070
4.542928 2.946831 -1.450940
5.147850 3.336672 -1.416292
43.495213 28.181408 2.716132
5.928218 3.841010 -1.373062
6.941185 4.493896 -1.309669
7.695260 4.978287 -1.125342
9.720352 6.285978 -1.012750
13.918268 8.993798 -0.868463
28.573950 18.449970 -0.593696
4.559684 2.935139 -1.453010
38.351322 24.677870 0.796039
5.164383 3.321844 -1.417642
43.510994 27.976488 2.711003
5.948194 3.824541 -1.374588
49.389938 31.744320 5.136611
6.943535 4.461096 -1.307166
7.699226 4.942818 -1.123392
9.735529 6.247703 -1.012052
14.053816 9.012007 -0.874953
28.570833 18.306952 -0.592300
4.561761 2.914006 -1.450422
38.268696 24.436220 0.792549
5.174304 3.302749 -1.417192
43.628582 27.837336 2.712259
5.931716 3.784747 -1.367719
49.332474 31.464573 5.119180
6.945739 4.428337 -1.304664
7.719782 4.918043 -1.123879
9.750555 6.209402 -1.011355
14.162702 9.012214 -0.879768
28.513065 18.129864 -0.589787
4.567010 2.894960 -1.448869
38.228760 24.223293 0.789966
5.185802 3.284666 -1.417192
43.715374 27.678455 2.711631
5.954844 3.770319 -1.370009
49.334251 31.223997 5.108024
6.974511 4.412512 -1.307166
7.740257 4.893189 -1.124367
9.768804 6.173197 -1.011007
13.309159 8.403955 -0.824919
28.427343 17.936327 -0.586715
4.560735 2.868716 -1.443693
38.184429 24.008799 0.787313
5.193937 3.264469 -1.416292
5.971293 3.751600 -1.370772
49.213486 30.907471 5.084317
6.973142 4.377635 -1.304038
7.764018 4.870358 -1.125342
9.781233 6.131004 -1.009961
13.348571 8.363805 -0.825547
28.425369 17.796671 -0.585389
4.579413 2.857095 -1.446281
5.192071 3.238070 -1.412693
5.991670 3.733841 -1.372298
49.265553 30.688976 5.078042
6.982431 4.347872 -1.302786
7.814676 4.864209 -1.130216
9.795809 6.092612 -1.009264
14.105173 8.766043 -0.870347
28.497513 17.703661 -0.585598
4.592645 2.843125 -1.447316
5.212190 3.224145 -1.414942
5.994647 3.706709 -1.370009
7.011009 4.331781 -1.305289
7.855252 4.851506 -1.133629
9.806845 6.052101 -1.008218
13.952086 8.603532 -0.859043
28.508080 17.572596 -0.584551
4.611924 2.833946 -1.450422
5.224514 3.207864 -1.415392
5.996867 3.680646 -1.367719
49.194790 30.182051 5.049455
7.001759 4.294051 -1.300909
7.888223 4.835803 -1.136066
9.823458 6.017472 -1.007869
13.994165 8.565561 -0.859880
28.504774 17.440411 -0.583294
4.603153 2.807573 -1.444728
5.236787 3.191534 -1.415842
6.005686 3.658698 -1.366956
49.168690 29.942053 5.036556
7.029460 4.279023 -1.303412
7.955935 4.839184 -1.143378
9.819527 5.970369 -1.005429
14.206844 8.631102 -0.871184
28.497108 17.299290 -0.581898
4.603010 2.785486 -1.441622
5.237891 3.167183 -1.413142
6.015061 3.635679 -1.366192
49.058022 29.640450 5.014593
7.020683 4.240161 -1.299032
7.999969 4.827800 -1.147278
9.847134 5.940171 -1.006126
14.267671 8.600027 -0.873069
28.516214 17.174940 -0.581060
4.627610 2.778352 -1.446281
5.233873 3.139862 -1.409093
6.031082 3.616681 -1.366956
49.099674 29.432137 5.008317
7.038830 4.217658 -1.299658
8.071276 4.832475 -1.155078
48.866905 29.246222 9.020013
9.855160 5.895859 -1.004731
14.205043 8.494814 -0.867416
28.448959 16.999397 -0.578477
4.632782 2.758408 -1.444728
5.241453 3.119578 -1.408194
6.024047 3.582511 -1.362376
49.097603 29.186832 4.997161
7.054240 4.191832 -1.299658
8.115400 4.820492 -1.158978
48.839584 28.998850 8.996234
9.865401 5.855318 -1.003685
14.133006 8.381568 -0.861136
28.463408 16.873466 -0.577570
4.649037 2.746149 -1.446798
5.252852 3.100345 -1.408194
6.039899 3.563455 -1.363140
49.027576 28.914043 4.979730
7.055216 4.159159 -1.297155
8.160382 4.806834 -1.162877
48.788944 28.727427 8.967450
9.885779 5.820848 -1.003685
14.120867 8.307873 -0.858624
28.352667 16.667694 -0.574079
4.640261 2.719159 -1.441105
5.267005 3.083961 -1.409093
6.055690 3.544332 -1.363903
48.956230 28.642130 4.962299
7.059459 4.128524 -1.295278
8.225101 4.806365 -1.169702
48.783169 28.495184 8.948052
9.899155 5.782287 -1.002988
14.080779 8.218264 -0.854437
28.410679 16.568617 -0.574079
4.656404 2.706829 -1.443175
5.277739 3.065555 -1.409093
6.057837 3.517259 -1.361613
48.945633 28.407047 4.951143
7.080663 4.107820 -1.296529
8.276176 4.797533 -1.174577
48.747513 28.257952 8.924274
9.905488 5.739703 -1.001594
14.095557 8.161054 -0.853600
4.650762 2.681874 -1.438516
5.291252 3.049984 -1.409993
6.070077 3.496093 -1.361613
48.982346 28.200220 4.944868
7.077128 4.074460 -1.293400
8.336778 4.795799 -1.180914
48.705441 28.006861 8.898619
9.935827 5.711051 -1.002640
14.077518 8.088391 -0.850878
28.522793 16.374861 -0.574079
4.666338 2.670274 -1.440587
5.281566 3.019886 -1.404594
6.085048 3.477891 -1.362376
48.902576 27.938833 4.927437
7.108459 4.059528 -1.296529
8.394845 4.790283 -1.186764
48.664207 27.768866 8.874216
9.940866 5.670171 -1.001245
14.064020 8.015471 -0.848366
4.678990 2.655877 -1.441622
5.301721 3.008127 -1.407294
6.086903 3.450821 -1.360087
48.861137 27.689362 4.913492
7.118444 4.033987 -1.295903
8.427959 4.772197 -1.189201
48.640511 27.530701 8.852314
9.950195 5.629547 -1.000199
14.083566 7.964859 -0.847947
4.677671 2.634659 -1.438516
5.300301 2.982910 -1.404144
6.105156 3.434469 -1.361613
48.851971 27.470528 4.903382
7.132483 4.009112 -1.295903
8.486107 4.766077 -1.195051
48.614429 27.303461 8.831039
9.956647 5.589694 -0.998979
14.059026 7.886331 -0.844807
4.685153 2.617371 -1.437999
5.328879 2.975770 -1.409093
6.106822 3.407396 -1.359323
48.839687 27.239651 4.892575
7.138838 3.981587 -1.294652
8.515737 4.745642 -1.197001
48.619709 27.083597 8.814771
9.972615 5.552969 -0.998630
14.071140 7.831900 -0.843970
4.697640 2.602875 -1.439034
5.309062 2.939227 -1.400995
6.118679 3.386060 -1.359323
48.822876 27.007315 4.881419
7.149926 3.953485 -1.294026
8.522647 4.708640 -1.195538
48.535347 26.803997 8.781606
9.989413 5.514452 -0.998282
14.061277 7.759048 -0.841667
4.710536 2.587499 -1.440069
5.329537 2.926309 -1.403695
6.124163 3.359832 -1.357797
48.746834 26.732397 4.863987
7.157438 3.923456 -1.292775
8.552958 4.686491 -1.197488
48.535042 26.583208 8.764711
10.005106 5.477637 -0.997933
14.072104 7.697863 -0.840620
4.722932 2.572890 -1.441105
5.340229 2.906751 -1.403695
6.135853 3.338435 -1.357797
48.731339 26.503044 4.853180
7.164150 3.894673 -1.291523
8.545655 4.641848 -1.194076
48.495621 26.341955 8.740933
9.999654 5.429367 -0.995493
14.046217 7.620133 -0.837480
4.718287 2.549040 -1.436963
28.399607 15.342801 0.563433
5.342979 2.885324 -1.401895
6.140559 3.313266 -1.356270
48.693798 26.262777 4.840281
7.183979 3.874646 -1.292775
8.567994 4.617249 -1.195051
48.451633 26.099430 8.716529
10.022049 5.396325 -0.995842
14.043272 7.558363 -0.835805
4.714795 2.526993 -1.433340
5.366761 2.874017 -1.405494
6.151512 3.292886 -1.356270
48.668198 26.040987 4.829125
7.211395 3.857001 -1.295278
8.566551 4.577954 -1.192613
48.433388 25.882738 8.697758
10.029346 5.357426 -0.994796
14.069572 7.509294 -0.835805
4.732116 2.515054 -1.435928
5.362494 2.848891 -1.401895
6.152563 3.265872 -1.353981
48.628544 25.801874 4.816226
7.210184 3.825660 -1.292775
8.585193 4.551383 -1.193101
48.432674 25.665432 8.681488
10.046227 5.321449 -0.994621
14.052032 7.440169 -0.833293
4.742140 2.500247 -1.436446
5.351717 2.819254 -1.396496
6.166835 3.247279 -1.354744
48.604534 25.582924 4.805419
7.202518 3.789430 -1.289020
8.597512 4.519541 -1.192613
48.392563 25.428230 8.658336
10.069108 5.290887 -0.995144
14.049622 7.376221 -0.831618
4.750838 2.483680 -1.436446
5.382252 2.811384 -1.401895
6.164210 3.218462 -1.351691
48.573437 25.350412 4.793566
7.226209 3.769748 -1.290897
8.606197 4.485831 -1.191639
48.340874 25.186142 8.633307
10.085748 5.254789 -0.994970
14.050484 7.314218 -0.830153
4.749188 2.461746 -1.433340
5.385112 2.788993 -1.400095
6.175406 3.196926 -1.351691
48.605000 25.151413 4.787988
7.235816 3.742684 -1.290272
8.625328 4.457586 -1.192126
48.316177 24.959211 8.613282
10.100491 5.217720 -0.994621
14.047532 7.250475 -0.828478
4.750879 2.441622 -1.431269
5.398283 2.771957 -1.400995
6.183035 3.173559 -1.350928
48.518780 24.892452 4.770905
7.238290 3.711993 -1.288394
8.633770 4.423828 -1.191151
48.318626 24.747169 8.598266
10.095590 5.170620 -0.992355
14.062089 7.195933 -0.827850
4.757653 2.424145 -1.430752
5.400978 2.749562 -1.399196
6.201075 3.155517 -1.352454
48.498810 24.668776 4.760447
7.251203 3.686706 -1.288394
8.659778 4.399059 -1.192613
48.274368 24.512182 8.575112
10.108245 5.132644 -0.991832
14.040811 7.123312 -0.825129
4.771258 2.410137 -1.432305
5.407064 2.728935 -1.398296
6.201534 3.128548 -1.350165
48.449421 24.431141 4.747199
7.288723 3.673817 -1.292775
8.650258 4.356306 -1.189201
48.289070 24.307985 8.562598
10.111865 5.090159 -0.990438
14.047745 7.065286 -0.824082
4.786552 2.396926 -1.434375
5.406099 2.704816 -1.395596
50.484291 25.258640 2.958447
6.198370 3.099854 -1.347112
48.420364 24.204845 4.736043
7.276762 3.635996 -1.288394
8.665413 4.326082 -1.189201
48.196198 24.061256 8.531937
10.126002 5.053060 -0.990089
14.047300 7.003726 -0.822617
4.784508 2.375048 -1.431269
5.411548 2.685140 -1.394697
6.219708 3.083430 -1.349401
48.393867 23.980843 4.725236
7.278161 3.606581 -1.286517
8.697503 4.306129 -1.191639
48.201992 23.854336 8.518170
10.125722 5.008845 -0.988346
14.059707 6.951790 -0.821989
4.788890 2.357466 -1.430234
5.426135 2.668812 -1.396046
6.233422 3.064521 -1.350165
48.405174 23.786850 4.718612
7.280069 3.575927 -1.284640
8.694657 4.267003 -1.189201
48.171471 23.630243 8.498147
10.131545 4.969972 -0.987300
14.051602 6.886858 -0.820105
4.793618 2.339040 -1.429199
5.433665 2.649003 -1.395596
6.244080 3.042745 -1.350165
48.344620 23.547926 4.704667
7.296059 3.552224 -1.285266
8.734490 4.248781 -1.192613
48.157738 23.415293 8.481252
10.141666 4.931089 -0.986603
14.061185 6.830781 -0.819267
4.812189 2.327338 -1.432305
5.453406 2.635108 -1.398296
6.233450 3.010683 -1.345585
48.300919 23.318405 4.692465
7.301296 3.523301 -1.284014
8.688472 4.188957 -1.184326
48.128830 23.193911 8.461854
10.149839 4.891340 -0.985731
14.052551 6.766065 -0.817383
47.950127 23.076862 12.285477
27.792725 13.369760 -0.538337
4.809830 2.305517 -1.429199
5.444996 2.607637 -1.393797
6.247462 2.990602 -1.346348
48.338894 23.129011 4.688282
7.295731 3.489269 -1.280886
8.728118 4.170582 -1.187739
48.113251 22.979782 8.444959
10.165055 4.855020 -0.985557
14.079690 6.718687 -0.817592
47.924858 22.858995 12.258483
4.814358 2.287057 -1.428164
5.461107 2.591958 -1.395596
6.254315 2.967094 -1.345585
48.260914 22.884998 4.672942
7.318576 3.468859 -1.282763
8.721094 4.129892 -1.184814
48.075329 22.755928 8.424310
10.165732 4.811838 -0.983988
14.052504 6.645587 -0.814662
47.905697 22.644941 12.233289
4.822312 2.270239 -1.428164
5.470122 2.572878 -1.395596
6.271742 2.948584 -1.347112
48.235920 22.667261 4.662832
7.312761 3.434891 -1.279634
8.742645 4.102800 -1.185789
48.036438 22.532595 8.403660
10.186075 4.778013 -0.984337
14.061147 6.589717 -0.813824
47.906807 22.441195 12.213492
4.830208 2.253390 -1.428164
5.461406 2.545537 -1.391097
6.281996 2.926675 -1.347112
48.213600 22.451658 4.653071
7.328287 3.411012 -1.280260
8.774912 4.080630 -1.188226
48.018074 22.319803 8.386765
10.218953 4.749983 -0.985906
14.036966 6.518718 -0.811103
47.854050 22.213102 12.180200
4.838045 2.236515 -1.428164
5.480874 2.531358 -1.393797
6.277914 2.898144 -1.344059
48.157795 22.221460 4.640172
7.340150 3.385409 -1.280260
8.763861 4.038346 -1.184814
48.023918 22.119009 8.374250
10.255378 4.723454 -0.987823
14.037859 6.459671 -0.809847
47.835693 22.001963 12.155905
4.845821 2.219615 -1.428164
5.482588 2.508969 -1.391997
6.287991 2.876214 -1.344059
48.144478 22.011789 4.631456
7.359111 3.363049 -1.281511
8.763459 4.001132 -1.182864
48.039742 21.923342 8.363613
10.277242 4.690106 -0.988346
14.023977 6.394055 -0.807753
47.788078 21.778271 12.124412
4.846504 2.199491 -1.426093
5.491312 2.489817 -1.391997
6.280112 2.846142 -1.340242
48.184727 21.827143 4.627970
7.342010 3.324309 -1.276505
8.770139 3.967242 -1.181889
10.286286 4.650927 -0.987649
14.049854 6.346704 -0.807963
47.838924 21.600130 12.118114
4.847103 2.179394 -1.424022
5.499970 2.470632 -1.391997
6.318666 2.837068 -1.346348
7.346361 3.295424 -1.275254
8.805671 3.946348 -1.184814
10.291550 4.610103 -0.986603
14.068275 6.295994 -0.807753
47.729034 21.350241 12.071323
4.861740 2.165605 -1.426093
5.504573 2.450793 -1.391097
6.310590 2.807019 -1.342532
48.081055 21.376900 4.603566
7.353640 3.269438 -1.274628
8.815080 3.915517 -1.184326
10.314864 4.577381 -0.987300
14.067166 6.239593 -0.806497
47.728317 21.160242 12.053327
4.861826 2.146349 -1.424022
5.498828 2.425276 -1.387498
6.319865 2.786075 -1.342532
48.078747 21.185213 4.596594
7.354158 3.238976 -1.272751
8.792356 3.868730 -1.179452
10.391994 4.570429 -0.993227
14.044977 6.171164 -0.803985
47.712666 20.954365 12.030832
4.876369 2.132459 -1.426093
5.510833 2.407625 -1.388398
6.325954 2.762425 -1.341769
48.061100 20.977419 4.587878
7.358178 3.210124 -1.271500
8.809444 3.839603 -1.179939
10.466335 4.559587 -0.998805
14.051782 6.115727 -0.803148
47.689030 20.745697 12.006538
4.883782 2.115428 -1.426093
5.529935 2.393017 -1.391097
6.317537 2.732537 -1.337953
48.042595 20.769981 4.579163
7.376593 3.187553 -1.272751
8.822128 3.810371 -1.179939
10.544387 4.549860 -1.004731
14.058372 6.060312 -0.802310
47.657349 20.544226 11.981342
4.873018 2.091600 -1.420917
5.534257 2.373131 -1.390198
6.333783 2.714664 -1.339479
7.347173 3.145965 -1.265868
8.852966 3.788903 -1.182377
10.636360 4.547764 -1.012052
14.056351 6.004247 -0.801054
47.621273 20.341686 11.955249
4.883483 2.076942 -1.421952
5.524161 2.347146 -1.385699
6.328292 2.687507 -1.336426
7.433939 3.153992 -1.279008
8.840551 3.747130 -1.178964
10.716382 4.537802 -1.018153
14.017327 5.932686 -0.797705
47.634556 20.151024 11.940851
4.901745 2.063525 -1.425058
5.532321 2.327847 -1.385699
6.341721 2.665815 -1.337190
7.398097 3.106837 -1.270874
8.853578 3.716249 -1.178964
10.796465 4.527336 -1.024254
14.042661 5.882817 -0.797914
47.557098 19.913088 11.903060
4.908919 2.046401 -1.425058
37.655773 15.690001 0.712058
5.544413 2.309054 -1.386598
6.340113 2.639134 -1.334900
7.467262 3.105267 -1.280886
8.852473 3.677679 -1.177014
10.882124 4.518659 -1.030878
14.022526 5.816924 -0.795611
47.518307 19.702187 11.876066
4.898175 2.021883 -1.419881
5.559646 2.292657 -1.388398
6.349287 2.616988 -1.334900
7.408647 3.050600 -1.268997
19.021574 7.828481 2.525620
8.876270 3.651289 -1.178477
10.942057 4.498825 -1.035062
14.024270 5.760355 -0.794565
47.525501 19.511021 11.860769
4.905202 2.004774 -1.419881
5.556790 2.268817 -1.385699
6.376559 2.602228 -1.338716
7.400959 3.017261 -1.265868
8.877933 3.615788 -1.177014
10.965077 4.463605 -1.035759
14.014691 5.699324 -0.792890
47.492226 19.303902 11.835575
4.915753 1.989088 -1.420917
5.557449 2.246484 -1.383899
6.371043 2.574069 -1.335663
7.422436 2.995846 -1.267745
8.894179 3.586267 -1.177502
10.976893 4.423815 -1.035410
18.968231 7.640569 3.974933
14.019676 5.644404 -0.792052
47.490620 19.110373 11.818479
4.933426 1.976228 -1.424022
5.550784 2.221277 -1.380300
6.387280 2.554731 -1.337190
7.458529 2.980177 -1.272125
8.869772 3.540478 -1.172627
19.766205 7.889922 3.370850
10.988569 4.383992 -1.035062
18.757715 7.479782 3.925323
14.020739 5.588040 -0.791006
19.642693 7.824718 4.881438
4.925928 1.953297 -1.419881
5.576235 2.210039 -1.384799
6.388858 2.529528 -1.335663
7.450004 2.948161 -1.268997
8.896234 3.516881 -1.174577
19.562147 7.729409 3.331429
11.018627 4.351470 -1.036456
14.039194 5.541511 -0.791006
4.928782 1.935540 -1.418846
5.580287 2.189139 -1.383899
6.386243 2.504029 -1.333373
7.489677 2.933666 -1.274002
8.904759 3.484357 -1.174089
18.750105 7.332995 3.188761
11.003309 4.303294 -1.033667
14.017526 5.476478 -0.788703
19.310661 7.540568 4.786058
4.928305 1.915525 -1.416776
5.591528 2.171056 -1.384799
6.398605 2.483143 -1.334136
7.481455 2.900362 -1.270874
8.909461 3.450391 -1.173114
19.751951 7.645416 3.354581
11.010832 4.261979 -1.032970
14.029102 5.424643 -0.788284
4.934962 1.898309 -1.416776
5.577244 2.143138 -1.379400
6.407234 2.460791 -1.334136
7.517353 2.884137 -1.275254
8.951109 3.430634 -1.177014
11.025641 4.223520 -1.032970
14.010646 5.361359 -0.786191
4.956002 1.886568 -1.420917
5.577404 2.120887 -1.377600
6.430467 2.443989 -1.337190
7.519987 2.855077 -1.274002
19.658344 7.459651 2.581681
8.937044 3.389515 -1.173602
11.010508 4.173711 -1.030181
14.018068 5.308180 -0.785563
4.962557 1.869258 -1.420917
5.595717 2.105522 -1.380300
6.413232 2.411854 -1.331847
7.533607 2.830197 -1.274628
19.810633 7.438438 2.598255
8.941388 3.355506 -1.172627
11.058590 4.147843 -1.033319
19.614927 7.353240 4.071864
14.043994 5.262014 -0.785981
4.943708 1.842480 -1.413670
5.602669 2.086952 -1.380300
6.417932 2.388085 -1.331084
19.813442 7.368549 1.849445
7.535544 2.802442 -1.273377
8.952466 3.325839 -1.172627
19.703636 7.315971 3.328926
11.020699 4.089809 -1.028438
19.602390 7.274497 4.064232
14.008933 5.195970 -0.783051
19.467302 7.216625 4.793257
19.788231 7.331678 -0.368351
4.964291 1.831423 -1.417811
19.745310 7.280525 0.367338
5.609920 2.067384 -1.380300
19.753782 7.275807 1.103242
6.418447 2.364073 -1.329557
19.751755 7.271156 1.841426
7.545280 2.776123 -1.273377
19.648411 7.225315 2.570468
8.952842 3.290457 -1.171165
11.046130 4.055432 -1.029484
19.786161 7.264213 4.097051
14.008235 5.140153 -0.782004
19.437489 7.128503 4.779760
19.772398 7.247414 -0.367583
4.970970 1.813217 -1.417811
19.800667 7.222517 0.367897
5.617101 2.047790 -1.380300
19.812836 7.219120 1.105126
6.416000 2.336503 -1.327267
7.555404 2.748451 -1.273377
8.982928 3.265971 -1.173602
19.457174 7.070292 3.278867
11.041492 4.010050 -1.027740
19.273783 6.996047 3.985618
13.989431 5.075150 -0.779911
19.838938 7.193342 -0.368351
4.977269 1.795853 -1.417811
37.106972 13.381300 0.688532
5.620903 2.025866 -1.379400
6.427812 2.315422 -1.328031
7.553801 2.718046 -1.271500
19.785538 7.115431 2.581681
8.968684 3.223626 -1.170189
11.056115 3.969551 -1.027740
14.003300 5.024947 -0.779701
4.983818 1.777599 -1.417811
37.089420 13.228841 0.687346
5.620598 2.003614 -1.377600
6.451050 2.297117 -1.331084
7.563712 2.690343 -1.271500
8.976143 3.190968 -1.169702
19.510994 6.932202 3.279492
11.043618 3.921603 -1.025300
19.327053 6.859262 3.986382
14.029156 4.976249 -0.780120
4.978447 1.758075 -1.414705
27.972385 9.872583 0.517778
5.634563 1.987559 -1.379400
