# This PCD file was generated using the MATLAB® pcwrite function
# from Computer Vision Toolbox®.
# .PCD v.7 - Point Cloud Data file format
VERSION .7
FIELDS x y z
SIZE 4 4 4
TYPE F F F
COUNT 1 1 1
WIDTH 1670
HEIGHT 1
VIEWPOINT 0 0 0 1 0 0 0
POINTS 1670
DATA ascii
4.834889 2.252493 -1.429199
5.487472 2.554189 -1.397396
6.262167 2.913448 -1.342532
48.228958 22.428091 4.653419
7.326491 3.405506 -1.279634
8.766247 4.071014 -1.186764
48.004360 22.293056 8.383011
10.216018 4.742116 -0.985383
14.054873 6.518090 -0.811940
47.839157 22.175751 12.173450
4.835707 2.232362 -1.427128
5.485294 2.531081 -1.394697
6.272299 2.891570 -1.342532
48.205616 22.212921 4.643658
7.337742 3.381197 -1.279634
8.765272 4.035283 -1.184814
48.020859 22.097313 8.372374
10.263279 4.720582 -0.988346
14.029228 6.449759 -0.809219
47.823891 21.976315 12.150956
4.843083 2.216315 -1.427128
5.483463 2.507055 -1.391997
6.299710 2.878912 -1.346348
48.188404 22.011539 4.634943
7.360282 3.360483 -1.281511
8.761244 3.996425 -1.182377
48.047375 21.906595 8.363613
10.261566 4.676463 -0.986603
14.033479 6.392472 -0.808172
47.786797 21.757574 12.122163
4.847654 2.196953 -1.426093
5.488632 2.486289 -1.391097
6.295910 2.849329 -1.343295
48.141689 21.777277 4.622740
7.347350 3.322092 -1.277131
8.778759 3.967451 -1.182864
10.292351 4.647181 -0.987997
14.056816 6.340990 -0.808172
47.780945 21.543842 12.100568
4.855294 2.180017 -1.426093
5.504819 2.469347 -1.392897
6.291487 2.820907 -1.340242
48.126503 21.568369 4.614025
7.355297 3.294808 -1.276505
8.800488 3.938494 -1.183839
10.286687 4.601460 -0.985906
14.049688 6.278849 -0.806497
47.759777 21.333992 12.076272
4.848752 2.156778 -1.421952
5.516539 2.452661 -1.393797
6.308471 2.802121 -1.341769
48.063107 21.338787 4.600777
7.351740 3.263984 -1.274002
8.795353 3.901242 -1.181401
10.342761 4.583280 -0.989741
14.059474 6.227373 -0.805869
47.709099 21.121840 12.045679
4.866485 2.145361 -1.425058
5.500097 2.422396 -1.387498
6.310541 2.778020 -1.340242
48.035126 21.135965 4.591364
7.370319 3.241488 -1.275254
8.790746 3.862529 -1.178964
10.412626 4.572999 -0.994970
14.048206 6.163810 -0.803985
47.707584 20.922289 12.026783
4.870404 2.126814 -1.424022
5.526382 2.410974 -1.391997
6.327400 2.759113 -1.341769
48.072075 20.952253 4.587878
7.359858 3.206271 -1.271500
8.800533 3.830237 -1.178477
10.494299 4.565234 -1.001245
14.040328 6.102001 -0.802310
47.673073 20.709078 11.999789
4.877796 2.109803 -1.424022
5.520454 2.385483 -1.388398
6.315362 2.727672 -1.337190
48.053463 20.744825 4.579163
7.371006 3.180559 -1.271500
8.813849 3.799492 -1.178477
10.568725 4.553800 -1.006823
14.057876 6.051371 -0.802101
47.659149 20.505560 11.978193
4.888683 2.094284 -1.425058
5.528747 2.366199 -1.388398
6.324845 2.705609 -1.337190
7.396594 3.161022 -1.274002
8.830712 3.770260 -1.178964
10.665185 4.551291 -1.014493
14.038494 5.985027 -0.799798
47.626457 20.294777 11.952100
4.881736 2.071171 -1.420917
5.536973 2.346885 -1.388398
6.341482 2.686579 -1.338716
7.433052 3.145961 -1.278383
8.854789 3.744052 -1.180427
10.721383 4.531096 -1.018328
14.074018 5.942204 -0.800636
47.621605 20.096571 11.933204
4.896061 2.057110 -1.422987
5.530756 2.321510 -1.384799
6.343580 2.661387 -1.337190
7.389333 3.097090 -1.268997
8.871465 3.714656 -1.180914
10.805137 4.522106 -1.024777
14.043078 5.871471 -0.797705
47.554817 19.873098 11.899012
4.899290 2.039377 -1.421952
37.639977 15.660298 0.711604
5.542022 2.304654 -1.385699
6.355998 2.641842 -1.337953
7.468887 3.101357 -1.280886
19.298952 8.009676 2.565594
8.861732 3.676086 -1.177989
10.884489 4.512960 -1.030878
14.029260 5.811109 -0.795821
47.519615 19.673578 11.873816
4.909950 2.023736 -1.422987
5.550034 2.285294 -1.385699
6.354287 2.615158 -1.335663
7.384665 3.036204 -1.264616
19.025671 7.818521 2.525620
8.852474 3.636082 -1.175064
10.948096 4.494609 -1.035410
14.016196 5.748464 -0.793937
47.526699 19.482441 11.858520
4.913407 2.005126 -1.421952
5.561587 2.267376 -1.386598
6.363377 2.592962 -1.335663
7.424492 3.022323 -1.269622
8.865114 3.605157 -1.175064
10.974794 4.460864 -1.036456
14.021373 5.693488 -0.793099
47.504135 19.279766 11.836024
4.916794 1.986514 -1.420917
5.565853 2.246491 -1.385699
6.361465 2.566325 -1.333373
7.434997 2.996390 -1.269622
8.888692 3.578640 -1.176527
19.788078 7.962784 3.378359
10.960725 4.410630 -1.033667
18.979515 7.633567 3.976460
14.037457 5.643016 -0.792890
47.480728 19.077513 11.813530
4.927285 1.970775 -1.421952
5.562804 2.222709 -1.382999
6.388616 2.551387 -1.337190
7.449081 2.971880 -1.270248
8.893134 3.546205 -1.175552
19.777674 7.882498 3.372102
10.972354 4.370865 -1.033319
14.034797 5.585130 -0.791634
19.634556 7.813547 4.878738
4.926608 1.951579 -1.419881
5.573768 2.205686 -1.383899
6.397041 2.530189 -1.337190
7.466243 2.950067 -1.271500
8.871611 3.503572 -1.171165
18.693907 7.378806 3.183129
10.997908 4.338845 -1.034364
14.038378 5.532695 -0.790796
4.933053 1.935230 -1.419881
5.573794 2.184344 -1.382099
6.387117 2.501799 -1.333373
7.483344 2.928169 -1.272751
8.902275 3.479807 -1.173602
18.800507 7.345131 3.196895
11.024119 4.304779 -1.035410
14.004549 5.465783 -0.787866
19.313295 7.533819 4.786058
4.943715 1.918536 -1.420917
5.581383 2.164879 -1.382099
6.396244 2.478371 -1.333373
7.505079 2.905002 -1.274628
8.910666 3.447277 -1.173114
11.009345 4.254777 -1.032621
14.020761 5.412981 -0.787656
4.939562 1.897110 -1.417811
5.600198 2.148594 -1.384799
6.408522 2.457436 -1.334136
7.489347 2.868895 -1.270248
8.938072 3.420272 -1.175064
11.031575 4.219165 -1.033319
14.032109 5.361152 -0.787238
4.960601 1.885346 -1.421952
5.585801 2.120734 -1.379400
6.420733 2.436443 -1.334900
7.532563 2.855340 -1.275880
19.662247 7.449357 2.581681
8.938817 3.384835 -1.173602
11.031325 4.174998 -1.031924
14.020846 5.300840 -0.785563
4.952686 1.862579 -1.417811
5.593171 2.101221 -1.379400
6.421846 2.411256 -1.333373
7.542486 2.829027 -1.275880
19.810808 7.426672 2.597767
8.935708 3.348038 -1.171652
11.019711 4.126681 -1.029484
19.596712 7.334712 4.067285
14.009335 5.240665 -0.783888
4.962778 1.846628 -1.418846
5.604124 2.083043 -1.380300
6.419181 2.384724 -1.331084
19.746321 7.331820 1.842821
7.537498 2.797185 -1.273377
19.683990 7.300871 2.577780
8.943619 3.315444 -1.171165
19.723555 7.307715 3.331429
11.052731 4.095114 -1.031227
19.537506 7.234895 4.049730
14.038782 5.195887 -0.784516
19.439434 7.190874 4.785159
19.774590 7.310918 -0.368001
4.954690 1.823955 -1.414705
19.754148 7.268112 0.367408
5.611362 2.063467 -1.380300
19.773853 7.267527 1.104079
6.423781 2.360946 -1.330320
19.760572 7.258731 1.841775
7.569469 2.779025 -1.277131
19.716810 7.234847 2.578756
8.955137 3.284206 -1.171165
11.010839 4.035934 -1.025997
19.883400 7.284164 4.116132
14.019322 5.133120 -0.782423
19.325335 7.072072 4.750966
19.784966 7.236357 -0.367722
4.971919 1.810614 -1.417811
19.824493 7.215530 0.368246
5.611204 2.041204 -1.378500
19.791594 7.195734 1.103661
6.420913 2.334485 -1.328031
7.560556 2.745844 -1.274002
8.970279 3.254279 -1.171652
19.458391 7.055361 3.278241
11.039845 4.002905 -1.027392
19.281136 6.987294 3.986382
13.999599 5.070545 -0.780329
4.970939 1.790628 -1.415740
37.091393 13.353741 0.688113
5.618296 2.021603 -1.378500
6.429023 2.312056 -1.328031
7.555223 2.714091 -1.271500
19.852781 7.127878 2.589967
8.970370 3.218930 -1.170189
11.049998 3.963001 -1.027043
14.013449 5.020309 -0.780120
4.980799 1.774563 -1.416776
37.100105 13.210761 0.687415
5.625319 2.001978 -1.378500
6.451851 2.294865 -1.331084
7.590711 2.696959 -1.275880
8.989037 3.190252 -1.171165
19.544407 6.932551 3.284498
11.037477 3.915078 -1.024603
19.292439 6.839396 3.978750
14.000768 4.960686 -0.778445
4.986963 1.757165 -1.416776
27.979271 9.853053 0.517778
5.635948 1.983628 -1.379400
6.448711 2.268420 -1.328794
7.585167 2.665212 -1.273377
8.992075 3.157791 -1.170189
19.895336 6.982844 3.339563
11.051073 3.876534 -1.024603
19.890532 6.973360 4.097051
13.991611 4.902534 -0.776980
4.985465 1.738075 -1.414705
27.943804 9.736549 0.516521
5.627772 1.959798 -1.375801
6.441364 2.241861 -1.325741
7.616354 2.647826 -1.277131
19.456345 6.760193 2.529033
8.987495 3.122745 -1.168240
11.052576 3.835943 -1.023557
14.004019 4.854797 -0.776770
4.983897 1.719012 -1.412634
27.957037 9.637306 0.516172
5.645295 1.944935 -1.378500
6.452477 2.221765 -1.326504
7.587734 2.609707 -1.270874
19.760248 6.792426 2.565594
9.013360 3.096516 -1.170189
19.987242 6.862664 3.347072
11.057697 3.796685 -1.022860
20.099754 6.897363 4.130633
14.008704 4.804447 -0.776142
4.997179 1.704102 -1.414705
5.633604 1.918933 -1.374001
6.463908 2.200498 -1.327267
7.578095 2.576843 -1.267745
19.520702 6.633997 2.531470
9.012836 3.061201 -1.168727
11.093523 3.765745 -1.024951
19.030512 6.456287 3.906242
14.006474 4.749107 -0.775096
19.239040 6.519545 4.689780
4.995776 1.684178 -1.412634
5.636573 1.898013 -1.373101
6.493879 2.185434 -1.331847
7.579554 2.547859 -1.266494
9.019704 3.028456 -1.168240
11.106599 3.727001 -1.024951
14.000243 4.692566 -0.773839
5.005290 1.667950 -1.413670
5.650561 1.880787 -1.374901
6.460485 2.149117 -1.323451
7.573404 2.516401 -1.263991
9.037757 2.999456 -1.169215
11.100633 3.681933 -1.023208
14.008953 4.641158 -0.773421
5.003742 1.648051 -1.411599
5.660793 1.862270 -1.375801
6.471677 2.127781 -1.324215
20.105564 6.606491 1.851537
7.570883 2.486250 -1.262113
9.021764 2.959230 -1.165802
11.090698 3.635712 -1.021117
14.025067 4.592233 -0.773421
5.005791 1.629378 -1.410564
5.648727 1.836472 -1.371302
6.475332 2.103962 -1.323451
20.045120 6.509196 1.843867
7.575757 2.458589 -1.261488
9.016932 2.922825 -1.163852
11.107112 3.598206 -1.021465
14.022011 4.537096 -0.772374
5.026442 1.615750 -1.414705
5.662842 1.818141 -1.373101
6.501693 2.086215 -1.327267
7.580955 2.429602 -1.260862
9.054052 2.898227 -1.167265
11.112635 3.555047 -1.020768
14.019521 4.479596 -0.771327
5.017322 1.593516 -1.410564
5.657695 1.795816 -1.370402
6.497707 2.059945 -1.324978
7.585203 2.403258 -1.260236
9.037118 2.859800 -1.163852
19.866430 6.282937 3.300142
11.140176 3.521036 -1.022163
14.015253 4.427061 -0.770281
5.026265 1.578027 -1.411599
5.671368 1.778386 -1.372201
6.497009 2.036040 -1.323451
7.597317 2.377944 -1.260862
9.047045 2.828239 -1.163852
11.144182 3.481699 -1.021465
14.038247 4.380495 -0.770699
5.031742 1.560474 -1.411599
5.681263 1.759733 -1.373101
6.500325 2.012189 -1.322688
7.601798 2.350241 -1.260236
9.056863 2.796639 -1.163852
11.110578 3.428675 -1.017282
14.064906 4.334991 -0.771327
46.764668 14.404557 11.297042
5.029770 1.540635 -1.409528
5.679918 1.737609 -1.371302
6.514819 1.991780 -1.324215
7.591061 2.317924 -1.257107
9.058972 2.762698 -1.162877
11.145346 3.396843 -1.019374
14.102881 4.292845 -0.772583
5.035117 1.523070 -1.409528
5.682219 1.716644 -1.370402
6.521732 1.969029 -1.324215
7.580195 2.285707 -1.253979
9.076165 2.733346 -1.163852
11.145690 3.354470 -1.018328
14.113952 4.242450 -0.772374
5.044106 1.506589 -1.410564
5.688175 1.696802 -1.370402
6.528566 1.946250 -1.324215
7.603271 2.263748 -1.256482
9.043792 2.689198 -1.158490
11.153509 3.314416 -1.017979
14.128675 4.193153 -0.772374
5.049335 1.488971 -1.410564
5.690032 1.676827 -1.369502
6.505186 1.914579 -1.318109
7.606947 2.237406 -1.255856
9.060279 2.661428 -1.159465
11.168836 3.276582 -1.018328
14.215334 4.167627 -0.776352
5.035696 1.466820 -1.405388
5.699594 1.658042 -1.370402
6.526580 1.897385 -1.321162
7.633682 2.216344 -1.258985
9.069511 2.629792 -1.159465
11.156676 3.232870 -1.016236
14.341068 4.150193 -0.782423
5.044498 1.450299 -1.406423
5.709092 1.639214 -1.371302
6.514293 1.869175 -1.317345
7.618583 2.183156 -1.255230
9.093904 2.602485 -1.161415
11.148737 3.188430 -1.014493
46.950199 13.418434 9.491603
14.447651 4.126432 -0.787447
5.064399 1.436899 -1.410564
5.681030 1.609714 -1.363203
6.528334 1.848562 -1.318872
7.622355 2.155476 -1.254605
9.095291 2.568569 -1.160440
11.159798 3.149496 -1.014493
14.473500 4.079229 -0.788075
5.065662 1.418172 -1.409528
5.697875 1.593020 -1.365903
6.534746 1.825764 -1.318872
7.629834 2.128853 -1.254605
9.077431 2.529343 -1.157028
11.186080 3.114795 -1.015887
14.479956 4.026538 -0.787656
27.111732 7.528947 -0.491146
5.055685 1.396367 -1.405388
5.699644 1.572086 -1.365003
6.529723 1.799814 -1.316582
7.637218 2.102209 -1.254605
9.086205 2.497639 -1.157028
11.181514 3.071509 -1.014493
14.470811 3.969625 -0.786400
27.164850 7.441653 -0.491634
5.056800 1.377696 -1.404352
27.355946 7.447829 0.494880
5.705097 1.552179 -1.365003
6.520810 1.772891 -1.313529
7.629259 2.071394 -1.252102
9.075708 2.460714 -1.154590
11.176785 3.028289 -1.013098
14.500001 3.923264 -0.787238
46.551907 12.586827 11.133277
5.076504 1.364046 -1.408493
27.393368 7.355398 0.495090
5.710481 1.532257 -1.365003
6.534544 1.752150 -1.315056
7.621178 2.040665 -1.249599
9.103420 2.434144 -1.157028
11.175736 2.986172 -1.012052
14.532906 3.877771 -0.788284
5.070030 1.343347 -1.405388
5.707994 1.511318 -1.363203
6.544417 1.730331 -1.315819
7.620263 2.013364 -1.248347
9.084570 2.396855 -1.153615
11.182240 2.946126 -1.011704
14.480015 3.812270 -0.784725
5.070720 1.325548 -1.404352
5.717007 1.492367 -1.364103
6.565317 1.712582 -1.318872
46.988384 12.248323 4.248320
7.646360 1.991729 -1.251476
9.108251 2.369129 -1.155565
11.191948 2.909030 -1.011704
14.508700 3.765720 -0.785563
5.075315 1.307843 -1.404352
5.710858 1.469486 -1.361404
6.544634 1.682814 -1.313529
7.641787 1.962077 -1.249599
9.101083 2.333374 -1.153615
11.190454 2.866975 -1.010658
14.506277 3.711088 -0.784725
5.057381 1.284411 -1.398141
27.744143 7.040977 0.499628
5.731064 1.453376 -1.365003
6.558081 1.661886 -1.315056
7.644759 1.934422 -1.248973
9.109172 2.301589 -1.153615
11.173348 2.821069 -1.008218
14.507524 3.657495 -0.784097
5.061833 1.266751 -1.398141
5.728540 1.431471 -1.363203
6.556223 1.637083 -1.313529
7.662966 1.910591 -1.250850
9.128708 2.272662 -1.155078
11.167661 2.778199 -1.006823
14.539583 3.611658 -0.785144
5.081229 1.252772 -1.402282
5.725933 1.409606 -1.361404
6.569523 1.616062 -1.315056
7.669588 1.883832 -1.250850
9.128873 2.238889 -1.154103
11.181160 2.740151 -1.007172
14.521062 3.553283 -0.783469
46.586094 11.390934 11.072091
5.074308 1.232291 -1.399176
5.730576 1.390609 -1.361404
6.571309 1.592194 -1.314292
7.664273 1.855601 -1.248973
9.120812 2.204870 -1.152153
11.171288 2.696432 -1.005429
14.525001 3.503233 -0.783051
46.623608 11.236396 11.072091
5.074609 1.214562 -1.398141
5.746767 1.373313 -1.364103
6.565095 1.567659 -1.312003
7.663018 1.827002 -1.247721
9.128452 2.173021 -1.152153
11.176292 2.658447 -1.005080
14.556572 3.457128 -0.784097
5.075057 1.195953 -1.397105
5.743702 1.352463 -1.362304
6.578172 1.546532 -1.313529
7.676725 1.803389 -1.248973
9.120147 2.139113 -1.150203
11.169987 2.615781 -1.003685
14.575734 3.410661 -0.784516
5.083170 1.178218 -1.398141
5.745056 1.329519 -1.361404
6.576144 1.520643 -1.312003
7.656648 1.767676 -1.244593
9.147637 2.108535 -1.152640
11.195030 2.578403 -1.005080
14.545902 3.344819 -0.782213
5.068417 1.156169 -1.392964
5.734461 1.305996 -1.357805
6.581412 1.497677 -1.312003
7.682034 1.745317 -1.247721
9.147198 2.074837 -1.151665
11.165099 2.530504 -1.001594
14.576968 3.298434 -0.783260
27.282223 6.163334 -0.488214
5.076192 1.139315 -1.393999
5.731379 1.284265 -1.356005
6.590432 1.475551 -1.312766
7.684225 1.717627 -1.247096
9.142405 2.041893 -1.150203
11.197202 2.496715 -1.003685
14.572796 3.244063 -0.782423
27.396210 6.093662 -0.489889
5.079941 1.122478 -1.393999
5.743217 1.266933 -1.357805
6.587620 1.451999 -1.311239
7.678302 1.689590 -1.245219
9.145247 2.010714 -1.149715
11.193742 2.457010 -1.002640
14.575669 3.194005 -0.782004
27.486589 6.018182 -0.491146
5.060984 1.100699 -1.387788
5.751196 1.248706 -1.358704
6.561700 1.423488 -1.305134
7.710892 1.669970 -1.249599
9.159970 1.980459 -1.150690
11.202251 2.417918 -1.002640
14.551039 3.138077 -0.780120
27.534800 5.928085 -0.491634
5.076319 1.084562 -1.390894
5.747896 1.227000 -1.356905
6.582235 1.402700 -1.308187
7.686046 1.635122 -1.244593
9.143527 1.943517 -1.147766
11.195030 2.375494 -1.001245
14.585889 3.089694 -0.781376
5.080074 1.066837 -1.390894
5.737097 1.202721 -1.353306
6.587091 1.379717 -1.308187
7.695575 1.609089 -1.245219
9.146704 1.909183 -1.147278
11.191552 2.333958 -1.000199
14.557479 3.030616 -0.779282
5.087551 1.049877 -1.391929
5.756322 1.186839 -1.356905
6.618789 1.362254 -1.313529
7.689259 1.581176 -1.243341
9.152985 1.878838 -1.147278
11.203532 2.295686 -1.000548
14.547884 2.978315 -0.778236
5.094791 1.033770 -1.392964
5.752790 1.165192 -1.355105
6.573239 1.330175 -1.303607
7.706349 1.556674 -1.245219
9.159488 1.846874 -1.147278
46.539555 9.384008 7.519493
11.214991 2.259305 -1.000896
14.526862 2.921211 -0.776561
5.079422 1.012205 -1.387788
5.756622 1.146110 -1.355105
6.589395 1.309519 -1.305897
46.651661 9.262684 4.161164
7.715343 1.531881 -1.245844
9.157771 1.814953 -1.146303
11.218900 2.219367 -1.000548
14.509038 2.867604 -0.775096
5.090334 0.996839 -1.389858
5.756763 1.125260 -1.354205
6.590073 1.285756 -1.305134
7.697377 1.500403 -1.242090
9.167949 1.783731 -1.146791
11.218755 2.178675 -0.999851
14.519450 2.814409 -0.775096
5.090160 0.977446 -1.388823
5.753193 1.102686 -1.352406
6.614024 1.265284 -1.308950
7.722227 1.475890 -1.245219
9.162725 1.747887 -1.145328
46.442783 8.851030 7.488206
11.207093 2.133812 -0.998108
14.510048 2.757442 -0.774049
5.101302 0.960213 -1.390894
5.757196 1.081591 -1.352406
46.654675 8.764904 2.487842
6.606823 1.240015 -1.306660
46.551804 8.728758 4.143733
7.704285 1.443210 -1.241464
9.145355 1.711508 -1.142403
46.473392 8.688870 7.488206
11.218390 2.095413 -0.998456
14.519585 2.706778 -0.774049
5.096859 0.941888 -1.388823
5.741587 1.058960 -1.347907
6.587729 1.213831 -1.302081
46.580498 8.574326 4.143733
7.716800 1.419085 -1.242715
9.139267 1.679017 -1.140941
11.205680 2.054609 -0.996713
14.528481 2.658611 -0.774049
5.111360 0.927048 -1.391929
5.748902 1.040607 -1.348807
46.614983 8.429362 2.482609
6.595582 1.192676 -1.302844
46.608669 8.419844 4.143733
7.717576 1.392783 -1.242090
9.152886 1.648518 -1.141916
11.204588 2.016024 -0.996016
14.521490 2.607597 -0.773212
5.091740 0.905144 -1.385717
5.756338 1.021213 -1.349706
46.545792 8.249177 2.477375
6.576508 1.165536 -1.298265
7.710720 1.363769 -1.240213
9.162495 1.617246 -1.142403
11.203710 1.975514 -0.995319
14.530503 2.556895 -0.773212
5.087256 0.886038 -1.383647
5.748347 0.999115 -1.347007
46.574306 8.086639 2.477375
6.588274 1.143914 -1.299791
7.711539 1.336176 -1.239587
9.156348 1.583222 -1.140941
11.191241 1.931052 -0.993575
14.531467 2.504797 -0.772793
5.098087 0.868686 -1.385717
5.736431 0.976426 -1.343408
46.503803 7.907264 2.472142
6.584680 1.118445 -1.298265
46.499237 7.889812 4.126301
7.755338 1.314500 -1.245844
9.146160 1.548601 -1.138991
46.421806 7.851671 7.456919
11.193985 1.891308 -0.993227
14.528734 2.449531 -0.772165
5.093467 0.849612 -1.383647
5.751504 0.957315 -1.346107
46.511414 7.741640 2.471095
6.580797 1.094164 -1.296738
7.732596 1.282899 -1.241464
9.143678 1.515365 -1.138016
11.200518 1.852230 -0.993227
46.240158 7.638425 9.109985
14.517490 2.395545 -0.771118
5.092443 0.832095 -1.382612
5.762341 0.939490 -1.347907
6.599891 1.074861 -1.299791
7.736808 1.257248 -1.241464
9.172166 1.488854 -1.140941
11.179064 1.810615 -0.990786
14.529298 2.348024 -0.771327
46.189976 7.464584 10.802149
5.106619 0.817033 -1.385717
5.757727 0.919148 -1.346107
6.595665 1.051731 -1.298265
7.717524 1.227862 -1.237710
9.153780 1.453095 -1.138016
11.201058 1.774072 -0.992181
46.289803 7.331579 9.109985
14.529111 2.298592 -0.770909
5.098127 0.796522 -1.382612
5.757050 0.898442 -1.345207
6.587836 1.025739 -1.295975
7.737589 1.201991 -1.240213
9.147027 1.419305 -1.136554
46.330448 7.180616 7.425632
11.199306 1.733745 -0.991484
14.497963 2.239223 -0.768815
5.112335 0.780470 -1.385717
5.764157 0.877923 -1.346107
46.437267 7.064423 2.461674
6.610785 1.005687 -1.299791
7.737831 1.174384 -1.239587
9.148242 1.385178 -1.136066
46.356453 7.010769 7.425632
11.181946 1.689112 -0.989392
46.244019 6.985487 9.090904
14.505690 2.188605 -0.768815
5.111340 0.761159 -1.384682
5.755621 0.856078 -1.343408
6.579471 0.976266 -1.292922
7.738176 1.145435 -1.238961
9.117674 1.348007 -1.131679
46.185223 6.820042 7.394345
11.215368 1.654142 -0.991832
46.172195 6.801652 9.071823
14.485950 2.131351 -0.767350
46.099270 6.774470 10.757159
5.090766 0.741756 -1.378470
5.769999 0.838668 -1.346107
46.484272 6.748192 2.461674
6.594162 0.957284 -1.295211
7.730006 1.119422 -1.237084
46.271408 6.692555 5.740534
9.161388 1.323443 -1.136554
46.168476 6.661217 7.388088
11.177127 1.612643 -0.987997
46.068970 6.638652 9.047400
14.500483 2.086972 -0.767769
5.112451 0.726699 -1.383647
5.780609 0.819614 -1.347907
46.408669 6.571876 2.456441
6.593576 0.933708 -1.294448
7.714307 1.089667 -1.233955
46.215862 6.519892 5.730784
9.165952 1.291458 -1.136554
46.034966 6.477985 7.363058
11.170851 1.571949 -0.986952
14.483944 2.033015 -0.766513
5.126437 0.710441 -1.386752
5.764131 0.796764 -1.343408
46.431328 6.409849 2.456441
6.585127 0.909077 -1.292159
7.714150 1.062195 -1.233329
9.182203 1.261073 -1.138016
11.192060 1.535114 -0.988346
14.447418 1.976484 -0.764210
5.113570 0.690472 -1.382612
5.766877 0.776640 -1.343408
46.453419 6.247722 2.456441
6.603826 0.888177 -1.295211
7.709979 1.034213 -1.232078
9.166875 1.226378 -1.135579
11.205250 1.497095 -0.989043
14.477987 1.929203 -0.765466
5.104456 0.671111 -1.379506
5.773418 0.757010 -1.344308
46.347137 6.077034 2.449742
6.610778 0.865634 -1.295975
7.729211 1.009338 -1.234581
9.143541 1.190786 -1.132166
11.194602 1.455913 -0.987649
14.456903 1.875060 -0.764000
5.114433 0.654268 -1.381576
5.756567 0.735390 -1.339808
46.296749 5.906126 2.445974
6.590390 0.839574 -1.291395
7.709002 0.980708 -1.230826
9.139562 1.159460 -1.131191
45.339943 5.743840 7.238536
11.160084 1.411829 -0.984163
45.331482 5.734752 8.881777
14.482858 1.829615 -0.765047
45.261280 5.709799 10.532208
5.101238 0.635393 -1.377435
5.782304 0.718177 -1.345207
46.388435 5.753322 2.449742
6.597035 0.818197 -1.292159
7.728061 0.955737 -1.233329
45.285328 5.592435 5.602578
9.155375 1.129006 -1.132654
45.261677 5.573498 7.222893
11.164703 1.374815 -0.984163
45.179749 5.555383 8.848195
14.481227 1.778072 -0.764628
45.130058 5.533306 10.497116
5.111097 0.618509 -1.379506
5.753821 0.694252 -1.338009
46.336853 5.582747 2.445974
6.595953 0.794692 -1.291395
7.707815 0.925926 -1.229575
45.261208 5.429112 5.597216
9.171086 1.098459 -1.134116
11.177347 1.336778 -0.984860
14.423881 1.719948 -0.761279
45.110397 5.371119 10.488117
5.128574 0.602471 -1.383647
5.779436 0.676882 -1.343408
6.602586 0.772124 -1.292159
7.714924 0.899470 -1.230201
45.279881 5.271120 5.597216
9.111767 1.059102 -1.126317
11.189862 1.298670 -0.985557
14.449638 1.671881 -0.762326
45.128872 5.213609 10.488117
5.130646 0.584564 -1.383647
5.774018 0.655826 -1.341608
46.279438 5.248339 2.440949
6.581831 0.746415 -1.287579
7.694462 0.869874 -1.226446
45.274338 5.110347 5.594291
9.135134 1.029510 -1.128754
11.186407 1.258713 -0.984860
14.435537 1.619202 -0.761279
45.243629 5.066902 10.510613
5.113453 0.564532 -1.378470
36.644451 4.039125 0.643505
5.776272 0.635665 -1.341608
6.600009 0.725153 -1.290632
7.697452 0.843008 -1.226446
45.256382 4.948405 5.589904
9.111045 0.994607 -1.125342
11.186772 1.219223 -0.984511
14.445074 1.569237 -0.761488
5.123076 0.547499 -1.380541
36.606632 3.905662 0.642598
5.770705 0.614674 -1.339808
46.215645 4.914560 2.435716
6.598596 0.701693 -1.289869
7.696419 0.815719 -1.225821
45.233898 4.786211 5.585029
9.114461 0.962795 -1.125342
11.175108 1.178497 -0.983117
14.474298 1.521313 -0.762744
45.060833 4.728142 10.460224
5.128799 0.530009 -1.381576
5.768938 0.594128 -1.338909
46.232521 4.753195 2.435716
6.593194 0.677850 -1.288342
7.695290 0.788447 -1.225195
45.187138 4.621811 5.577229
9.113816 0.930573 -1.124854
45.270222 4.614343 7.207250
11.187082 1.140287 -0.983814
45.067429 4.585725 8.805454
14.404013 1.463112 -0.758767
45.100330 4.573169 10.465623
5.126773 0.511720 -1.380541
5.763220 0.573214 -1.337109
46.149456 4.581928 2.430482
6.587705 0.654057 -1.286816
7.690132 0.760801 -1.223943
45.187187 4.462499 5.575279
9.101205 0.897193 -1.122904
45.136642 4.441599 7.183472
11.190993 1.101232 -0.983814
45.032360 4.423402 8.795531
14.420959 1.413989 -0.759395
45.019043 4.406229 10.443128
5.116991 0.492711 -1.377435
5.765186 0.553095 -1.337109
6.597765 0.631805 -1.288342
7.692740 0.733954 -1.223943
45.155064 4.300210 5.569429
9.088472 0.863914 -1.120954
45.163670 4.285145 7.185349
11.186835 1.061411 -0.983117
45.098347 4.270984 8.805454
14.386039 1.359879 -0.757301
45.034149 4.249066 10.443128
5.114832 0.474491 -1.376400
5.782605 0.534400 -1.340708
6.596020 0.608414 -1.287579
7.707058 0.708179 -1.225821
45.225143 4.147670 5.576254
9.099339 0.832909 -1.121929
45.316059 4.140037 7.207250
11.158727 1.019452 -0.980328
14.390698 1.309657 -0.757301
5.112609 0.456289 -1.375364
5.784435 0.514213 -1.340708
6.594192 0.585037 -1.286816
7.689806 0.679535 -1.222692
45.310539 3.996046 5.585029
9.090186 0.801686 -1.120467
11.170156 0.981194 -0.981025
14.423038 1.261850 -0.758767
5.133342 0.440985 -1.380541
5.755043 0.492372 -1.333510
6.592185 0.562831 -1.286053
7.692018 0.654033 -1.222692
45.450134 3.856498 5.600628
9.092795 0.771535 -1.120467
11.161437 0.943143 -0.979979
14.415202 1.213012 -0.758139
5.127075 0.423325 -1.378470
46.120674 3.799941 0.807767
5.776065 0.474880 -1.338009
6.609668 0.542253 -1.289106
46.017693 3.767201 4.039495
7.694144 0.628519 -1.222692
45.494328 3.708348 5.604528
9.087520 0.739144 -1.119492
11.132730 0.903543 -0.977190
14.327570 1.157799 -0.753324
45.472424 3.666622 10.532208
21.082649 1.696275 -0.369188
5.124670 0.405122 -1.377435
5.769917 0.454101 -1.336209
6.603691 0.518564 -1.287579
46.030563 3.606534 4.039495
7.684475 0.600732 -1.220815
45.546577 3.552618 5.609403
9.062336 0.705268 -1.116079
11.151708 0.865908 -0.978585
14.363384 1.110252 -0.754999
45.484947 3.507859 10.532208
21.084455 1.622360 -0.369118
5.110641 0.386065 -1.373294
21.120878 1.591795 0.369712
5.771466 0.433962 -1.336209
6.585884 0.494040 -1.283763
7.682585 0.573616 -1.220189
45.657681 3.400970 5.621590
9.072661 0.674216 -1.117054
45.774231 3.393586 7.269824
11.126845 0.824916 -0.976144
45.619221 3.374088 8.891700
14.347255 1.058634 -0.753952
45.496910 3.349076 10.532208
5.123519 0.369055 -1.376400
20.966738 1.506598 0.366919
5.772946 0.413812 -1.336209
6.603234 0.472166 -1.286816
7.688482 0.547073 -1.220815
45.768276 3.248589 5.633776
9.074959 0.642545 -1.117054
45.730625 3.229896 7.261063
11.121707 0.785512 -0.975447
45.677727 3.218126 8.900859
14.338908 1.007709 -0.753324
45.702721 3.203878 10.577198
5.120921 0.350908 -1.375364
20.830225 1.423715 0.364441
5.758802 0.392596 -1.332610
6.600925 0.448849 -1.286053
7.686403 0.519964 -1.220189
45.830837 3.092292 5.640114
9.096954 0.612194 -1.119492
45.745564 3.070499 7.261689
11.100525 0.745081 -0.973355
45.688679 3.058671 8.900859
14.302482 0.954986 -0.751230
45.713623 3.044314 10.577198
5.137537 0.334032 -1.379506
20.857016 1.352423 0.364825
5.771805 0.373247 -1.335310
6.602451 0.425806 -1.286053
7.692113 0.493384 -1.220815
45.861160 2.933571 5.642551
9.051490 0.577400 -1.113642
45.807259 2.914069 7.269824
11.103058 0.706331 -0.973355
14.301741 0.904799 -0.751021
5.134816 0.315860 -1.378470
20.977375 1.286705 0.366850
5.761402 0.352382 -1.332610
6.596059 0.402280 -1.284526
7.674071 0.465333 -1.217686
45.859230 2.772758 5.641088
9.073265 0.546998 -1.116079
45.817150 2.754142 7.269824
11.069659 0.665415 -0.970218
45.685398 2.738242 8.896278
14.332725 0.856542 -0.752486
21.145489 1.256275 -0.369747
5.105029 0.296143 -1.370188
21.137453 1.222483 0.369572
5.762597 0.332270 -1.332610
6.601343 0.379476 -1.285290
7.671704 0.438319 -1.217060
9.075119 0.515325 -1.116079
45.708153 2.587504 7.251051
11.071914 0.626773 -0.970218
45.620193 2.574538 8.881777
14.311698 0.805163 -0.751230
45.645714 2.559995 10.554704
21.153738 1.182683 -0.369816
5.121464 0.279161 -1.374329
21.592857 1.173215 0.377461
5.775397 0.312784 -1.335310
45.886127 2.477067 2.408292
6.598707 0.356218 -1.284526
7.677133 0.411747 -1.217686
45.818001 2.449332 5.633776
9.076861 0.483645 -1.116079
45.705070 2.427297 7.249174
11.062097 0.587484 -0.969172
45.628902 2.415266 8.881777
14.338354 0.756467 -0.752486
45.654373 2.400634 10.554704
5.114689 0.260889 -1.372259
21.660730 1.101078 0.378578
5.764776 0.292032 -1.332610
45.918427 2.318098 2.409548
6.592067 0.332787 -1.283000
7.686414 0.385343 -1.218938
9.070564 0.451561 -1.115105
45.744831 2.269317 7.254180
11.044181 0.547881 -0.967429
45.637058 2.255986 8.881777
14.316970 0.705229 -0.751230
45.565155 2.236467 10.532208
21.628851 1.057832 -0.377984
5.138725 0.244133 -1.378470
5.761868 0.271725 -1.331710
45.826111 2.161119 2.404314
6.597110 0.309957 -1.283763
7.683767 0.358328 -1.218312
45.707077 2.123506 5.618177
9.060188 0.419343 -1.113642
45.653446 2.113030 7.238536
11.053988 0.509696 -0.968126
45.644653 2.096657 8.881777
14.323335 0.655428 -0.751440
45.572685 2.077433 10.532208
21.720135 0.990113 -0.379520
5.139546 0.226198 -1.378470
35.939735 1.581751 0.627938
5.774418 0.253127 -1.334410
45.885258 2.003396 2.407035
6.586384 0.286420 -1.281473
7.665178 0.331989 -1.215183
45.713867 1.971934 5.618177
9.037729 0.388280 -1.110717
45.628963 1.952315 7.233531
11.075604 0.471953 -0.969869
45.651356 1.945292 8.881777
14.293502 0.606581 -0.749765
5.113245 0.208052 -1.371223
35.925053 1.455469 0.627589
5.775267 0.232967 -1.334410
45.808151 1.839858 2.402639
6.595144 0.264890 -1.283000
7.682080 0.305857 -1.217686
45.720470 1.812360 5.618177
9.062832 0.357667 -1.113642
45.738140 1.797049 7.249800
11.077108 0.435219 -0.969869
45.657867 1.785936 8.881777
14.271584 0.555748 -0.748509
5.117800 0.190344 -1.372259
35.913929 1.329457 0.627309
5.779939 0.212954 -1.335310
45.782360 1.678763 2.400965
6.611724 0.242441 -1.286053
7.663360 0.278328 -1.214557
45.655106 1.650161 5.609403
9.071960 0.326312 -1.114617
11.042721 0.395275 -0.966731
14.237509 0.504650 -0.746625
5.106849 0.172089 -1.369153
35.890369 1.203155 0.626821
5.757276 0.191996 -1.329911
45.851818 1.521049 2.404314
6.600757 0.218968 -1.283763
7.656388 0.251315 -1.213306
45.660587 1.490773 5.609403
9.057171 0.294130 -1.112667
11.051998 0.356980 -0.967429
14.227205 0.454569 -0.745997
5.115143 0.154497 -1.371223
35.898350 1.077977 0.626890
5.757911 0.171899 -1.329911
45.784981 1.358886 2.400546
6.597556 0.195814 -1.283000
7.673015 0.225052 -1.215809
45.609951 1.329790 5.602578
9.034333 0.261820 -1.109742
11.065126 0.318741 -0.968475
14.192769 0.403877 -0.744113
5.119513 0.136742 -1.372259
35.881905 0.952139 0.626541
5.770164 0.152106 -1.332610
45.701595 1.196746 2.395940
6.586424 0.172473 -1.280710
7.638208 0.197347 -1.210177
45.598438 1.170154 5.600628
9.039161 0.230386 -1.110230
11.054221 0.279814 -0.967429
14.186107 0.354137 -0.743694
5.123822 0.118962 -1.373294
35.877014 0.826706 0.626402
5.778453 0.132140 -1.334410
45.713482 1.037401 2.396359
6.586986 0.149482 -1.280710
45.661964 1.028258 3.995917
7.666500 0.171299 -1.214557
45.673695 1.012573 5.609403
9.051817 0.199096 -1.111692
11.035211 0.240789 -0.965686
14.171281 0.304269 -0.742857
5.116480 0.100922 -1.371223
35.867683 0.701222 0.626192
5.767189 0.111743 -1.331710
45.768742 0.878809 2.399081
6.583542 0.126411 -1.279947
45.641365 0.868395 3.993825
7.635450 0.143943 -1.209551
45.605499 0.851789 5.600628
9.076274 0.167936 -1.114617
11.032000 0.202196 -0.965337
14.068418 0.252936 -0.737414
5.128391 0.083251 -1.374329
35.853916 0.575767 0.625913
5.744162 0.091241 -1.326311
45.731594 0.718402 2.396987
6.591795 0.103551 -1.281473
45.608261 0.708524 3.990687
7.639856 0.117348 -1.210177
45.608196 0.692578 5.600628
9.060925 0.136016 -1.112667
11.016702 0.163447 -0.963942
13.977350 0.202499 -0.732599
5.117060 0.065200 -1.371223
35.851707 0.450550 0.625843
5.760034 0.071384 -1.329911
6.592116 0.080542 -1.281473
7.624417 0.090497 -1.207674
45.642094 0.533753 5.604528
9.053406 0.104293 -1.111692
45.501850 0.516229 7.207250
11.025174 0.125083 -0.964640
45.422947 0.507405 8.829877
13.989954 0.153835 -0.733227
45.426373 0.491586 10.488117
5.128847 0.047443 -1.374329
35.841068 0.325300 0.625634
5.752453 0.051206 -1.328111
6.572725 0.057358 -1.277657
7.640489 0.064012 -1.210177
45.524582 0.373440 5.589904
9.053715 0.072692 -1.111692
45.503376 0.357404 7.207250
11.037498 0.086693 -0.965686
45.495117 0.349377 8.843616
13.962444 0.104793 -0.731761
5.105800 0.029410 -1.368118
35.825985 0.200091 0.625355
5.748699 0.031104 -1.327211
6.580739 0.034460 -1.279184
7.640666 0.037340 -1.210177
45.565304 0.214746 5.594778
9.053913 0.041086 -1.111692
45.464836 0.198381 7.200992
11.013824 0.048058 -0.963594
45.358635 0.190023 8.816903
13.994682 0.056179 -0.733436
45.428696 0.174438 10.488117
5.105871 0.011586 -1.368118
35.774475 0.074915 0.624447
5.752671 0.011045 -1.328111
6.584745 0.011494 -1.279947
7.620997 0.010643 -1.207049
45.561806 0.055675 5.594291
9.061941 0.009487 -1.112667
45.405998 0.039636 7.191607
11.009941 0.009611 -0.963245
45.398281 0.031706 8.824534
13.982809 0.007318 -0.732808
45.429028 0.015870 10.488117
5.113607 -0.006247 -1.370188
35.758518 -0.049928 0.624168
5.748776 -0.009030 -1.327211
6.588672 -0.011499 -1.280710
7.652593 -0.016028 -1.212054
45.525993 -0.103295 5.589904
9.069860 -0.022162 -1.113642
45.390057 -0.118831 7.189103
11.021861 -0.028855 -0.964291
45.339222 -0.126611 8.813087
13.970765 -0.041452 -0.732180
5.109691 -0.024079 -1.369153
35.742130 -0.174670 0.623889
5.756505 -0.029137 -1.329011
6.572886 -0.034416 -1.277657
7.612983 -0.042519 -1.205797
45.537262 -0.262279 5.591366
9.022086 -0.053539 -1.107792
45.405167 -0.277368 7.191607
10.993800 -0.067158 -0.961851
45.299240 -0.284627 8.805454
13.982519 -0.090296 -0.732808
45.233162 -0.300002 10.443128
5.105712 -0.041883 -1.368118
5.744676 -0.049130 -1.326311
6.557020 -0.057222 -1.274604
7.616739 -0.069129 -1.206423
45.484463 -0.420754 5.585029
9.029785 -0.085106 -1.108767
45.423744 -0.428121 7.194735
11.029360 -0.105878 -0.964988
45.337234 -0.443133 8.813087
13.978126 -0.139064 -0.732599
45.231838 -0.457893 10.443128
5.101671 -0.059660 -1.367082
5.748379 -0.068226 -1.327211
45.773861 -0.551271 2.399081
6.560707 -0.080158 -1.275367
7.632270 -0.094583 -1.208926
45.431202 -0.570935 5.578691
9.017542 -0.114898 -1.107305
45.342972 -0.585657 7.182220
10.997048 -0.143959 -0.962199
45.296253 -0.592960 8.805454
13.973593 -0.185364 -0.732389
5.105309 -0.076636 -1.368118
5.755900 -0.088411 -1.329011
6.556479 -0.101853 -1.274604
7.604241 -0.120784 -1.204545
45.428932 -0.729516 5.578691
9.005177 -0.146181 -1.105842
45.324978 -0.735760 7.179718
10.992525 -0.180361 -0.961851
45.262497 -0.750549 8.799348
13.932920 -0.233470 -0.730296
45.227676 -0.765764 10.443128
5.120462 -0.094742 -1.372259
5.755575 -0.107498 -1.329011
47.262733 -0.890987 2.477375
6.579638 -0.125187 -1.279184
7.595899 -0.145849 -1.203294
45.406418 -0.879776 5.576254
9.020521 -0.176353 -1.107792
45.345833 -0.894436 7.183472
10.975893 -0.218413 -0.960456
45.240131 -0.900250 8.795531
13.932070 -0.279672 -0.730296
45.224888 -0.915740 10.443128
5.104650 -0.112275 -1.368118
5.751246 -0.128505 -1.328111
6.575235 -0.148065 -1.278420
7.603213 -0.173869 -1.204545
45.335419 -1.044638 5.567967
9.007907 -0.209137 -1.106330
45.318550 -1.060077 7.179718
10.963113 -0.256446 -0.959410
45.256153 -1.066520 8.799348
13.950918 -0.331208 -0.731343
5.108089 -0.130192 -1.369153
5.746866 -0.148480 -1.327211
6.547203 -0.170301 -1.273078
7.590712 -0.200096 -1.202668
45.347370 -1.203303 5.569917
9.038873 -0.241427 -1.110230
45.314575 -1.218262 7.179718
10.950201 -0.294391 -0.958364
45.232533 -1.223956 8.795531
13.949677 -0.379904 -0.731343
5.096017 -0.147686 -1.366047
35.667412 -1.039892 0.622842
5.742417 -0.168425 -1.326311
6.566192 -0.193733 -1.276894
7.593916 -0.226709 -1.203294
45.346863 -1.361706 5.570405
9.022101 -0.272498 -1.108280
45.286350 -1.375712 7.175962
10.949107 -0.332613 -0.958364
45.196587 -1.380881 8.789426
13.932296 -0.428104 -0.730505
45.212574 -1.397166 10.443128
5.107056 -0.165849 -1.369153
35.683548 -1.165041 0.623191
5.741794 -0.188468 -1.326311
6.577249 -0.217041 -1.279184
45.449299 -1.507709 3.978485
7.600976 -0.253478 -1.204545
45.262474 -1.517328 5.560655
8.997287 -0.303187 -1.105355
10.963809 -0.371370 -0.959759
13.934709 -0.476871 -0.730715
5.094862 -0.183259 -1.366047
35.679264 -1.289593 0.623191
5.725522 -0.207944 -1.322712
45.447334 -1.658535 2.383380
6.568603 -0.239712 -1.277657
45.344200 -1.662696 3.969769
7.568460 -0.278846 -1.199540
45.296574 -1.676783 5.565530
8.992207 -0.334444 -1.104867
45.473042 -1.699210 7.207250
10.922626 -0.408150 -0.956273
13.889050 -0.523853 -0.728412
5.098052 -0.201194 -1.367082
35.786442 -1.418564 0.625145
5.728655 -0.228084 -1.323612
45.389385 -1.815091 2.380658
6.555956 -0.262168 -1.275367
45.437664 -1.824965 3.978485
7.622705 -0.307492 -1.208300
45.349945 -1.837298 5.572842
8.967183 -0.364862 -1.101943
45.466835 -1.857931 7.207250
10.949005 -0.447414 -0.958713
13.927049 -0.573977 -0.730505
5.097319 -0.218988 -1.367082
35.909134 -1.548989 0.627379
5.735611 -0.248416 -1.325412
45.395088 -1.966117 2.381286
6.543233 -0.284540 -1.273078
45.331490 -1.979216 3.969769
7.578169 -0.332195 -1.201417
45.244102 -1.991224 5.560655
8.973787 -0.396512 -1.102918
45.460423 -2.008694 7.207250
10.915529 -0.484218 -0.955924
45.255276 -2.015457 8.805454
13.885055 -0.620803 -0.728412
5.084945 -0.236242 -1.363976
5.738650 -0.267616 -1.326311
45.364006 -2.123442 2.380030
6.530433 -0.306825 -1.270788
45.284504 -2.135563 3.966284
7.580973 -0.357510 -1.202043
45.253109 -2.141998 5.562604
9.000182 -0.427587 -1.106330
45.453136 -2.167368 7.207250
10.921733 -0.522698 -0.956621
13.894890 -0.667419 -0.729040
5.087992 -0.253295 -1.365012
45.448391 -2.270507 0.794294
5.726003 -0.287061 -1.323612
45.320415 -2.279973 2.378146
6.541145 -0.329071 -1.273078
45.285130 -2.286122 3.966981
7.563895 -0.383170 -1.199540
45.229500 -2.299142 5.560655
8.978810 -0.457989 -1.103893
45.445293 -2.326016 7.207250
10.911981 -0.558505 -0.955924
45.115025 -2.317007 8.781030
13.904442 -0.716534 -0.729668
5.079360 -0.270643 -1.362941
45.468143 -2.430632 0.794783
5.721074 -0.306838 -1.322712
45.344090 -2.439874 2.379821
6.516431 -0.350636 -1.268498
45.268917 -2.443753 3.966284
7.582237 -0.410639 -1.202668
45.173626 -2.454423 5.554805
8.977158 -0.489328 -1.103893
10.890071 -0.595504 -0.954181
45.106663 -2.474473 8.781030
13.865961 -0.763090 -0.727784
5.082242 -0.288591 -1.363976
5.719968 -0.326806 -1.322712
45.303391 -2.596311 2.378146
6.534768 -0.374504 -1.272314
45.244198 -2.600841 3.964889
7.557092 -0.435739 -1.198914
45.141003 -2.610719 5.551880
8.955577 -0.519512 -1.101455
45.132141 -2.626013 7.160319
10.883946 -0.633282 -0.953832
13.875175 -0.812187 -0.728412
45.059128 -2.645438 10.420632
5.092774 -0.307027 -1.367082
40.008835 -2.419010 0.699632
5.726573 -0.347243 -1.324512
45.294056 -2.754433 2.378146
6.509906 -0.395882 -1.267735
45.290527 -2.762153 3.969769
7.587072 -0.464045 -1.203920
8.957672 -0.551013 -1.101943
10.905534 -0.672743 -0.955924
13.904151 -0.862594 -0.730087
5.087815 -0.324556 -1.366047
40.012123 -2.559418 0.699841
5.721437 -0.366981 -1.323612
6.516320 -0.419107 -1.269261
7.569636 -0.489506 -1.201417
39.975212 -2.592087 4.918647
8.955693 -0.582278 -1.101943
10.859380 -0.707954 -0.952089
13.897070 -0.910862 -0.729877
45.066788 -2.961733 10.426931
5.075087 -0.341536 -1.362941
5.727898 -0.387476 -1.325412
45.241833 -3.068413 2.376471
6.530488 -0.442914 -1.272314
7.556056 -0.515120 -1.199540
45.130993 -3.084636 5.554318
8.937762 -0.612450 -1.099993
45.054871 -3.095234 7.152811
10.888645 -0.748041 -0.954878
44.997204 -3.099163 8.767292
13.921700 -0.961292 -0.731343
5.085426 -0.360067 -1.366047
5.703185 -0.405808 -1.320013
45.242802 -3.227171 2.377099
6.532819 -0.465986 -1.273078
45.159756 -3.229169 3.961054
7.554212 -0.541493 -1.199540
45.092228 -3.240162 5.550905
8.947451 -0.644501 -1.101455
45.039848 -3.252202 7.152184
10.862121 -0.784323 -0.952787
45.013527 -3.258198 8.772635
13.894356 -1.008148 -0.730087
44.920620 -3.267236 10.398138
5.080285 -0.377530 -1.365012
45.351433 -3.378152 0.793805
5.693960 -0.425133 -1.318213
45.199394 -3.382693 2.375425
6.527236 -0.488494 -1.272314
45.168076 -3.388277 3.962797
7.544397 -0.567266 -1.198288
45.060852 -3.396052 5.548468
8.929311 -0.674533 -1.099505
45.004589 -3.407611 7.148430
10.883157 -0.824040 -0.954878
44.943150 -3.410847 8.761186
13.910666 -1.058157 -0.731133
44.978893 -3.429352 10.414334
5.075084 -0.394962 -1.363976
45.343353 -3.536749 0.793875
5.704098 -0.445917 -1.320913
45.199257 -3.541384 2.376053
6.502005 -0.509435 -1.267735
45.136112 -3.544362 3.961054
7.546309 -0.593907 -1.198914
45.048721 -3.553323 5.548468
8.926902 -0.705698 -1.099505
44.988480 -3.564373 7.147804
10.868298 -0.861080 -0.953832
44.977940 -3.571437 8.770345
13.902906 -1.106391 -0.730924
44.896717 -3.580759 10.398138
5.069823 -0.412362 -1.362941
45.326740 -3.694680 0.793805
5.698623 -0.465508 -1.320013
45.190605 -3.699463 2.376262
6.504100 -0.532449 -1.268498
45.111546 -3.700918 3.960008
7.544190 -0.620245 -1.198914
45.043957 -3.711202 5.549443
8.932298 -0.737508 -1.100480
44.975765 -3.721390 7.147804
10.845370 -0.897369 -0.952089
44.965199 -3.728418 8.770345
13.898960 -1.154914 -0.730924
44.883945 -3.737456 10.398138
5.056803 -0.429076 -1.359835
45.241840 -3.846779 0.792549
5.704730 -0.486059 -1.321812
45.145573 -3.854467 2.374587
6.498290 -0.554815 -1.267735
45.082474 -3.857005 3.958614
7.541979 -0.646576 -1.198914
44.999084 -3.865694 5.545543
8.937579 -0.769364 -1.101455
44.970371 -3.879041 7.149055
10.826292 -0.933851 -0.950695
44.916706 -3.882310 8.763475
13.882904 -1.202390 -0.730296
44.870625 -3.894108 10.398138
5.055275 -0.446725 -1.359835
45.279926 -4.009264 0.793456
5.706880 -0.506314 -1.322712
45.107975 -4.009909 2.373331
6.508047 -0.578538 -1.270025
45.060799 -4.013642 3.957916
7.508195 -0.670089 -1.193908
44.969498 -4.021332 5.543593
8.926930 -0.799848 -1.100480
44.952625 -4.035641 7.148430
10.858685 -0.974843 -0.953832
44.969364 -4.045055 8.776451
13.886580 -1.251560 -0.730715
44.907219 -4.055268 10.409835
5.076770 -0.466490 -1.366047
45.233795 -4.164363 0.792898
5.701197 -0.525873 -1.321812
45.086472 -4.158736 2.372913
6.513807 -0.601974 -1.271551
45.046516 -4.170909 3.957916
7.525480 -0.698118 -1.197037
44.982861 -4.180852 5.547006
8.932136 -0.830182 -1.101455
44.946861 -4.185419 7.149682
10.835379 -1.010890 -0.952089
44.908054 -4.197618 8.767292
13.838378 -1.295929 -0.728412
44.843082 -4.199440 10.398138
5.063656 -0.482223 -1.362941
45.251587 -4.317380 0.793456
5.683903 -0.543293 -1.318213
45.052551 -4.306325 2.371866
6.480506 -0.620577 -1.265445
45.032433 -4.320266 3.957916
7.538854 -0.724581 -1.199540
44.964794 -4.329617 5.546518
8.909575 -0.857894 -1.099018
44.928799 -4.334065 7.149055
10.851798 -1.048733 -0.953832
44.893887 -4.346515 8.767292
13.845932 -1.342968 -0.729040
44.828907 -4.348122 10.398138
5.050494 -0.497875 -1.359835
45.185284 -4.462306 0.792549
5.693706 -0.563290 -1.320913
45.057899 -4.457667 2.372913
6.497949 -0.644000 -1.269261
45.009930 -4.468788 3.957219
7.540341 -0.749968 -1.200165
44.938343 -4.477522 5.545056
8.910631 -0.887829 -1.099505
44.925976 -4.484209 7.150933
10.860155 -1.085902 -0.954878
44.840160 -4.491451 8.759660
13.829478 -1.387679 -0.728412
44.814240 -4.496756 10.398138
5.044971 -0.514229 -1.358800
45.241852 -4.619434 0.793805
5.684052 -0.581374 -1.319113
45.058765 -4.608685 2.373750
6.460623 -0.661943 -1.262392
45.014687 -4.620055 3.958962
7.490653 -0.770120 -1.192657
44.939041 -4.628144 5.547006
8.907638 -0.917372 -1.099505
44.910858 -4.633163 7.150933
10.820822 -1.118223 -0.951741
44.782055 -4.635675 8.751265
13.816854 -1.432708 -0.727993
5.058422 -0.534339 -1.362941
45.153027 -4.777648 0.792549
5.670256 -0.600971 -1.316414
45.024849 -4.779978 2.372913
6.489390 -0.688934 -1.268498
45.013298 -4.786697 3.960357
7.519207 -0.800917 -1.197662
44.894142 -4.789875 5.543593
8.911944 -0.952412 -1.100480
44.853451 -4.801369 7.144676
10.836461 -1.159997 -0.953484
44.784286 -4.801871 8.755080
13.775766 -1.479500 -0.726109
44.877792 -4.827743 10.420632
5.056526 -0.551993 -1.362941
5.675872 -0.621609 -1.318213
45.007889 -4.937115 2.372913
6.486946 -0.711582 -1.268498
7.508512 -0.826295 -1.196411
44.892933 -4.948295 5.545543
8.900674 -0.982643 -1.099505
44.883541 -4.963118 7.152184
10.812543 -1.195626 -0.951741
44.810181 -4.962923 8.763475
13.774487 -1.528018 -0.726318
5.050729 -0.569208 -1.361906
5.677540 -0.641856 -1.319113
45.041977 -5.100034 2.375634
6.472718 -0.732896 -1.266209
45.125282 -5.117444 3.973256
7.529135 -0.855174 -1.200165
44.875389 -5.104970 5.545543
8.897190 -1.013707 -1.099505
44.779591 -5.109907 7.138419
10.823925 -1.237058 -0.953135
44.773075 -5.117080 8.759660
13.769070 -1.576091 -0.726318
44.746197 -5.129832 10.398138
5.048608 -0.587716 -1.361906
5.675265 -0.661670 -1.319113
45.023899 -5.257229 2.375634
6.454389 -0.754790 -1.263156
45.126011 -5.285119 3.974999
7.498483 -0.879543 -1.195785
44.849411 -5.260659 5.544568
8.881767 -1.043368 -1.098043
44.800716 -5.270802 7.144676
10.791839 -1.271569 -0.950695
44.726723 -5.277926 8.754317
13.767168 -1.627015 -0.726528
5.035018 -0.603955 -1.358800
5.676672 -0.682932 -1.320013
44.993378 -5.412928 2.375006
6.471206 -0.779664 -1.266972
45.119160 -5.444038 3.976045
7.483601 -0.904290 -1.193908
44.881062 -5.431205 5.550905
8.897591 -1.078303 -1.100480
44.782040 -5.427153 7.144676
10.799201 -1.310672 -0.951741
44.774292 -5.442073 8.767292
13.765369 -1.675544 -0.726737
5.040548 -0.622474 -1.360871
5.658904 -0.699839 -1.316414
44.994030 -5.572406 2.376053
6.456755 -0.800798 -1.264682
7.496243 -0.931049 -1.196411
8.882147 -1.106330 -1.099018
44.606014 -5.563879 7.119646
10.770837 -1.345397 -0.949649
44.463779 -5.554019 8.710050
13.743883 -1.719199 -0.725900
5.030790 -0.638213 -1.358800
5.664158 -0.720572 -1.318213
44.962418 -5.727917 2.375425
6.461854 -0.823198 -1.266209
7.496866 -0.957711 -1.197037
44.528008 -5.696270 5.511907
8.890044 -1.138841 -1.100480
44.449165 -5.701954 7.097745
10.797935 -1.385163 -0.952438
44.346760 -5.696686 8.690969
13.717989 -1.764616 -0.724853
44.281723 -5.704044 10.307707
5.043857 -0.657768 -1.362941
5.661609 -0.740339 -1.318213
44.954029 -5.886385 2.376053
6.458941 -0.845749 -1.266209
45.060707 -5.908353 3.976045
7.489560 -0.983360 -1.196411
8.862398 -1.166757 -1.097555
44.272316 -5.836422 7.072716
10.777231 -1.420763 -0.951043
44.202038 -5.835006 8.666545
13.711746 -1.812490 -0.724853
44.137901 -5.842216 10.278913
5.026212 -0.673319 -1.358800
5.666716 -0.761135 -1.320013
44.942181 -6.036489 2.376471
6.440383 -0.866196 -1.263156
45.067451 -6.069331 3.978485
7.497828 -1.011081 -1.198288
44.290432 -5.980430 5.487534
8.870074 -1.199281 -1.099018
44.139179 -5.967851 7.054569
10.736667 -1.453562 -0.947906
44.064674 -5.973441 8.643648
13.693460 -1.858730 -0.724225
44.047722 -5.986802 10.262717
5.039142 -0.692965 -1.362941
5.660300 -0.779391 -1.319113
44.936668 -6.195513 2.377309
6.445100 -0.889746 -1.264682
45.073620 -6.230429 3.980926
7.463126 -1.031612 -1.193282
44.172035 -6.113661 5.475346
8.862116 -1.228144 -1.098530
10.743368 -1.492677 -0.948952
43.927944 -6.103321 8.620750
13.699091 -1.905780 -0.724853
5.029164 -0.708593 -1.360871
5.645967 -0.797509 -1.316414
44.887081 -6.348418 2.375843
6.438068 -0.911688 -1.263919
7.463391 -1.058211 -1.193908
44.052162 -6.253864 5.463160
8.857775 -1.259071 -1.098530
44.198139 -6.290326 7.070838
10.745983 -1.531293 -0.949649
43.823654 -6.252637 8.604723
13.656425 -1.950893 -0.722969
5.026534 -0.727021 -1.360871
5.639149 -0.817638 -1.315514
44.831886 -6.508304 2.374169
6.430797 -0.934713 -1.263156
7.490739 -1.090110 -1.198914
43.970009 -6.406694 5.455847
8.860958 -1.292674 -1.099505
44.100510 -6.441429 7.058949
10.720584 -1.567786 -0.947906
43.812099 -6.414923 8.607013
13.672896 -2.004409 -0.724225
5.016192 -0.744305 -1.358800
44.912193 -6.672109 0.792549
5.647679 -0.840021 -1.318213
44.848404 -6.670633 2.376262
6.431379 -0.957734 -1.263919
