# This PCD file was generated using the MATLAB® pcwrite function
# from Computer Vision Toolbox®.
# .PCD v.7 - Point Cloud Data file format
VERSION .7
FIELDS x y z
SIZE 4 4 4
TYPE F F F
COUNT 1 1 1
WIDTH 1687
HEIGHT 1
VIEWPOINT 0 0 0 1 0 0 0
POINTS 1687
DATA ascii
9.322877 7.797904 0.212151
4.804949 4.017559 -1.445985
9.331093 7.799242 0.637347
5.520809 4.614479 -1.398630
9.334164 7.799042 1.064172
6.044705 5.048781 -1.247409
9.334688 7.793949 1.493143
7.191775 6.002605 -1.150203
9.376651 7.823425 1.934156
9.188157 7.666155 -1.046915
9.347600 7.796428 2.366032
9.323739 7.773768 -0.636196
9.360537 7.801672 2.813238
9.345511 7.786392 -0.212326
9.397897 7.827260 3.277167
4.218570 3.504812 -1.469575
9.393112 7.801089 0.213129
4.809947 3.993295 -1.443286
9.373632 7.779377 0.638394
5.524798 4.585147 -1.395577
9.387400 7.788036 1.067135
6.072935 5.036479 -1.249599
9.404629 7.796789 1.499968
7.218799 5.982529 -1.151178
9.455620 7.833496 1.944793
9.207188 7.627682 -1.046043
9.421634 7.802567 2.377862
9.404667 7.785750 -0.639859
9.435753 7.808710 2.827635
9.408074 7.783038 -0.213129
9.443027 7.809178 3.283379
4.233757 3.492524 -1.470610
9.454228 7.796240 0.213897
4.823855 3.976481 -1.443286
9.440804 7.779634 0.641116
5.546829 4.570829 -1.397104
9.457584 7.790691 1.072016
6.099627 5.022785 -1.251476
9.477765 7.801764 1.507280
7.233505 5.952250 -1.150203
9.528672 7.838091 1.954180
9.216829 7.581575 -1.044126
9.485209 7.799555 2.387021
9.470359 7.784583 -0.642476
9.499091 7.805416 2.838433
9.481544 7.788225 -0.214176
9.515018 7.812948 3.298908
4.245924 3.477724 -1.470610
9.521615 7.796127 0.214804
4.818101 3.943574 -1.437437
9.517368 7.787102 0.644465
5.565790 4.553924 -1.397867
9.527906 7.792949 1.076896
6.149237 5.027722 -1.258046
9.538757 7.796268 1.512642
7.260389 5.931987 -1.151178
9.604931 7.844770 1.964191
9.238606 7.545578 -1.043603
9.545831 7.793716 2.395416
9.525328 7.774206 -0.644360
9.567043 7.805479 2.850580
9.542764 7.782888 -0.214944
9.578170 7.808982 3.311331
4.258037 3.462882 -1.470610
9.599974 7.804471 0.215956
4.827302 3.923043 -1.436087
9.575496 7.779023 0.646558
5.590794 4.541897 -1.400156
9.598355 7.794813 1.081777
6.195889 5.029880 -1.263991
9.604450 7.794193 1.518736
7.268717 5.896604 -1.149228
9.678286 7.848518 1.973577
9.257154 7.507006 -1.042731
9.627883 7.804852 2.409154
9.589646 7.771091 -0.646872
9.638145 7.807606 2.863627
9.607172 7.779730 -0.215782
9.650414 7.811968 3.326860
4.265589 3.444358 -1.469057
9.672284 7.807335 0.216968
4.851584 3.914733 -1.439237
9.638546 7.777324 0.649071
5.585220 4.505099 -1.394814
9.672037 7.798776 1.087006
6.238019 5.028055 -1.268997
9.685695 7.804218 1.527267
7.273798 5.858741 -1.146791
9.744260 7.848596 1.981712
9.266232 7.460898 -1.040814
9.694827 7.803209 2.419076
9.671179 7.781387 -0.650536
9.713935 7.812995 2.878024
9.676547 7.782924 -0.216759
9.709387 7.806556 3.338248
4.270051 3.423404 -1.466469
9.746485 7.813996 0.218050
4.870619 3.903502 -1.441036
9.720187 7.787340 0.652734
5.600913 4.485574 -1.394814
9.736532 7.794849 1.091190
6.276248 5.024622 -1.273377
9.751820 7.804303 1.533604
7.277683 5.822188 -1.144353
9.811710 7.846609 1.989847
9.287551 7.424778 -1.040291
9.768190 7.809018 2.430907
9.735935 7.780447 -0.653153
9.773289 7.807496 2.887922
9.758344 7.792776 -0.217981
9.774325 7.802744 3.351189
4.275335 3.404410 -1.464398
9.794040 7.796119 0.218504
4.882691 3.885262 -1.440587
9.795769 7.791903 0.655979
5.606539 4.459641 -1.392524
9.805986 7.797246 1.096071
6.296838 5.005147 -1.274002
9.828738 7.809730 1.541404
7.313506 5.809098 -1.146791
9.888539 7.851626 1.999858
9.298076 7.382790 -1.038722
9.836910 7.807826 2.441211
9.820927 7.792345 -0.657026
9.849335 7.812092 2.902318
9.807425 7.776055 -0.218469
9.843895 7.802175 3.365683
4.305376 3.403846 -1.470610
9.869831 7.800319 0.219586
4.876346 3.852488 -1.434738
5.625151 4.442481 -1.393287
9.880061 7.800003 1.101300
6.348387 5.010057 -1.280886
9.888663 7.801201 1.546522
7.315036 5.768781 -1.143866
9.315969 7.344119 -1.037851
9.910359 7.809903 2.452659
9.868462 7.774086 -0.658386
9.891068 7.786309 -0.219726
9.913576 7.801218 3.380177
4.308115 3.381639 -1.467504
9.955209 7.811490 0.220878
4.895896 3.840255 -1.436537
9.926938 7.783719 0.661108
5.637535 4.420394 -1.392524
9.957409 7.804797 1.106878
6.392269 5.008580 -1.286204
9.948653 7.792337 1.551641
7.335130 5.743209 -1.143866
9.333701 7.305417 -1.036979
9.941163 7.775271 -0.661422
9.962306 7.786212 -0.220703
4.321417 3.367767 -1.468022
10.021848 7.807423 0.221750
4.909272 3.823140 -1.436537
9.995026 7.780915 0.663829
5.640538 4.391039 -1.389471
9.990876 7.774892 1.107575
6.436221 5.006854 -1.291523
7.336321 5.702955 -1.140941
9.363867 7.276457 -1.037502
10.020300 7.780949 -0.664876
10.030502 7.783261 -0.221611
4.322451 3.344387 -1.464398
4.924129 3.807174 -1.436987
5.652724 4.368923 -1.388708
6.481801 5.006089 -1.297155
7.356185 5.677310 -1.140941
9.362394 7.223035 -1.034539
4.327971 3.324570 -1.462328
4.929658 3.784030 -1.434738
5.674171 4.353944 -1.390234
6.507072 4.989444 -1.298719
7.375957 5.651598 -1.140941
9.382803 7.186677 -1.034016
12.255149 9.379941 -0.808800
4.339549 3.309443 -1.462328
4.931988 3.758530 -1.431589
5.698704 4.341250 -1.392524
6.541738 4.979863 -1.302161
7.392481 5.623412 -1.140453
9.393558 7.143030 -1.032447
12.278273 9.329858 -0.808172
4.347994 3.291944 -1.461292
4.941969 3.738941 -1.430689
5.702863 4.313041 -1.389853
6.592175 4.982010 -1.308731
7.399394 5.588000 -1.138503
9.415252 7.107798 -1.032098
28.974257 21.841599 -0.633348
4.359459 3.276746 -1.461292
4.956549 3.722836 -1.431139
5.705323 4.283678 -1.386800
6.637968 4.980306 -1.314363
7.412500 5.557376 -1.137529
9.435224 7.071302 -1.031575
12.295150 9.207994 -0.805032
28.931845 21.651669 -0.630765
4.372418 3.262665 -1.461810
4.978887 3.712502 -1.433838
48.620289 36.240471 3.178049
5.720240 4.263738 -1.386800
6.677492 4.973623 -1.318743
7.435040 5.533836 -1.138016
9.440670 7.024050 -1.029484
12.340041 9.174550 -0.805869
28.769674 21.374054 -0.625599
4.366705 3.234732 -1.456116
4.988684 3.692780 -1.432938
48.826782 36.129921 3.183282
5.722465 4.234401 -1.383747
6.690047 4.946762 -1.317804
7.447922 5.503136 -1.137041
9.460322 6.987504 -1.028961
13.329738 9.838310 -0.868254
28.663870 21.140556 -0.621690
4.387308 3.226337 -1.459222
4.992123 3.668418 -1.430239
49.113556 36.077511 3.193750
5.746703 4.221375 -1.386037
6.720014 4.932728 -1.320307
7.457484 5.470058 -1.135579
9.475017 6.947367 -1.027915
13.367218 9.794085 -0.868463
28.653585 20.978949 -0.619875
4.401664 3.213280 -1.460257
4.992300 3.641786 -1.426640
5.751887 4.194347 -1.383747
6.746767 4.916226 -1.322184
7.470115 5.439318 -1.134604
9.500815 6.915430 -1.028089
13.401327 9.747360 -0.868463
28.713287 20.876766 -0.619665
4.409727 3.195628 -1.459222
5.016975 3.634355 -1.430239
5.776036 4.181150 -1.386037
6.740630 4.877612 -1.317804
7.484895 5.412187 -1.134116
9.507134 6.869385 -1.026172
13.521011 9.766013 -0.874115
28.750319 20.750654 -0.618897
4.420297 3.180990 -1.459222
5.016975 3.607718 -1.426640
5.777113 4.152809 -1.382984
43.232594 31.065794 4.657603
6.773660 4.865575 -1.320933
7.484385 5.372141 -1.131191
9.521770 6.832010 -1.025300
13.642662 9.781610 -0.879768
28.825834 20.652494 -0.618967
4.420371 3.157679 -1.455598
15.185034 10.843383 0.325697
5.039053 3.596977 -1.429339
15.162183 10.819076 0.976170
5.778790 4.123494 -1.379931
6.774518 4.830434 -1.317804
7.509562 5.350589 -1.132166
9.539067 6.794110 -1.024603
13.719034 9.764036 -0.882489
15.199306 10.809576 -0.325557
4.426639 3.138876 -1.454045
15.177110 10.757934 0.324719
5.030908 3.564721 -1.423490
15.170523 10.745301 0.974286
5.802763 4.110104 -1.382221
43.692329 30.935917 4.683750
6.784887 4.802194 -1.316553
7.524949 5.322052 -1.131679
9.559470 6.758473 -1.024254
13.753032 9.716091 -0.882489
15.191205 10.724159 -0.324580
4.450206 3.132301 -1.458187
15.240740 10.723299 0.325278
5.048103 3.550499 -1.424840
15.201402 10.687690 0.973868
5.804224 4.080791 -1.379167
6.795144 4.773936 -1.315301
7.546732 5.298032 -1.132166
9.578113 6.721627 -1.023731
13.731266 9.629032 -0.878930
15.284225 10.710087 -0.325767
4.459529 3.115643 -1.457669
15.346937 10.718117 0.326744
5.058867 3.531742 -1.424390
15.291024 10.671141 0.977217
5.818433 4.060507 -1.379167
6.811765 4.750189 -1.315301
7.552151 5.262576 -1.130216
24.896982 17.342560 4.805667
9.581897 6.674489 -1.021640
13.722176 9.551373 -0.876209
15.354353 10.679502 -0.326465
4.452914 3.087948 -1.451975
15.417126 10.687270 0.327442
5.071165 3.514061 -1.424390
15.354447 10.635900 0.978892
5.819659 4.031230 -1.376115
6.831556 4.728630 -1.315927
7.560678 5.229408 -1.128754
25.048361 17.318451 4.823188
9.600223 6.637600 -1.021117
13.765292 9.510230 -0.876837
15.460651 10.673559 -0.327931
4.466850 3.074576 -1.453010
15.515288 10.675332 0.328734
5.093034 3.502965 -1.427089
15.473772 10.638811 0.984125
5.840168 4.015339 -1.377641
6.831737 4.693570 -1.312798
7.572341 5.198488 -1.127779
9.615118 6.598413 -1.020245
13.732519 9.416937 -0.872650
15.550600 10.655700 -0.329048
4.471175 3.054605 -1.450940
5.090746 3.475276 -1.423040
15.560309 10.618502 0.987266
5.850906 3.992714 -1.376878
6.854609 4.674144 -1.314050
7.583876 5.167558 -1.126804
9.641389 6.567051 -1.020594
13.748790 9.357716 -0.871603
4.481810 3.038980 -1.450940
5.091552 3.449834 -1.419891
5.874560 3.978873 -1.379167
6.857797 4.641329 -1.311547
7.592003 5.134380 -1.125342
9.647748 6.522194 -1.018851
13.804542 9.325315 -0.873069
4.502007 3.029787 -1.454045
5.120751 3.444894 -1.424840
5.878638 3.951770 -1.376878
6.876429 4.620768 -1.312172
7.592509 5.098108 -1.122904
9.667143 6.486264 -1.018502
13.822123 9.270582 -0.872231
4.500785 3.007329 -1.450422
5.124641 3.421589 -1.422590
5.872114 3.919176 -1.372298
6.902376 4.603313 -1.314050
7.623475 5.080378 -1.124854
9.660412 6.435390 -1.015539
49.232090 32.784100 11.497388
13.777923 9.171365 -0.867416
28.636492 19.047668 -0.600328
4.508035 2.989465 -1.449387
5.144676 3.409061 -1.424840
5.902125 3.909497 -1.376115
6.898636 4.566106 -1.310295
7.641159 5.053742 -1.124854
9.669522 6.392837 -1.014144
13.823178 9.132031 -0.868254
28.642731 18.907923 -0.599071
4.511989 2.969462 -1.447316
5.140260 3.380378 -1.420341
5.909175 3.884556 -1.374588
6.917832 4.544172 -1.310921
7.658754 5.027036 -1.124854
9.689555 6.355171 -1.013796
13.748075 9.013636 -0.861555
28.604847 18.739893 -0.596907
4.529312 2.957130 -1.449387
5.142238 3.356023 -1.417642
5.933239 3.869308 -1.376878
49.430927 32.223637 5.162409
6.937755 4.520938 -1.311547
7.676254 5.000273 -1.124854
9.715021 6.323480 -1.014144
13.777668 8.961009 -0.861345
19.630320 12.762692 -0.408700
4.541228 2.942351 -1.449904
5.151232 3.335036 -1.416742
43.488270 28.155388 2.715085
5.923635 3.833638 -1.371535
49.375835 31.942659 5.144978
6.940220 4.488116 -1.309044
7.687861 4.967793 -1.123879
9.723645 6.280883 -1.012750
13.872634 8.954018 -0.865323
19.644503 12.674583 -0.408072
4.548220 2.924393 -1.448869
19.383488 12.463101 0.402243
5.170460 3.323202 -1.418991
43.517395 27.959139 2.710793
5.930373 3.808695 -1.370009
49.406551 31.718458 5.136611
6.961715 4.469344 -1.310295
7.721003 4.952988 -1.126317
9.737122 6.241529 -1.011878
14.019968 8.983389 -0.872650
28.573845 18.294836 -0.592230
4.559521 2.910335 -1.449387
19.435301 12.400746 0.402418
5.178744 3.303036 -1.418091
43.638294 27.822105 2.712259
5.936347 3.784788 -1.368482
49.343452 31.447351 5.119180
6.950619 4.428032 -1.305289
7.724847 4.917480 -1.124367
9.752725 6.205994 -1.011355
14.165847 9.007270 -0.879768
28.495762 18.104897 -0.589298
4.561493 2.889231 -1.446798
19.576466 12.394870 0.404442
5.180361 3.278687 -1.415392
43.792545 27.705904 2.715818
5.956161 3.768240 -1.370009
6.956014 4.397411 -1.303412
7.748678 4.894728 -1.125342
9.764219 6.165532 -1.010309
13.291822 8.386519 -0.823663
28.413305 17.913607 -0.586296
4.568280 2.871234 -1.445763
19.648394 12.344546 0.405035
5.188475 3.258510 -1.414492
5.965953 3.745337 -1.369245
49.268135 30.917850 5.088850
6.981363 4.379400 -1.305289
7.755623 4.861326 -1.123879
9.785683 6.131409 -1.010309
13.341328 8.352793 -0.824919
28.431587 17.786734 -0.585389
4.589748 2.862427 -1.449387
19.759249 12.318198 0.406432
5.193202 3.236258 -1.412693
5.975657 3.722414 -1.368482
49.226933 30.652994 5.073510
6.996607 4.355005 -1.305289
7.802888 4.853093 -1.128266
9.803639 6.095110 -1.009961
14.059199 8.734071 -0.867416
19.742083 12.254930 -0.405594
4.584928 2.837238 -1.444728
28.846066 17.843536 0.592055
5.207781 3.220161 -1.413592
5.978595 3.695338 -1.366192
49.184467 30.388826 5.058171
7.018487 4.334709 -1.306541
7.850190 4.844590 -1.132654
9.807899 6.050394 -1.008218
13.963788 8.607384 -0.859671
19.806877 12.199570 -0.406048
4.591509 2.819198 -1.443693
5.220651 3.202980 -1.414042
6.001497 3.680608 -1.368482
49.205326 30.164877 5.049455
6.993154 4.285411 -1.299032
7.904297 4.839965 -1.138016
9.815366 6.007798 -1.006823
13.997155 8.560677 -0.859880
28.507092 17.421284 -0.583155
4.612872 2.810188 -1.447316
5.225141 3.180685 -1.412243
6.004246 3.653512 -1.366192
49.140106 29.889385 5.032024
7.024948 4.271238 -1.302161
7.955075 4.832957 -1.142891
9.826058 5.967296 -1.005777
14.207947 8.621591 -0.870975
28.509581 17.286440 -0.581968
4.607774 2.785074 -1.442657
5.229540 3.158396 -1.410443
6.023686 3.636588 -1.367719
49.134941 29.651819 5.020868
7.029667 4.240566 -1.300283
8.002496 4.823610 -1.147278
9.853655 5.937070 -1.006474
14.237948 8.571953 -0.870975
28.470367 17.127022 -0.579943
4.622437 2.771954 -1.444210
5.242206 3.141123 -1.410893
6.022869 3.607471 -1.364666
49.091145 29.392096 5.005877
7.020698 4.201798 -1.295903
8.063581 4.822134 -1.153615
48.882210 29.220631 9.020013
9.852090 5.889347 -1.004208
14.202628 8.483278 -0.866997
28.464724 16.988598 -0.578617
4.632086 2.755801 -1.444210
5.256486 3.124800 -1.411793
6.037113 3.587426 -1.365048
49.022141 29.118814 4.988446
7.069290 4.197441 -1.302161
8.124755 4.820291 -1.159953
48.800392 28.941034 8.986222
9.869156 5.852895 -1.003860
14.122191 8.368483 -0.860299
28.386204 16.807623 -0.575825
4.640013 2.738634 -1.443693
5.264006 3.104451 -1.410893
6.032686 3.556362 -1.361231
49.037663 28.896931 4.979730
7.060071 4.158701 -1.297781
8.172325 4.810028 -1.164340
48.775135 28.696371 8.963070
9.882659 5.814365 -1.003163
14.123765 8.302943 -0.858624
28.358492 16.657785 -0.574079
4.644542 2.719493 -1.442140
5.257989 3.076217 -1.406394
6.065399 3.547177 -1.365811
48.966240 28.625017 4.962299
7.077955 4.136026 -1.298406
8.230207 4.805491 -1.170189
48.769222 28.464214 8.943672
9.901172 5.778831 -1.002988
14.076750 8.209317 -0.854018
28.416462 16.558699 -0.574079
4.660690 2.707144 -1.444210
5.272067 3.059800 -1.407294
6.064159 3.518100 -1.362758
49.003807 28.417944 4.956024
7.068424 4.097423 -1.294026
8.281286 4.796633 -1.175064
48.755466 28.228468 8.923022
9.910940 5.738242 -1.001942
14.074202 8.142131 -0.852134
28.474087 16.459412 -0.574079
4.658394 2.684109 -1.440587
5.289472 3.045266 -1.409093
6.069596 3.492995 -1.361231
48.992172 28.183146 4.944868
7.096384 4.080600 -1.296529
8.335848 4.789452 -1.180427
48.720100 27.981356 8.898619
9.930911 5.703609 -1.001942
14.071357 8.075055 -0.850250
4.668947 2.669604 -1.441105
5.292771 3.023846 -1.407294
6.074327 3.468952 -1.359705
48.867344 27.896055 4.922905
7.103012 4.053134 -1.295278
8.399968 4.789315 -1.187251
48.673912 27.751854 8.874216
9.935922 5.662755 -1.000548
14.087643 8.022421 -0.849622
28.408836 16.171276 -0.570589
4.669834 2.648525 -1.438516
5.312942 3.012043 -1.409993
6.082982 3.445793 -1.358942
48.836124 27.652672 4.910006
7.102662 4.021769 -1.292775
8.443449 4.777071 -1.191151
48.615730 27.494274 8.846058
9.938282 5.618234 -0.998805
14.075916 7.954040 -0.847319
4.692060 2.640604 -1.442657
5.301342 2.981060 -1.404144
6.087531 3.421753 -1.357415
48.861542 27.453497 4.903382
7.120104 3.998884 -1.293400
8.501617 4.770890 -1.197001
48.611485 27.268339 8.827910
9.967285 5.591093 -0.999851
14.075714 7.889243 -0.845644
4.697875 2.622327 -1.441622
5.306611 2.959688 -1.402795
6.109726 3.406220 -1.359705
48.737793 27.160553 4.881419
7.137471 3.975927 -1.294026
8.504344 4.733459 -1.195051
48.582096 27.029325 8.805384
9.967591 5.545608 -0.997933
14.050799 7.810945 -0.842504
4.701931 2.603104 -1.440069
5.327138 2.946809 -1.405494
6.111270 3.379171 -1.357415
48.769535 26.955551 4.875144
7.140929 3.945261 -1.292149
8.524292 4.705661 -1.195538
48.530849 26.779446 8.779103
9.994826 5.512889 -0.998630
14.060490 7.752203 -0.841458
4.704665 2.582136 -1.437999
5.330559 2.924446 -1.403695
6.127058 3.358638 -1.358178
48.693272 26.680893 4.857712
7.169200 3.926655 -1.294652
8.530217 4.670159 -1.194076
48.509670 26.547276 8.758454
10.003524 5.472228 -0.997585
14.064272 7.687211 -0.839992
4.706863 2.562003 -1.435928
5.354938 2.912338 -1.407294
6.135295 3.335353 -1.357415
48.698574 26.463202 4.848997
7.165507 3.892175 -1.291523
8.547276 4.638865 -1.194076
48.504818 26.325027 8.740933
10.001546 5.425881 -0.995493
14.076970 7.630458 -0.839155
4.712376 2.543725 -1.434893
5.343986 2.883459 -1.401895
6.150354 3.315784 -1.358178
48.702961 26.245779 4.840281
7.185330 3.872138 -1.292775
8.552124 4.604850 -1.192613
48.467697 26.086262 8.717781
10.027444 5.394710 -0.996190
14.067018 7.564813 -0.837061
4.741222 2.539027 -1.441105
5.350583 2.862947 -1.400995
6.137080 3.282406 -1.352836
48.684299 26.027781 4.829823
7.198804 3.847031 -1.292775
8.568147 4.574967 -1.192613
48.432991 25.849937 8.695254
10.038249 5.357673 -0.995493
14.058089 7.496870 -0.834968
4.741526 2.517930 -1.438516
5.363985 2.846083 -1.401895
6.158907 3.266481 -1.355126
48.591789 25.760612 4.811694
7.184261 3.807082 -1.287769
8.594592 4.550602 -1.194076
48.404205 25.617891 8.673979
10.049845 5.318874 -0.994796
14.066520 7.438413 -0.833921
4.740030 2.495964 -1.435410
5.366989 2.823711 -1.400095
6.152895 3.235825 -1.351309
48.617920 25.557474 4.805419
7.228982 3.798522 -1.293400
8.592848 4.511349 -1.191639
48.377880 25.388201 8.653330
10.071037 5.282927 -0.994970
14.046407 7.365154 -0.831200
4.745721 2.476785 -1.434375
5.383723 2.808566 -1.401895
6.171679 3.216880 -1.352836
48.584045 25.312838 4.792869
7.218328 3.759225 -1.289020
8.605022 4.479490 -1.191151
48.361065 25.164476 8.634558
10.071741 5.238549 -0.993227
14.052038 7.302573 -0.829944
4.754337 2.460206 -1.434375
5.383595 2.783443 -1.399196
6.182869 3.195319 -1.352836
48.516335 25.062609 4.777529
7.224385 3.730381 -1.287769
8.621382 4.447924 -1.191151
48.333591 24.925476 8.613282
10.098818 5.207927 -0.994098
14.045488 7.237008 -0.828060
4.768053 2.446239 -1.435928
5.382873 2.759301 -1.396496
6.193986 3.173716 -1.352836
48.536148 24.858576 4.770905
7.242636 3.707843 -1.288707
8.640391 4.419608 -1.191639
48.272552 24.681080 8.587002
10.116934 5.172647 -0.994098
14.045766 7.175211 -0.826594
4.774840 2.428708 -1.435410
5.399422 2.744025 -1.398296
6.184022 3.141407 -1.348256
48.512474 24.633085 4.760098
7.243206 3.676279 -1.286517
8.647917 4.387340 -1.190664
48.259007 24.472610 8.570107
10.113604 5.126488 -0.992007
14.052907 7.117118 -0.825547
4.769069 2.405899 -1.431269
5.411973 2.727858 -1.399196
6.190898 3.119117 -1.347493
48.408821 24.378885 4.741970
7.308291 3.678883 -1.295903
8.665964 4.360425 -1.191151
48.262241 24.273399 8.556340
10.107409 5.081285 -0.989741
14.072860 7.068687 -0.825338
4.778749 2.390936 -1.431787
5.424475 2.711640 -1.400095
50.497509 25.232204 2.958447
6.197695 3.096816 -1.346730
48.428806 24.187943 4.736043
7.285103 3.636982 -1.289646
8.674028 4.326602 -1.190176
48.198189 24.030733 8.530060
10.125985 5.048631 -0.989915
14.049744 6.998823 -0.822617
4.785335 2.373381 -1.431269
5.418191 2.684902 -1.396046
6.219023 3.080390 -1.349020
48.441528 23.983374 4.729071
7.262344 3.594009 -1.283388
8.685519 4.294536 -1.189689
48.210930 23.827343 8.517545
10.132829 5.007959 -0.988869
14.063345 6.944428 -0.821989
4.802260 2.360923 -1.433858
5.418785 2.661675 -1.393797
6.222689 3.055200 -1.347493
48.381847 23.743946 4.715126
7.285487 3.573855 -1.285266
8.679065 4.253714 -1.186764
48.187386 23.606756 8.498773
10.141303 4.968173 -0.987997
14.040854 6.872476 -0.819267
4.805261 2.341607 -1.432305
5.431547 2.644451 -1.394697
6.233315 3.033462 -1.347493
48.346188 23.517382 4.703621
7.305025 3.551855 -1.286517
8.697433 4.225124 -1.187251
48.141556 23.376268 8.476246
10.146039 4.926649 -0.986777
14.043198 6.812958 -0.818011
4.799489 2.318097 -1.428164
5.447764 2.628864 -1.396496
6.240331 3.009977 -1.346730
48.331070 23.301767 4.694208
7.313817 3.524623 -1.285891
8.712127 4.194741 -1.187251
48.108929 23.153288 8.456223
10.155990 4.887753 -0.986080
14.048895 6.755237 -0.816964
48.007874 23.073704 12.297174
27.778091 13.344816 -0.537918
4.800581 2.297994 -1.426093
5.449877 2.606467 -1.394697
6.257884 2.991565 -1.348256
48.268299 23.064184 4.680263
7.297556 3.485449 -1.280886
8.723134 4.162592 -1.186764
48.064655 22.925674 8.434322
10.155008 4.843692 -0.984337
14.061570 6.701004 -0.816336
47.940338 22.835575 12.259382
4.822537 2.287848 -1.430234
5.455419 2.585760 -1.393797
6.261190 2.966341 -1.346730
48.233276 22.840969 4.669107
7.327532 3.468407 -1.284014
8.737612 4.132115 -1.186764
48.044373 22.710493 8.416800
10.179059 4.811624 -0.985034
14.048758 6.634817 -0.814243
47.921066 22.621519 12.234188
4.816507 2.264423 -1.426093
5.453830 2.561729 -1.391097
6.264399 2.941128 -1.345204
48.211708 22.625074 4.659346
7.332443 3.439451 -1.282763
8.730412 4.091483 -1.183839
48.037502 22.502415 8.401784
10.193989 4.775214 -0.984860
14.039269 6.570501 -0.812359
47.936203 22.424366 12.217992
4.842287 2.254911 -1.431269
5.473783 2.546655 -1.393797
6.257334 2.909871 -1.341387
48.222042 22.414612 4.652373
7.348582 3.414219 -1.283388
8.748242 4.062654 -1.184326
47.997505 22.279692 8.381134
10.243953 4.752915 -0.987997
14.056010 6.515637 -0.811940
47.837387 22.174931 12.173001
4.828691 2.229123 -1.425058
5.475120 2.525224 -1.391997
6.281213 2.895679 -1.344440
48.151325 22.187906 4.638428
7.345510 3.383218 -1.280886
8.743635 4.025321 -1.181889
48.006500 22.090706 8.369870
10.263279 4.720582 -0.988346
14.030354 6.447310 -0.809219
47.822121 21.975500 12.150507
4.836056 2.213099 -1.425058
5.487008 2.508675 -1.392897
6.283639 2.871568 -1.342914
48.152157 21.994984 4.631456
7.327937 3.345716 -1.275880
8.786529 4.007959 -1.185789
47.957512 21.865622 8.347970
10.275249 4.684870 -0.987997
14.044385 6.397439 -0.808800
47.809849 21.768070 12.128011
4.843751 2.196206 -1.425058
5.492182 2.487897 -1.391997
6.297200 2.851240 -1.343677
48.163300 21.797180 4.625181
7.346771 3.323371 -1.277131
8.789613 3.972356 -1.184326
10.284279 4.645690 -0.987300
14.048427 6.340157 -0.807753
47.768314 21.548149 12.098317
4.858438 2.182450 -1.427128
5.500832 2.468712 -1.391997
6.296367 2.824419 -1.341387
48.122749 21.576744 4.614025
7.333090 3.286397 -1.272751
8.788932 3.935159 -1.182377
10.296795 4.608138 -0.986952
14.048594 6.281294 -0.806497
47.754276 21.341532 12.075823
4.858965 2.162337 -1.425058
5.505856 2.447911 -1.391097
6.291835 2.796046 -1.338334
48.070297 21.352051 4.601823
7.358961 3.267190 -1.275254
8.802612 3.904462 -1.182377
10.356532 4.591546 -0.991135
14.055822 6.225756 -0.805660
47.693062 21.114738 12.041630
4.870020 2.146920 -1.426093
5.510798 2.427109 -1.390198
6.305151 2.775647 -1.339098
48.089832 21.160038 4.596594
7.370319 3.241488 -1.275254
8.794379 3.864126 -1.179452
10.412626 4.572999 -0.994970
14.044549 6.162206 -0.803776
47.684387 20.912115 12.020935
4.866863 2.125267 -1.422987
5.522810 2.409415 -1.391097
6.325600 2.758328 -1.341387
48.053814 20.944292 4.586135
7.359858 3.206271 -1.271500
8.833297 3.844497 -1.182864
10.472375 4.555696 -0.999153
14.051319 6.106778 -0.802938
47.660561 20.703644 11.996639
4.881342 2.111337 -1.425058
5.509721 2.380845 -1.385699
6.327978 2.733121 -1.339861
48.053463 20.744825 4.579163
7.363751 3.177429 -1.270248
8.813849 3.799492 -1.178477
10.558540 4.547227 -1.005777
14.057876 6.051371 -0.802101
47.682419 20.515574 11.984042
4.896153 2.096470 -1.427128
5.532330 2.367733 -1.389298
6.341566 2.711449 -1.340624
7.397146 3.159731 -1.274002
8.834363 3.771818 -1.179452
10.665979 4.549429 -1.014493
14.046885 5.985715 -0.800217
47.599518 20.273483 11.944451
4.896327 2.076350 -1.425058
5.537382 2.345921 -1.388398
6.332912 2.681642 -1.336808
7.415408 3.136967 -1.275254
8.837156 3.734779 -1.177989
10.729514 4.532325 -1.019025
14.045614 5.927324 -0.798961
47.594585 20.075384 11.925555
4.892858 2.054760 -1.421952
5.552319 2.330561 -1.390198
6.353097 2.664076 -1.339098
7.411195 3.106253 -1.272751
8.860477 3.710055 -1.179452
10.826144 4.528677 -1.026695
14.035708 5.868390 -0.797286
47.553017 19.872347 11.898561
4.892510 2.035553 -1.419881
37.661163 15.661426 0.711953
5.549623 2.306676 -1.387498
6.340141 2.633954 -1.334518
7.421994 3.080362 -1.272751
19.351692 8.027606 2.572418
8.855037 3.671503 -1.177014
10.877916 4.508005 -1.030181
14.037653 5.811724 -0.796239
47.528458 19.667496 11.875166
4.903158 2.019935 -1.420917
5.564849 2.290258 -1.389298
6.360190 2.616289 -1.336808
7.399812 3.040922 -1.267119
19.027035 7.815200 2.525620
8.897182 3.652631 -1.180914
10.937822 4.488161 -1.034364
14.028288 5.750564 -0.794565
47.557144 19.485229 11.865269
4.913757 2.004266 -1.421952
5.561982 2.266408 -1.386598
6.362011 2.591108 -1.335281
7.432338 3.024009 -1.270874
8.869420 3.605104 -1.175552
10.960804 4.452955 -1.035062
14.026069 5.692543 -0.793308
47.505684 19.270767 11.835575
4.935052 1.992892 -1.426093
5.559016 2.242604 -1.383899
6.371016 2.568889 -1.335281
7.442849 2.998044 -1.270874
8.874583 3.571160 -1.174577
19.881104 7.996186 3.394003
10.983677 4.417638 -1.035759
19.009996 7.641963 3.982566
14.034732 5.639083 -0.792681
47.482250 19.068501 11.813080
4.909691 1.962744 -1.416776
5.581288 2.228969 -1.387498
6.369004 2.542266 -1.332992
7.449598 2.970584 -1.270248
8.898061 3.544565 -1.176039
19.797401 7.886346 3.375230
10.991625 4.376325 -1.035062
14.028351 5.579721 -0.791215
19.649961 7.811723 4.881888
4.916513 1.945593 -1.416776
5.570527 2.203282 -1.382999
6.381492 2.521460 -1.333755
7.444709 2.940061 -1.267745
8.883914 3.504842 -1.172627
18.718529 7.380985 3.186883
10.988299 4.330623 -1.033319
14.028193 5.525853 -0.790168
4.937327 1.934916 -1.420917
5.578185 2.183822 -1.382999
6.397132 2.503144 -1.335281
7.469646 2.919807 -1.270248
8.903489 3.476700 -1.173602
18.858273 7.360123 3.206281
10.998886 4.292714 -1.032970
14.010179 5.462345 -0.788075
19.303213 7.522134 4.782909
4.944049 1.917673 -1.420917
37.213356 14.426635 0.696665
5.589408 2.165744 -1.383899
6.394845 2.476549 -1.332992
7.487162 2.896564 -1.271500
8.922978 3.448460 -1.174577
19.805195 7.650132 3.362715
11.010088 4.252855 -1.032621
14.021708 5.410527 -0.787656
4.947107 1.899017 -1.419881
5.589655 2.143430 -1.382099
6.392452 2.449994 -1.330702
7.519364 2.878889 -1.275254
8.920130 3.411616 -1.172627
19.924032 7.616223 3.378359
11.036032 4.218668 -1.033667
14.021852 5.354421 -0.786609
4.946481 1.878994 -1.417811
37.279510 14.153728 0.696037
5.611680 2.129435 -1.385699
6.404635 2.429059 -1.331465
7.503508 2.842824 -1.270874
19.689533 7.455777 2.585093
8.924556 3.377654 -1.171652
11.043237 4.177297 -1.032970
14.032979 5.302629 -0.786191
4.956628 1.863074 -1.418846
5.611781 2.107095 -1.383899
6.416752 2.408066 -1.332228
7.531881 2.823550 -1.274002
19.838127 7.432964 2.601180
8.943728 3.349263 -1.172627
11.020432 4.124758 -1.029484
19.572247 7.321661 4.061942
14.028957 5.245215 -0.784935
4.959479 1.844413 -1.417811
37.152481 13.809516 0.691848
5.600834 2.080708 -1.379400
50.396423 18.712221 2.817349
6.414077 2.381551 -1.329939
19.743860 7.326997 1.842472
7.500945 2.782130 -1.267119
19.644320 7.282247 2.572418
8.962810 3.320784 -1.173602
19.724833 7.304264 3.331429
11.042237 4.089029 -1.030181
19.490898 7.213767 4.039808
14.009715 5.182357 -0.782841
19.424242 7.181390 4.781110
19.760862 7.301923 -0.367722
4.976765 1.831093 -1.420917
19.768555 7.269495 0.367652
5.597088 2.057110 -1.376701
19.756372 7.257189 1.103033
6.429722 2.361856 -1.331465
19.773058 7.259402 1.842821
7.558827 2.773621 -1.275254
19.718075 7.231405 2.578756
8.963164 3.285376 -1.172139
11.041476 4.044979 -1.028786
19.884670 7.280694 4.116132
14.008964 5.126555 -0.781795
19.789984 7.234277 -0.367792
4.975865 1.811068 -1.418846
19.846426 7.219591 0.368630
5.611560 2.040225 -1.378500
19.804113 7.196362 1.104289
6.415786 2.331350 -1.326886
7.583317 2.752612 -1.277757
8.967114 3.251360 -1.171165
19.589622 7.099087 3.300142
11.029303 3.996911 -1.026346
19.297125 6.989268 3.989435
14.004240 5.069462 -0.780538
4.956709 1.784528 -1.411599
37.114426 13.354697 0.688497
5.622316 2.021942 -1.379400
6.438663 2.314257 -1.329939
7.585443 2.723453 -1.276505
19.854023 7.124422 2.589967
8.982145 3.221381 -1.171652
11.050690 3.961073 -1.027043
14.025610 5.021896 -0.780748
4.973828 1.771101 -1.414705
37.130676 13.214326 0.687939
5.633011 2.003611 -1.380300
6.435604 2.287821 -1.327649
7.580011 2.691671 -1.274002
9.008304 3.195314 -1.173602
11.068204 3.923808 -1.027392
19.345446 6.854387 3.989435
14.009167 4.960903 -0.778864
4.994558 1.758861 -1.418846
27.982870 9.848848 0.517813
5.625265 1.978761 -1.376701
6.450960 2.267945 -1.329176
7.574451 2.659957 -1.271500
8.996922 3.155971 -1.170677
19.877911 6.972842 3.336435
11.055511 3.875918 -1.024951
19.984386 7.002349 4.116132
13.992464 4.900099 -0.776980
5.000667 1.741417 -1.418846
27.943619 9.731001 0.516487
5.628114 1.958816 -1.375801
6.451418 2.242836 -1.327649
7.579498 2.633530 -1.270874
19.438774 6.750276 2.526595
8.981084 3.117004 -1.167265
11.068974 3.837300 -1.024951
14.012412 4.854975 -0.777189
4.984496 1.717274 -1.412634
27.939602 9.620372 0.515788
5.638603 1.940428 -1.376701
6.458820 2.221431 -1.327649
7.584908 2.605775 -1.270248
19.788900 6.794563 2.569006
9.014441 3.093365 -1.170189
11.074100 3.797990 -1.024254
20.031584 6.866167 4.116132
14.017939 4.802146 -0.776561
4.983146 1.697372 -1.410564
5.637963 1.918222 -1.374901
6.451666 2.193814 -1.324596
7.578994 2.574198 -1.267745
19.504221 6.620793 2.529033
9.017665 3.059331 -1.169215
11.087290 3.759314 -1.024254
13.992997 4.739093 -0.774258
4.996363 1.682434 -1.412634
5.663095 1.904741 -1.379400
6.463006 2.172533 -1.325359
7.580444 2.545210 -1.266494
9.020760 3.025312 -1.168240
11.070120 3.710455 -1.021465
14.001877 4.687686 -0.773839
4.998540 1.663762 -1.411599
5.636423 1.873896 -1.371302
6.481729 2.153672 -1.327649
7.581782 2.516246 -1.265242
9.031265 2.993803 -1.168240
11.071655 3.668033 -1.020419
13.987819 4.628739 -0.772165
5.004317 1.646305 -1.411599
5.642930 1.854211 -1.371302
6.481747 2.128581 -1.326123
20.134373 6.608170 1.853977
7.583010 2.487304 -1.263991
9.022797 2.956081 -1.165802
11.099540 3.634326 -1.021814
14.007686 4.581129 -0.772374
4.999010 1.625241 -1.408493
5.664195 1.839318 -1.374901
6.477933 2.102308 -1.323833
20.054976 6.504649 1.844564
7.580372 2.457167 -1.262113
9.029284 2.923342 -1.165315
11.115951 3.596783 -1.022163
14.034996 4.535886 -0.773002
4.993617 1.604237 -1.405388
5.670581 1.819534 -1.374901
6.481493 2.078486 -1.323070
7.592666 2.431894 -1.262739
9.028088 2.888179 -1.163852
11.120845 3.555534 -1.021465
14.031717 4.480794 -0.771955
4.995503 1.585629 -1.404352
5.665753 1.796194 -1.372201
6.496194 2.058222 -1.324596
7.578509 2.398222 -1.258985
9.038116 2.856645 -1.163852
11.106591 3.508289 -1.019025
14.009180 4.419765 -0.769862
5.026815 1.576272 -1.411599
5.657110 1.771747 -1.368602
6.507086 2.036704 -1.325359
7.586834 2.371755 -1.258985
9.066979 2.830997 -1.166290
11.141593 3.476623 -1.021117
14.016895 4.368456 -0.769443
5.039668 1.561003 -1.413670
5.670708 1.754292 -1.370402
6.499152 2.009337 -1.322306
7.587517 2.342925 -1.257733
9.031281 2.785292 -1.160440
11.142238 3.434186 -1.020071
14.070233 4.331264 -0.771537
5.026613 1.537749 -1.408493
5.669341 1.732213 -1.368602
6.509881 1.987786 -1.323070
7.599427 2.317583 -1.258359
9.056140 2.758374 -1.162390
11.138909 3.390627 -1.018676
14.081447 4.280957 -0.771327
5.035649 1.521310 -1.409528
5.686547 1.715789 -1.371302
6.501743 1.960514 -1.320017
7.603688 2.289900 -1.257733
9.065713 2.726748 -1.162390
11.154490 3.352879 -1.019025
14.115431 4.237524 -0.772374
5.033523 1.501518 -1.407458
5.688767 1.694814 -1.370402
6.519836 1.941173 -1.322306
7.604062 2.261091 -1.256482
9.082788 2.697344 -1.163365
11.158487 3.311652 -1.018328
14.160777 4.197303 -0.774049
5.046146 1.486120 -1.409528
5.679401 1.671537 -1.366803
6.522805 1.917294 -1.321543
7.607728 2.234746 -1.255856
9.084064 2.664976 -1.162390
11.158507 3.269322 -1.017282
14.212953 4.161549 -0.776142
5.039918 1.466139 -1.406423
5.700171 1.656055 -1.370402
6.506504 1.889082 -1.316964
7.611686 2.207082 -1.255230
9.043735 2.618892 -1.156053
11.173114 3.233411 -1.017630
14.365542 4.151834 -0.783679
5.056145 1.451737 -1.409528
5.698424 1.633998 -1.368602
6.520606 1.868523 -1.318490
7.619344 2.180496 -1.255230
9.068091 2.591674 -1.158003
11.169007 3.190010 -1.016236
14.449090 4.121389 -0.787447
5.046312 1.429867 -1.405388
5.689092 1.609853 -1.365003
6.523310 1.844684 -1.317727
7.649722 2.160331 -1.258985
9.065620 2.556769 -1.156540
11.168568 3.147763 -1.015190
14.482615 4.076334 -0.788494
5.062436 1.415363 -1.408493
5.713447 1.595224 -1.369502
6.525928 1.820845 -1.316964
7.634382 2.127250 -1.255230
9.085963 2.528303 -1.158003
11.179488 3.108755 -1.015190
14.489058 4.023621 -0.788075
27.091234 7.513070 -0.490727
5.060140 1.394747 -1.406423
5.711740 1.572205 -1.367702
6.543916 1.800036 -1.319253
7.638318 2.098210 -1.254605
9.114313 2.500233 -1.160440
11.179277 3.064601 -1.014144
14.484445 3.965212 -0.787028
46.632774 12.757305 11.161622
27.194447 7.439571 -0.492123
5.064978 1.377076 -1.406423
27.350822 7.436195 0.494741
5.705639 1.550188 -1.365003
6.553948 1.778212 -1.320017
7.641421 2.071833 -1.253979
9.088063 2.460659 -1.156053
11.174521 3.021397 -1.012750
14.497514 3.917161 -0.787028
5.065785 1.359270 -1.405388
27.403654 7.347920 0.495229
5.722310 1.533287 -1.367702
6.540845 1.751392 -1.316200
7.637157 2.042083 -1.252102
9.092761 2.427898 -1.155565
11.176780 2.982266 -1.012052
14.476359 3.857278 -0.785144
5.063029 1.339601 -1.403317
5.731394 1.514302 -1.368602
6.535530 1.725541 -1.313911
7.632777 2.012396 -1.250224
9.081985 2.391088 -1.153128
11.175559 2.940200 -1.011007
14.516781 3.813824 -0.786609
5.060196 1.319967 -1.401246
5.714016 1.488391 -1.363203
6.533914 1.700737 -1.312384
46.994789 12.223721 4.248320
7.647402 1.987726 -1.251476
9.124861 2.368349 -1.157515
11.197326 2.904170 -1.012052
14.479734 3.750111 -0.783888
5.072257 1.304224 -1.403317
5.715402 1.467465 -1.362304
6.555023 1.681827 -1.315437
7.654294 1.961017 -1.251476
9.090764 2.325657 -1.152153
11.164928 2.854207 -1.008218
14.496607 3.700528 -0.784097
5.088015 1.289356 -1.406423
5.724267 1.448463 -1.363203
6.572273 1.661821 -1.317727
46.982403 11.870912 4.239604
7.649601 1.931387 -1.249599
9.110376 2.296819 -1.153615
11.178687 2.816193 -1.008566
14.501689 3.647951 -0.783679
5.073741 1.266909 -1.401246
5.717944 1.425643 -1.360504
6.566605 1.636024 -1.315437
7.656297 1.904671 -1.249599
9.129896 2.267882 -1.155078
11.176848 2.774272 -1.007520
14.525964 3.600201 -0.784307
5.074381 1.248266 -1.400211
5.741810 1.410324 -1.365003
6.572276 1.613090 -1.315437
7.670573 1.879816 -1.250850
9.103049 2.227503 -1.150690
11.178722 2.733350 -1.006823
14.550085 3.552312 -0.784935
5.056177 1.225085 -1.393999
5.735091 1.388526 -1.362304
6.566417 1.587369 -1.313148
7.669084 1.852516 -1.249599
9.137403 2.203818 -1.154103
11.184320 2.693382 -1.006474
14.554018 3.502170 -0.784516
46.532856 11.188749 11.049147
5.067728 1.210107 -1.396070
5.720947 1.363977 -1.357805
6.583104 1.568317 -1.315437
7.679348 1.826647 -1.250224
9.114138 2.164572 -1.150203
11.174269 2.649725 -1.004731
46.748421 11.085329 9.338956
14.558380 3.449507 -0.784097
46.476810 11.003790 11.026650
5.083413 1.194177 -1.399176
5.744645 1.348453 -1.362304
6.588807 1.544179 -1.315437
7.670603 1.794889 -1.247721
9.121638 2.132746 -1.150203
11.183450 2.610705 -1.004731
46.666370 10.885381 9.314532
14.535914 3.387960 -0.782213
46.516827 10.833380 11.026650
5.072493 1.172945 -1.395035
5.749549 1.327388 -1.362304
6.567374 1.514994 -1.310095
7.676822 1.768101 -1.247721
9.133264 2.100187 -1.150690
11.192495 2.571649 -1.004731
14.559331 3.339882 -0.782841
5.072789 1.154372 -1.393999
5.746318 1.306587 -1.360504
6.576452 1.492928 -1.310858
7.694201 1.745257 -1.249599
9.147921 2.071644 -1.151665
11.193629 2.530809 -1.004034
14.558638 3.288945 -0.782213
27.296078 6.156451 -0.488423
5.072819 1.136698 -1.392964
5.769861 1.290776 -1.365003
6.569871 1.468540 -1.308568
7.677110 1.713227 -1.245844
9.147347 2.037970 -1.150690
11.190291 2.491081 -1.002988
14.589526 3.242435 -0.783260
27.395493 6.078451 -0.489819
5.076756 1.118985 -1.392964
5.766719 1.268951 -1.363203
6.586462 1.448128 -1.310858
7.675327 1.684723 -1.244593
9.150527 2.005179 -1.150203
11.202811 2.452853 -1.003337
14.553926 3.181256 -0.780748
27.479063 5.996421 -0.490936
5.103287 1.106169 -1.399176
5.752066 1.244694 -1.358704
6.599152 1.426789 -1.312384
7.681161 1.657919 -1.244593
9.134185 1.968206 -1.147278
11.195724 2.410375 -1.001942
14.564944 3.130430 -0.780748
5.095780 1.085931 -1.396070
37.036011 7.885781 0.660958
5.748752 1.222984 -1.356905
6.577208 1.398029 -1.307042
46.719585 9.922059 4.178595
7.717819 1.637658 -1.249599
9.140998 1.936316 -1.147278
11.211866 2.372933 -1.002640
14.575783 3.079566 -0.780748
5.091977 1.066553 -1.393999
5.764431 1.205301 -1.359604
6.582047 1.375063 -1.307042
7.704151 1.606673 -1.246470
9.139927 1.902775 -1.146303
11.196673 2.328910 -1.000548
14.535598 3.018121 -0.778026
5.088100 1.047214 -1.391929
5.760967 1.183607 -1.357805
6.598347 1.354446 -1.309331
7.690360 1.575811 -1.243341
9.150405 1.871652 -1.146791
11.196924 2.288224 -0.999851
14.542130 2.966561 -0.777817
5.084151 1.027914 -1.389858
5.738321 1.158092 -1.351506
6.583789 1.327523 -1.305515
46.625614 9.392916 4.161164
7.699687 1.549734 -1.243967
9.152988 1.838920 -1.146303
11.197031 2.247554 -0.999153
14.544563 2.914216 -0.777398
5.091497 1.010916 -1.390894
5.749974 1.139571 -1.353306
6.599937 1.306826 -1.307805
7.708926 1.523612 -1.244593
9.135982 1.802346 -1.143378
11.224356 2.212305 -1.000896
14.511534 2.854942 -0.775096
5.098787 0.993876 -1.391929
5.761569 1.120980 -1.355105
6.596750 1.282279 -1.306278
7.706440 1.495190 -1.243341
9.146115 1.771201 -1.143866
46.514851 8.999463 7.503850
11.228098 2.172357 -1.000548
14.533179 2.806538 -0.775724
5.102225 0.976072 -1.391929
5.765447 1.100860 -1.355105
6.593472 1.257775 -1.304752
7.727137 1.471234 -1.245844
9.136642 1.736297 -1.141916
11.200379 2.126458 -0.997410
14.523264 2.752075 -0.774677
5.094042 0.957006 -1.388823
5.776727 1.083173 -1.356905
46.659256 8.740477 2.487842
6.605325 1.237347 -1.306278
46.554848 8.712508 4.143733
7.716440 1.442699 -1.243341
9.154057 1.708176 -1.143378
46.477936 8.664537 7.488206
11.203452 2.088577 -0.997062
14.516601 2.700979 -0.773839
5.085953 0.937119 -1.385717
5.749807 1.057364 -1.349706
46.618767 8.564548 2.484074
6.601882 1.212862 -1.304752
46.584976 8.549936 4.143733
7.729199 1.417182 -1.244593
9.175586 1.679068 -1.145328
11.194995 2.046592 -0.995667
14.494504 2.644551 -0.772165
5.112006 0.923482 -1.391929
5.753463 1.037285 -1.349706
46.593334 8.391885 2.481143
6.590617 1.187030 -1.301699
46.614536 8.387281 4.143733
7.702992 1.384600 -1.239587
9.150127 1.641423 -1.141428
11.205993 2.008202 -0.996016
14.519375 2.596756 -0.773002
5.103785 0.903610 -1.388823
5.760887 1.017875 -1.350606
46.649879 8.234040 2.482609
6.579253 1.161286 -1.298646
46.545429 8.207205 4.135017
7.703888 1.357019 -1.238961
9.144071 1.607409 -1.139966
11.201159 1.967008 -0.994970
14.540154 2.548122 -0.773630
5.087874 0.882487 -1.383647
5.760564 0.997093 -1.349706
46.579941 8.054125 2.477375
6.591005 1.139649 -1.300173
46.475624 8.027757 4.126301
7.735830 1.334820 -1.243341
9.157451 1.576834 -1.140941
11.192251 1.925192 -0.993575
14.525337 2.493308 -0.772374
5.094732 0.865369 -1.384682
5.752482 0.975023 -1.347007
46.607769 7.891491 2.477375
6.591071 1.115981 -1.299409
7.701488 1.301224 -1.237084
9.186390 1.548817 -1.143866
11.194974 1.885447 -0.993227
14.526074 2.441262 -0.771955
5.097722 0.847579 -1.384682
5.771230 0.957493 -1.350606
46.558807 7.724478 2.473397
6.594927 1.092965 -1.299409
7.713778 1.275628 -1.238335
9.176072 1.514153 -1.141916
46.355503 7.649167 7.441275
11.205418 1.847014 -0.993575
46.244152 7.614214 9.109985
14.510859 2.386648 -0.770699
5.100649 0.829783 -1.384682
5.758985 0.935848 -1.347007
6.606453 1.071199 -1.300936
7.729666 1.251934 -1.240213
46.466320 7.517587 5.779532
9.149687 1.478646 -1.138016
11.207863 1.807251 -0.993227
14.522637 2.339146 -0.770909
5.118635 0.815293 -1.388823
5.754519 0.914514 -1.345207
6.582824 1.044975 -1.295593
7.730086 1.224325 -1.239587
9.154792 1.446705 -1.138016
11.194114 1.766965 -0.991484
46.294907 7.299285 9.109985
14.495200 2.282855 -0.769025
5.083273 0.791475 -1.378470
5.761527 0.895021 -1.346107
6.601952 1.024397 -1.298646
7.757739 1.200962 -1.243341
9.159787 1.414737 -1.138016
11.180522 1.724844 -0.989741
14.471497 2.227379 -0.767350
5.116563 0.778374 -1.386752
5.780030 0.877245 -1.349706
6.589959 0.998989 -1.295593
7.715007 1.166788 -1.235832
9.152891 1.380980 -1.136554
11.194355 1.686996 -0.990438
46.150600 6.946663 9.071823
14.510783 2.181604 -0.769025
5.103962 0.758239 -1.382612
21.424141 3.178926 0.378054
5.763780 0.854205 -1.345207
6.593406 0.975981 -1.295593
7.722942 1.140425 -1.236458
9.204790 1.355963 -1.142403
46.188786 6.795860 7.394345
11.192291 1.646747 -0.989741
46.077446 6.771263 9.052743
14.470885 2.123974 -0.766513
46.030289 6.747920 10.740513
21.319401 3.121568 -0.376099
5.106577 0.740420 -1.382612
21.486561 3.111579 0.378962
5.770583 0.834639 -1.346107
46.390137 6.701462 2.456441
6.592886 0.952400 -1.294830
7.738606 1.115152 -1.238335
46.252483 6.656857 5.737609
9.138731 1.313653 -1.133629
46.212227 6.634600 7.394345
11.205860 1.608804 -0.990438
46.073589 6.606490 9.047400
14.470303 2.072312 -0.766094
21.338087 3.048256 -0.376239
5.112956 0.723132 -1.383647
21.216125 2.996837 0.374005
5.777321 0.815034 -1.347007
46.413242 6.539499 2.456441
6.603946 0.930478 -1.296356
7.711154 1.083732 -1.233329
9.151125 1.282849 -1.134604
46.039478 6.445847 7.363058
11.211408 1.569675 -0.990438
14.457667 2.019029 -0.765047
5.107794 0.704223 -1.381576
21.190802 2.917855 0.373377
5.776270 0.794333 -1.346107
46.435787 6.377434 2.456441
6.579925 0.903679 -1.291014
7.718803 1.057346 -1.233955
9.163415 1.251971 -1.135579
11.161544 1.522991 -0.985557
14.484418 1.971239 -0.766094
5.106392 0.685874 -1.380541
21.050226 2.823667 0.370724
5.782870 0.774681 -1.347007
46.457767 6.215292 2.456441
6.602498 0.883307 -1.294830
46.353477 6.193128 4.091439
7.706783 1.028304 -1.231452
9.187406 1.222602 -1.138016
11.166793 1.484017 -0.985557
14.471410 1.918053 -0.765047
5.120249 0.669549 -1.383647
21.093664 2.754567 0.371317
5.773945 0.752977 -1.344308
46.379097 6.048271 2.451207
6.589967 0.858227 -1.291777
7.714244 1.001903 -1.232078
9.164057 1.186952 -1.134604
11.171906 1.445026 -0.985557
14.446323 1.863435 -0.763372
21.949282 2.827338 -0.386292
5.111056 0.650208 -1.380541
21.249479 2.703271 0.373900
5.764811 0.732356 -1.341608
46.372185 5.882854 2.449742
6.581236 0.833737 -1.289487
7.713604 0.975825 -1.231452
45.521618 5.750733 5.633776
9.136432 1.152579 -1.130704
45.441933 5.724532 7.254180
11.180834 1.406525 -0.985906
45.296516 5.698204 8.874146
14.412790 1.810536 -0.761279
21.891554 2.742268 -0.385105
5.120853 0.634206 -1.382612
21.502888 2.659283 0.378194
5.775068 0.713182 -1.343408
46.419193 5.732460 2.451207
6.599553 0.813831 -1.292540
7.728727 0.950338 -1.233329
45.312862 5.563724 5.605503
9.132516 1.119719 -1.129729
45.241066 5.546916 7.219139
11.189393 1.369921 -0.986254
45.226486 5.529084 8.856590
14.458673 1.765065 -0.763372
45.162930 5.505315 10.503865
21.352667 2.602868 -0.375471
5.111527 0.614944 -1.379506
21.745861 2.616141 0.382312
5.785141 0.694959 -1.345207
46.339767 5.558486 2.445974
6.586759 0.788923 -1.289487
7.700453 0.920952 -1.228324
45.299526 5.409652 5.601603
9.155890 1.091777 -1.132166
11.182237 1.329440 -0.985209
14.432714 1.713338 -0.761698
45.111267 5.347270 10.487668
21.353678 2.527372 -0.375331
5.105863 0.597093 -1.377435
21.854172 2.551808 0.384058
5.764304 0.672051 -1.339808
6.589338 0.767078 -1.289487
7.715394 0.895431 -1.230201
45.243198 5.242842 5.592340
9.159646 1.059808 -1.132166
11.166790 1.290067 -0.983465
14.458447 1.665229 -0.762744
45.129658 5.189758 10.487668
21.982204 2.523992 -0.386222
5.123272 0.581007 -1.381576
5.751123 0.650175 -1.336209
6.595878 0.744511 -1.290250
7.694917 0.865845 -1.226446
45.269119 5.085756 5.593316
9.123836 1.023400 -1.127291
11.151425 1.248865 -0.981722
14.456234 1.613859 -0.762326
45.077778 5.024432 10.471472
5.106067 0.561011 -1.376400
5.772730 0.632216 -1.340708
6.610146 0.722764 -1.292540
7.713603 0.840690 -1.228949
45.258965 4.924710 5.589904
9.115512 0.990261 -1.125829
11.163639 1.210788 -0.982419
14.414123 1.558239 -0.759813
45.067917 4.864111 10.465173
5.123362 0.544817 -1.380541
5.774901 0.612063 -1.340708
46.218212 4.890362 2.435716
6.589200 0.697205 -1.287961
7.720419 0.814175 -1.229575
45.157429 4.754213 5.575279
9.095222 0.955948 -1.122904
11.175723 1.172646 -0.983117
14.431391 1.509164 -0.760442
44.987713 4.696658 10.442677
5.109950 0.524458 -1.376400
5.773229 0.590495 -1.339808
46.235004 4.728988 2.435716
6.599524 0.673849 -1.289487
7.711561 0.784671 -1.227698
45.154797 4.586675 5.572842
9.106564 0.923405 -1.123879
45.146851 4.577886 7.187226
11.179946 1.131674 -0.983117
45.070618 4.554285 8.805454
14.440801 1.456658 -0.760651
45.078300 4.539145 10.459774
5.111750 0.506617 -1.376400
5.782912 0.572115 -1.341608
46.179676 4.560513 2.431947
6.590113 0.649651 -1.287198
7.694461 0.757161 -1.224569
45.169762 4.436899 5.572842
9.081917 0.890491 -1.120467
45.138962 4.417967 7.183472
11.175897 1.091869 -0.982419
45.085472 4.404788 8.805454
14.397844 1.404113 -0.758139
45.069836 4.387379 10.454375
5.117248 0.490030 -1.377435
5.773234 0.550817 -1.338909
6.596140 0.628164 -1.287961
7.685258 0.729180 -1.222692
45.184975 4.279188 5.572842
9.081018 0.858408 -1.119979
45.188766 4.271590 7.189103
11.163588 1.053308 -0.981025
45.100574 4.247371 8.805454
14.390727 1.352721 -0.757511
45.084877 4.230038 10.454375
5.126622 0.472878 -1.379506
5.767267 0.530953 -1.337109
6.594382 0.604781 -1.287198
7.687634 0.703689 -1.222692
9.091722 0.829016 -1.120954
11.159260 1.013609 -0.980328
14.367286 1.302470 -0.756045
5.116616 0.454847 -1.376400
5.765203 0.510472 -1.336209
6.600365 0.582102 -1.287961
7.697914 0.677540 -1.223943
45.363342 3.984747 5.591366
9.070831 0.795193 -1.118029
11.162729 0.974652 -0.980328
14.419717 1.253952 -0.758557
45.256287 3.935528 10.487668
5.118249 0.436089 -1.376400
5.763152 0.489010 -1.335310
6.602454 0.557908 -1.287961
7.696409 0.648991 -1.223318
45.524029 3.830761 5.609403
9.089509 0.763272 -1.119979
11.142403 0.931737 -0.978236
14.392370 1.198444 -0.756883
45.340321 3.775461 10.503865
5.115962 0.417014 -1.375364
5.788214 0.469777 -1.340708
6.604361 0.534856 -1.287961
7.698735 0.620780 -1.223318
45.537758 3.663892 5.609403
9.072330 0.729944 -1.117542
11.125726 0.891249 -0.976493
14.372575 1.146289 -0.755627
5.132725 0.401250 -1.379506
5.778082 0.449674 -1.338009
6.594355 0.512039 -1.285671
7.708631 0.595857 -1.224569
45.549664 3.512850 5.609403
9.090536 0.701074 -1.119492
11.132592 0.854657 -0.976842
14.344434 1.096189 -0.753952
45.485435 3.475957 10.531758
5.110909 0.382498 -1.373294
5.775655 0.430220 -1.337109
6.603848 0.490751 -1.287198
7.702683 0.569706 -1.223318
9.077088 0.668174 -1.117542
45.721424 3.357580 7.261063
11.127561 0.815206 -0.976144
45.598072 3.340520 8.887120
14.336039 1.047745 -0.753324
5.123839 0.364586 -1.376400
36.157066 2.572753 0.632720
5.769346 0.409503 -1.335310
6.578185 0.464609 -1.281855
7.677133 0.539533 -1.218938
45.822021 3.220278 5.640114
9.067485 0.635654 -1.116079
45.788048 3.201808 7.269824
11.150213 0.777748 -0.977887
45.680515 3.178288 8.900859
14.339783 0.995190 -0.753324
45.703556 3.163862 10.576749
5.125081 0.346697 -1.376400
