# This PCD file was generated using the MATLAB® pcwrite function
# from Computer Vision Toolbox®.
# .PCD v.7 - Point Cloud Data file format
VERSION .7
FIELDS x y z
SIZE 4 4 4
TYPE F F F
COUNT 1 1 1
WIDTH 1658
HEIGHT 1
VIEWPOINT 0 0 0 1 0 0 0
POINTS 1658
DATA ascii
5.519827 -3.177888 -0.333799
5.468822 -3.149794 -0.110160
4.039152 -2.334826 -1.250096
5.480627 -3.169345 0.110509
4.510524 -2.609403 -1.203038
5.533346 -3.202410 0.335055
5.123086 -2.964972 -1.150578
5.924592 -3.431604 -1.084404
7.029342 -4.074767 -0.997623
8.666826 -5.028026 -0.876612
5.534612 -3.212175 -0.335369
5.458969 -3.170821 -0.110194
4.022223 -2.344750 -1.247508
5.481623 -3.195506 0.110753
4.498021 -2.623168 -1.202138
5.525584 -3.223718 0.335264
5.113880 -2.984719 -1.150960
5.492063 -3.206731 0.556402
5.906858 -3.450306 -1.083465
7.021930 -4.103284 -0.998597
8.661262 -5.065289 -0.877833
5.500393 -3.219324 -0.334008
5.456496 -3.194910 -0.110369
4.034000 -2.370521 -1.253720
5.481942 -3.222670 0.110997
4.481658 -2.635685 -1.200339
5.503403 -3.237872 0.334636
5.111891 -3.007530 -1.152868
5.436192 -3.199606 0.551870
5.904992 -3.476918 -1.085342
7.006843 -4.128994 -0.998597
41.747612 -24.610855 7.675614
5.474586 -3.228640 -0.556054
5.485682 -3.236474 -0.333799
5.463691 -3.226071 -0.110753
4.016974 -2.380366 -1.251131
5.467218 -3.239747 0.110927
4.479135 -2.655288 -1.202138
5.497221 -3.260119 0.334950
5.090703 -3.020235 -1.150578
5.424428 -3.219510 0.551870
5.888811 -3.496520 -1.084717
5.442696 -3.232921 -0.777283
41.681835 -24.768541 7.679369
5.449582 -3.239585 -0.554659
5.468633 -3.253495 -0.333485
5.478172 -3.260465 -0.111277
4.008235 -2.391284 -1.250614
5.479336 -3.270230 0.111381
4.477464 -2.673343 -1.203938
5.502384 -3.286590 0.335892
5.086775 -3.038346 -1.151723
5.390908 -3.221282 0.549430
5.569824 -3.329511 -1.027775
5.483618 -3.280578 -0.784595
41.627541 -24.913572 7.683749
5.429688 -3.249601 -0.553613
5.453815 -3.266627 -0.333171
5.481623 -3.285883 -0.111556
3.993242 -2.401279 -1.248543
5.479882 -3.296552 0.111626
4.469774 -2.689960 -1.204388
5.511411 -3.318139 0.337148
5.066047 -3.050008 -1.149433
5.369390 -3.233913 0.548384
5.360206 -3.229656 -0.991169
5.494233 -3.313025 -0.787763
41.665493 -25.134232 7.706902
5.411488 -3.264418 -0.552916
5.438960 -3.283580 -0.332961
5.504351 -3.325680 -0.112254
3.994747 -2.421211 -1.251649
5.470052 -3.316697 0.111660
4.452027 -2.700493 -1.202138
5.523699 -3.351863 0.338614
5.074973 -3.080781 -1.154013
5.381913 -3.267110 0.550824
5.333704 -3.239119 -0.988353
5.496206 -3.340431 -0.789713
5.404593 -3.287336 -0.553439
5.418358 -3.298301 -0.332438
5.509788 -3.355274 -0.112603
3.987495 -2.436844 -1.252167
5.498805 -3.361756 0.112498
4.435449 -2.712725 -1.200339
5.514785 -3.374171 0.338823
5.068671 -3.102436 -1.155158
5.376699 -3.290974 0.551521
5.316742 -3.255551 -0.987414
5.453459 -3.341884 -0.785326
5.424779 -3.326914 -0.556751
5.414744 -3.323362 -0.332961
5.928593 -3.640167 -0.121434
3.976892 -2.450429 -1.251649
5.554538 -3.423860 0.113894
4.435429 -2.735101 -1.203038
5.531873 -3.411222 0.340602
5.049456 -3.114956 -1.153250
5.395121 -3.329494 0.554659
5.298051 -3.270865 -0.986163
5.423182 -3.349425 -0.782645
5.426691 -3.354209 -0.558145
5.452368 -3.372712 -0.335997
5.613171 -3.473535 -0.115221
3.965461 -2.461566 -1.250614
5.531262 -3.434876 0.113650
4.426334 -2.749794 -1.203038
6.060030 -3.764703 0.373888
5.044101 -3.134793 -1.154395
5.428043 -3.374717 0.559191
5.329110 -3.314499 -0.993985
5.371593 -3.342222 -0.776795
6.034553 -3.757639 -0.621943
5.990355 -3.733020 -0.369911
5.547318 -3.458277 -0.114104
3.958915 -2.475726 -1.251131
5.507974 -3.445776 0.113406
4.427103 -2.770660 -1.205738
6.053623 -3.790073 0.374307
5.037006 -3.153586 -1.155158
5.793487 -3.630022 -1.082839
6.165476 -3.866096 -0.893546
6.016996 -3.774454 -0.621420
5.989783 -3.760298 -0.370643
5.548759 -3.486130 -0.114383
3.950248 -2.489530 -1.251131
5.504371 -3.470313 0.113580
4.407515 -2.779859 -1.203038
5.996439 -3.783471 0.371585
5.029287 -3.173244 -1.155921
7.369462 -4.651583 0.762438
5.805834 -3.666043 -1.087533
6.420441 -4.057266 -0.932544
41.463928 -26.212404 7.769475
5.986943 -3.784788 -0.619677
5.888854 -3.725657 -0.365200
5.533177 -3.503339 -0.114313
3.954581 -2.511590 -1.255273
5.525980 -3.510954 0.114278
4.391206 -2.791046 -1.201239
6.010162 -3.821526 0.373260
5.010997 -3.187441 -1.154395
7.306109 -4.647337 0.757558
5.808002 -3.695831 -1.090348
6.476564 -4.124437 -0.942781
6.156170 -3.923424 -0.638677
5.491228 -3.502341 -0.341335
5.574860 -3.557052 -0.115430
3.951856 -2.530234 -1.257343
5.907106 -3.783565 0.122446
4.398996 -2.818687 -1.206188
4.995976 -3.203666 -1.153631
5.794416 -3.717094 -1.090348
6.563303 -4.213566 -0.957649
41.443169 -26.616255 7.801075
6.145102 -3.948115 -0.639026
5.486754 -3.527845 -0.341859
5.911604 -3.802471 -0.122690
3.923079 -2.532130 -1.251131
5.904959 -3.812783 0.122690
4.382087 -2.830561 -1.204388
5.940050 -3.838380 0.370643
4.988060 -3.223217 -1.154395
5.785730 -3.741524 -1.091287
6.854458 -4.436045 -1.002497
6.082780 -3.938139 -0.633971
5.987318 -3.879301 -0.373888
5.912728 -3.833905 -0.123005
3.915835 -2.546862 -1.251649
5.918432 -3.850821 0.123249
4.375446 -2.847967 -1.205288
5.991889 -3.901594 0.374725
4.978424 -3.241681 -1.154776
5.996634 -3.906175 0.626127
5.770980 -3.760619 -1.090974
6.848907 -4.466450 -1.003960
6.060653 -3.953906 -0.633099
5.998825 -3.916555 -0.375458
5.906005 -3.858896 -0.123144
3.908538 -2.561574 -1.252167
5.935056 -3.891193 0.123877
4.367108 -2.864291 -1.205738
5.953185 -3.906051 0.373155
4.981851 -3.268732 -1.158211
5.982963 -3.927083 0.626127
5.756166 -3.779656 -1.090661
6.836593 -4.492510 -1.004447
6.033496 -3.966281 -0.631705
5.963426 -3.923201 -0.374097
5.914212 -3.893783 -0.123598
3.906020 -2.579460 -1.254237
5.941458 -3.925113 0.124296
4.353832 -2.877369 -1.204838
5.954510 -3.936721 0.374097
4.965498 -3.282853 -1.157066
5.744586 -3.800816 -1.090974
6.820870 -4.516347 -1.004447
6.009648 -3.980717 -0.630659
5.946366 -3.941787 -0.373888
5.928912 -3.933196 -0.124191
3.903425 -2.597359 -1.256308
5.941038 -3.954694 0.124575
4.364848 -2.906591 -1.210687
5.914824 -3.938734 0.372423
4.955642 -3.301255 -1.157447
5.746075 -3.830707 -1.093790
6.811668 -4.544536 -1.005422
6.005659 -4.008306 -0.631705
5.935892 -3.964737 -0.374097
5.934126 -3.965057 -0.124575
3.889522 -2.607742 -1.254755
5.987685 -4.014462 0.125832
4.351948 -2.918878 -1.209787
5.998892 -4.025012 0.378598
4.945718 -3.319628 -1.157829
5.734980 -3.850842 -1.094103
6.799856 -4.569314 -1.005910
8.382332 -5.636940 -0.883759
5.921055 -3.983285 -0.373993
5.958402 -4.011432 -0.125378
3.876050 -2.617383 -1.253202
5.955407 -4.023025 0.125448
4.340118 -2.932961 -1.209337
6.016243 -4.067180 0.380587
4.934683 -3.336010 -1.157829
5.713323 -3.865302 -1.092538
6.790440 -4.597473 -1.006885
8.370191 -5.669177 -0.884456
5.938526 -4.025221 -0.375982
5.974152 -4.052412 -0.126006
3.871681 -2.634156 -1.254755
5.850407 -3.981906 0.123528
4.325021 -2.944802 -1.207987
6.000359 -4.087031 0.380482
4.924631 -3.354319 -1.158211
41.280979 -28.128313 4.370337
5.709589 -3.891898 -1.094416
6.780910 -4.625623 -1.007860
8.356934 -5.702850 -0.885154
5.932686 -4.051558 -0.376505
18.971193 -12.965544 -0.401091
3.873617 -2.655301 -1.258378
5.879350 -4.031707 0.124436
4.311502 -2.957677 -1.207087
4.914511 -3.372600 -1.158592
5.697597 -3.912923 -1.094728
6.758178 -4.644767 -1.006885
8.343543 -5.736502 -0.885851
11.150883 -7.672388 -0.709362
18.921505 -13.023849 -0.400952
3.861145 -2.666610 -1.257343
5.882402 -4.062545 0.124785
4.306480 -2.975281 -1.208437
4.894634 -3.384152 -1.156684
5.689464 -3.935166 -1.095667
6.739474 -4.664893 -1.006397
8.331657 -5.771265 -0.886723
11.148362 -7.725250 -0.710827
18.921938 -13.121723 -0.401929
3.845937 -2.674988 -1.255273
5.901015 -4.105896 0.125483
4.307264 -2.998088 -1.211586
4.886607 -3.402608 -1.157447
5.677314 -3.956131 -1.095980
6.729662 -4.692932 -1.007372
8.306560 -5.796891 -0.886200
11.134429 -7.773264 -0.711664
18.892412 -13.199148 -0.402278
3.842435 -2.693501 -1.257343
5.958695 -4.176974 0.127019
4.295177 -3.011986 -1.211136
4.880532 -3.425007 -1.158974
5.670858 -3.982589 -1.097544
6.722986 -4.723241 -1.008835
8.281384 -5.822414 -0.885677
11.099329 -7.809426 -0.711246
18.771002 -13.212068 -0.400672
3.836166 -2.709126 -1.258378
4.271377 -3.018711 -1.207537
41.162495 -29.101545 2.641919
4.878165 -3.448822 -1.161264
5.647247 -3.995515 -1.095667
6.712110 -4.752438 -1.009809
8.277870 -5.865398 -0.887594
11.072002 -7.848121 -0.711246
18.781168 -13.322429 -0.401929
3.830932 -2.726529 -1.259931
4.263989 -3.035863 -1.208437
4.859095 -3.462122 -1.159737
5.634173 -4.017333 -1.095980
6.695479 -4.775839 -1.009809
8.262212 -5.897731 -0.888117
43.969219 -31.397686 10.502128
11.049664 -7.893293 -0.711664
18.682487 -13.350703 -0.400812
3.820299 -2.738092 -1.259413
4.256533 -3.053000 -1.209337
4.839612 -3.472494 -1.157829
5.630447 -4.042907 -1.097857
6.685216 -4.803815 -1.010785
8.253933 -5.933237 -0.889337
11.023428 -7.929892 -0.711664
18.664982 -13.436865 -0.401440
3.802887 -2.745756 -1.256825
4.252168 -3.072405 -1.211136
4.829052 -3.490515 -1.158211
5.617902 -4.063695 -1.098170
6.665191 -4.824793 -1.010297
8.226717 -5.957338 -0.888640
11.015086 -7.982387 -0.712920
18.617964 -13.501936 -0.401440
3.799529 -2.763560 -1.258896
41.077423 -29.888334 0.886722
4.252447 -3.095257 -1.214286
4.826362 -3.514285 -1.160500
5.597297 -4.078627 -1.096919
6.661988 -4.856225 -1.012247
8.218749 -5.995413 -0.890034
9.796653 -7.151702 -0.635673
3.787226 -2.773861 -1.257861
26.315399 -19.281128 0.569437
4.229585 -3.100125 -1.210687
4.819431 -3.533753 -1.161645
5.593296 -4.104177 -1.098796
6.649048 -4.880639 -1.012734
8.205245 -6.027351 -0.890732
10.973372 -8.066642 -0.713758
9.757773 -7.175666 -0.211418
3.790445 -2.795578 -1.262002
9.794764 -7.226601 0.212466
4.213010 -3.109505 -1.208887
4.815584 -3.555546 -1.163553
5.597132 -4.135616 -1.102237
6.635163 -4.906178 -1.013222
8.184155 -6.055957 -0.890732
10.946562 -8.102985 -0.713758
9.703743 -7.188257 -0.210790
3.772421 -2.803690 -1.259413
9.767874 -7.259554 0.212431
4.214641 -3.133494 -1.212486
4.786768 -3.561453 -1.159737
5.574014 -4.150203 -1.100673
6.614813 -4.926939 -1.012734
8.166162 -6.086869 -0.891080
10.936001 -8.157383 -0.715014
18.554241 -13.845022 -0.404093
3.762611 -2.816841 -1.259413
9.729997 -7.286916 0.212186
4.203127 -3.148920 -1.212486
4.775878 -3.579318 -1.160119
5.576877 -4.182673 -1.104115
6.606236 -4.958300 -1.014197
8.146459 -6.116533 -0.891255
10.891492 -8.183510 -0.713967
40.609375 -30.523642 11.728498
3.749671 -2.827632 -1.258378
9.691408 -7.308305 0.211872
4.195774 -3.165188 -1.213386
4.768056 -3.599515 -1.161264
5.542483 -4.185668 -1.100047
6.602427 -4.989755 -1.016147
8.126647 -6.146135 -0.891429
10.905706 -8.250914 -0.716689
40.566975 -30.702827 11.745594
3.743350 -2.842387 -1.259413
9.667432 -7.343299 0.211907
4.181597 -3.177457 -1.212486
4.768597 -3.624812 -1.164317
5.535700 -4.210968 -1.101612
6.588128 -5.015175 -1.016634
8.114653 -6.181708 -0.892475
10.848246 -8.267140 -0.714805
40.515347 -30.886778 11.761791
3.740579 -2.861958 -1.262002
9.638563 -7.374570 0.211837
4.170479 -3.192034 -1.212486
40.818611 -31.253363 2.694255
4.753720 -3.641072 -1.163935
5.528068 -4.237238 -1.103176
6.567432 -5.035726 -1.016147
8.104089 -6.218486 -0.893695
10.836881 -8.321444 -0.716061
40.500774 -31.111040 11.790585
3.718324 -2.865563 -1.257861
9.598800 -7.400080 0.211558
4.169554 -3.215629 -1.215636
4.737873 -3.655244 -1.163172
5.516369 -4.258923 -1.103802
6.545789 -5.057336 -1.015659
8.077603 -6.243082 -0.893172
9.575483 -7.406114 -0.634417
10.653426 -8.242818 -0.235119
3.714403 -2.883264 -1.259931
9.582106 -7.438002 0.211733
4.157329 -3.228242 -1.215186
4.725085 -3.671760 -1.163172
5.514693 -4.286892 -1.106305
6.547784 -5.093641 -1.018584
8.052618 -6.268792 -0.892823
9.550871 -7.437828 -0.634417
3.706344 -2.896755 -1.260449
9.559234 -7.473867 0.211802
4.152175 -3.247537 -1.216985
4.712883 -3.687409 -1.163172
5.484142 -4.293938 -1.103176
6.529964 -5.116466 -1.018584
8.053739 -6.312668 -0.895264
10.550005 -8.281183 -0.234107
3.697727 -2.910870 -1.260966
4.136221 -3.258393 -1.215636
4.701525 -3.705053 -1.163553
5.469121 -4.313055 -1.103176
6.518298 -5.144148 -1.019559
8.033217 -6.341977 -0.895438
40.373756 -31.908163 11.880565
9.432382 -7.457267 -0.209883
3.684516 -2.921359 -1.259931
40.737713 -32.311470 0.907595
3.908047 -3.100814 -1.151749
4.693176 -3.725103 -1.164698
5.454031 -4.332119 -1.103176
6.497193 -5.164399 -1.019072
8.031305 -6.386100 -0.897704
9.464645 -7.531216 -0.633893
40.292625 -32.073170 11.889564
9.428193 -7.507587 -0.210371
3.678825 -2.937819 -1.261484
3.857619 -3.082805 -1.140052
4.674010 -3.736559 -1.163172
5.457386 -4.365939 -1.106930
6.482226 -5.189528 -1.019559
41.679550 -33.379677 8.457474
8.010520 -6.415341 -0.897878
40.265568 -32.281883 11.914758
9.355130 -7.502918 -0.209324
3.661021 -2.944589 -1.258896
3.874160 -3.118246 -1.148150
4.667056 -3.757776 -1.164698
5.445189 -4.387441 -1.107556
6.460981 -5.209631 -1.019072
7.518190 -6.064249 -0.845062
8.107919 -6.544602 -0.546073
40.228447 -32.483456 11.937252
9.351979 -7.551487 -0.209813
3.649220 -2.956134 -1.258378
3.836545 -3.108992 -1.140052
4.656960 -3.776518 -1.165461
5.424474 -4.400496 -1.106305
6.459082 -5.243540 -1.021509
7.962445 -6.468596 -0.897530
10.590916 -8.607003 -0.715223
40.232395 -32.707645 11.970545
8.692585 -7.069312 -0.195572
3.648379 -2.975545 -1.261484
3.813592 -3.112507 -1.136453
4.656577 -3.801873 -1.168514
5.445794 -4.449400 -1.113814
8.016917 -6.559435 -0.906245
3.634463 -2.986444 -1.260449
3.775606 -3.103526 -1.128355
3.741987 -3.078081 -0.941833
3.779263 -3.110955 -0.775289
3.750201 -3.090328 -0.425146
3.712058 -3.061073 -0.252155
3.660445 -3.019585 1.095512
3.796265 -3.131626 -0.085901
3.659491 -3.019871 1.271319
3.628481 -3.002808 -1.262002
3.736881 -3.093615 0.084679
3.737190 -3.094970 -1.120256
3.700489 -3.065665 0.251841
3.734244 -3.093629 -0.942596
3.713944 -3.077904 0.422008
3.725800 -3.088827 -0.766529
3.682463 -3.053984 0.587410
3.726235 -3.091383 -0.594479
3.663379 -3.040316 0.754014
3.708728 -3.077952 -0.421659
3.682665 -3.057408 0.930385
3.695204 -3.068907 -0.251736
3.628898 -3.014910 1.089213
3.686336 -3.063717 -0.083667
3.624630 -3.013502 1.263037
3.601654 -3.001849 -1.256308
3.686127 -3.073346 0.083772
3.717385 -3.100507 -1.117557
3.668296 -3.060650 0.250375
3.705333 -3.091552 -0.938017
3.687881 -3.078083 0.420265
3.693766 -3.084089 -0.762149
3.650450 -3.049004 0.583998
3.700188 -3.091643 -0.592041
3.637588 -3.040416 0.750886
3.679617 -3.075546 -0.419568
3.650884 -3.052613 0.925042
3.675278 -3.074099 -0.251108
3.612374 -3.022556 1.087413
3.669486 -3.071432 -0.083527
3.603720 -3.017455 1.259413
3.589674 -3.013161 -1.255790
3.626371 -3.045044 0.082655
3.703555 -3.110958 -1.116657
3.648415 -3.065727 0.249747
3.697524 -3.106993 -0.938780
3.634410 -3.055041 0.415384
3.673907 -3.089336 -0.760272
3.630671 -3.054061 0.582536
3.686336 -3.101984 -0.591554
3.626952 -3.053095 0.750886
3.662761 -3.083239 -0.418870
3.637203 -3.062809 0.924279
3.656887 -3.080476 -0.250585
3.604781 -3.037659 1.088313
3.649569 -3.076489 -0.083318
3.588735 -3.026280 1.257861
3.585035 -3.030662 -1.257861
3.627936 -3.068014 0.082934
3.686722 -3.118832 -1.114857
3.634642 -3.075863 0.249538
3.698646 -3.130027 -0.941833
3.620683 -3.065134 0.415036
3.675161 -3.112355 -0.762775
3.626046 -3.071848 0.583510
3.681544 -3.119967 -0.592529
3.622300 -3.070847 0.752137
3.661095 -3.103736 -0.419916
3.602533 -3.055170 0.918173
3.641543 -3.089345 -0.250271
3.607529 -3.061572 1.092362
3.654052 -3.102152 -0.083667
3.585512 -3.045041 1.260449
3.574965 -3.042533 -1.257861
3.623832 -3.085214 0.083073
3.708999 -3.158838 -1.124755
3.624422 -3.087899 0.249538
3.691235 -3.144821 -0.942596
3.628695 -3.092633 0.417127
3.670832 -3.129651 -0.764026
3.615840 -3.083856 0.583510
3.701380 -3.157927 -0.597404
3.618107 -3.087972 0.753389
3.653269 -3.119084 -0.420265
3.619257 -3.090045 0.925042
3.649503 -3.116970 -0.251527
3.581058 -3.059593 1.087413
3.628543 -3.101260 -0.083318
3.587141 -3.066957 1.264590
3.566723 -3.058131 -1.258896
3.652511 -3.131686 0.083981
3.718658 -3.189528 -1.131054
3.622716 -3.108335 0.250166
3.697561 -3.173673 -0.947176
3.641522 -3.126678 0.419916
3.710285 -3.186845 -0.774664
3.638182 -3.124914 0.588873
3.720447 -3.196702 -0.602278
3.628279 -3.118609 0.757769
3.654446 -3.142209 -0.421659
3.619814 -3.113532 0.928095
3.631998 -3.125114 -0.251108
3.596406 -3.095581 1.095512
3.729849 -3.210442 -0.085901
3.586661 -3.088284 1.268213
3.551640 -3.066775 -1.257343
3.671274 -3.171196 0.084679
3.736433 -3.228618 -1.140052
3.657181 -3.160136 0.253306
4.543466 -3.927353 -1.167369
3.606472 -3.118520 0.417127
5.306681 -4.590311 -1.111311
6.302248 -5.455329 -1.023459
7.806542 -6.759854 -0.903456
10.497926 -9.096795 -0.727993
7.867879 -6.820179 -0.181749
3.551118 -3.088028 -1.260966
3.734528 -3.248665 -1.142751
4.534171 -3.947055 -1.168514
5.286961 -4.603992 -1.110372
6.284123 -5.476198 -1.023459
7.794912 -6.797540 -0.904851
9.089066 -7.928897 -0.632114
9.505627 -8.298132 -0.220249
2.644015 -2.314660 -0.941584
3.720234 -3.259113 -1.141852
4.524010 -3.964657 -1.169278
5.275313 -4.626325 -1.111311
6.276906 -5.508576 -1.025409
7.784306 -6.833867 -0.906245
8.405628 -7.384524 -0.586372
2.635919 -2.323875 -0.941584
8.827604 -7.785318 0.205450
3.720525 -3.282393 -1.145451
4.516031 -3.985621 -1.170804
5.263573 -4.648634 -1.112249
6.251688 -5.525194 -1.024434
7.764882 -6.864955 -0.906768
7.823340 -6.921507 -0.547434
7.280985 -6.446204 -0.169742
2.623457 -2.329214 -0.940031
3.732354 -3.316069 -1.152649
4.499157 -3.998752 -1.170041
5.256171 -4.674856 -1.114126
6.235331 -5.549622 -1.024921
7.737895 -6.889369 -0.906420
9.429047 -8.400975 -0.661841
9.001778 -8.025929 -0.210511
2.608110 -2.331919 -0.937443
8.975745 -8.028062 0.210197
2.625732 -2.349325 -0.813423
4.474931 -4.005268 -1.167369
5.235406 -4.689221 -1.113188
6.224789 -5.579303 -1.026384
7.727150 -6.928308 -0.907988
8.996801 -8.072367 -0.633475
2.589905 -2.331961 -0.933819
2.633441 -2.372826 -0.818372
4.471131 -4.030065 -1.170041
5.220473 -4.708791 -1.113501
6.208223 -5.603659 -1.026871
2.518347 -2.273905 -0.296852
8.973014 -8.107739 -0.633788
2.584611 -2.343582 -0.934854
2.556463 -2.318872 0.060246
2.583290 -2.344028 -0.805325
4.462851 -4.050926 -1.171567
5.199618 -4.723001 -1.112562
2.481032 -2.255192 -0.411675
2.477964 -2.253193 -0.293018
39.749847 -36.156902 10.444885
8.938749 -8.133636 -0.633370
2.470686 -2.249728 -0.058326
2.572135 -2.348682 -0.933302
2.443526 -2.232028 0.057767
2.569338 -2.347773 -0.803525
4.461725 -4.078401 -1.175002
5.193303 -4.750454 -1.114752
2.587358 -2.368385 -0.430686
2.436288 -2.230882 -0.289008
2.429681 -2.226392 -0.172709
2.459870 -2.255635 -0.058256
2.566765 -2.360261 -0.934337
2.426889 -2.232421 0.057558
2.551089 -2.347490 -0.800376
2.445196 -2.250836 0.174174
2.572566 -2.368082 -0.679662
5.186860 -4.777922 -1.116942
2.564479 -2.363948 -0.428249
2.604250 -2.401450 -0.309926
39.660973 -36.585274 10.488389
2.304469 -2.126503 -0.164335
2.355019 -2.174671 -0.055952
2.548588 -2.360019 -0.930713
2.388275 -2.212341 0.056825
2.538591 -2.352407 -0.799026
2.381664 -2.207762 0.170197
2.554205 -2.367705 -0.676990
2.543077 -2.359040 -0.549398
2.564941 -2.380988 -0.429711
2.246916 -2.086501 -0.268265
39.619328 -36.803665 10.511286
2.264845 -2.104624 -0.162032
2.294695 -2.133855 -0.054696
2.545986 -2.374171 -0.932784
2.307425 -2.152462 0.055080
2.523240 -2.354606 -0.796777
2.538749 -2.369908 -0.675082
2.552149 -2.384084 -0.553152
2.608819 -2.438729 -0.438486
2.395329 -2.239942 -0.286917
39.585239 -37.030258 10.536473
2.251651 -2.107058 -0.161613
2.271177 -2.126817 -0.054312
2.541908 -2.387011 -0.934337
2.291153 -2.152288 0.054870
2.512165 -2.360731 -0.795877
2.363282 -2.221600 0.169987
2.524739 -2.373377 -0.673556
2.522229 -2.372676 -0.548459
2.613299 -2.460066 -0.440680
2.390397 -2.251022 -0.287265
39.504326 -37.213982 10.549448
2.231200 -2.102577 -0.160671
2.260829 -2.131988 -0.054242
2.543386 -2.405160 -0.937960
2.285079 -2.161647 0.054905
2.501079 -2.366807 -0.794977
2.335207 -2.210613 0.168522
2.502182 -2.368679 -0.669740
2.506761 -2.374673 -0.546895
2.439021 -2.312119 -0.412650
20.974390 -19.890043 4.578211
2.382525 -2.259352 -0.287265
2.216604 -2.103478 -0.160148
2.253373 -2.139867 -0.054242
2.541970 -2.420685 -0.940548
2.278967 -2.170990 0.054940
2.499856 -2.382245 -0.797227
2.317742 -2.208699 0.167789
2.489635 -2.373334 -0.668595
2.442713 -2.330232 -0.534693
2.320373 -2.215074 -0.393882
2.394797 -2.286919 -0.289706
2.207804 -2.109823 -0.160043
2.234701 -2.136273 -0.053963
3.411935 -3.271927 -1.266660
2.265982 -2.172998 0.054801
2.496161 -2.394568 -0.798576
2.307136 -2.214011 0.167580
2.478503 -2.379291 -0.667832
20.641994 -19.822641 2.503810
2.380830 -2.286327 -0.522804
2.370268 -2.277775 -0.403631
20.627756 -19.829739 4.531907
2.366694 -2.275930 -0.287265
2.209431 -2.125441 -0.160671
2.225790 -2.142674 -0.053928
3.402456 -3.284566 -1.267178
2.246875 -2.169782 0.054521
2.491992 -2.407329 -0.799926
2.295085 -2.217887 0.167266
2.473423 -2.390225 -0.668595
2.198174 -2.125719 -0.484321
2.326640 -2.251523 -0.397538
20.473255 -19.819187 4.513135
2.361997 -2.286537 -0.287614
39.373913 -38.129333 10.654012
2.191957 -2.123413 -0.159939
2.222605 -2.154606 -0.054033
3.399281 -3.304502 -1.270284
2.237854 -2.176218 0.054486
2.486367 -2.418731 -0.800826
2.285898 -2.224492 0.167161
2.470692 -2.404322 -0.670121
2.129886 -2.074119 -0.470868
2.332983 -2.273485 -0.399975
7.005944 -6.829657 1.549640
2.339734 -2.280861 -0.285871
39.310856 -38.335075 10.673092
2.184532 -2.131051 -0.159939
2.215070 -2.162351 -0.054033
3.394628 -3.323105 -1.272872
2.225958 -2.179819 0.054382
2.490438 -2.439668 -0.804875
2.265281 -2.219876 0.166219
2.458078 -2.408809 -0.668976
2.126864 -2.085690 -0.471806
2.330700 -2.287176 -0.400950
20.120123 -19.751291 4.465579
2.371162 -2.328508 -0.290752
7.538957 -7.403341 2.053868
2.182779 -2.144262 -0.160357
2.204657 -2.167266 -0.053963
3.379674 -3.332811 -1.271837
2.222607 -2.191788 0.054486
2.488843 -2.455189 -0.807124
2.253253 -2.223562 0.165905
2.442247 -2.410906 -0.667068
6.940845 -6.854167 0.853429
2.114990 -2.089307 -0.470868
6.476444 -6.397798 1.117786
2.411657 -2.383203 -0.416306
2.363020 -2.336771 -0.290752
2.196200 -2.173321 -0.161927
2.191393 -2.169322 -0.053823
3.359795 -3.336421 -1.268731
2.221652 -2.206966 0.054661
2.510238 -2.494515 -0.817022
2.249338 -2.236029 0.166219
2.433816 -2.419416 -0.667068
6.769950 -6.732245 0.835301
2.110485 -2.099463 -0.471494
6.517678 -6.485904 1.128998
2.408533 -2.397629 -0.417281
2.316328 -2.307451 -0.286045
2.201333 -2.193662 -0.162870
2.194755 -2.188635 -0.054102
3.351641 -3.352811 -1.270284
2.209694 -2.210465 0.054556
2.511158 -2.512911 -0.820172
2.241519 -2.243867 0.166219
2.343084 -2.346358 -0.644553
6.697371 -6.709071 0.829374
2.090218 -2.094600 -0.468678
6.422084 -6.435547 1.116323
2.408561 -2.414453 -0.418743
2.406723 -2.414295 -0.298247
2.262346 -2.271049 -0.167998
2.211090 -2.220371 -0.054696
3.349261 -3.371548 -1.273390
2.215033 -2.230551 0.054870
3.742547 -3.770082 -1.226433
2.239693 -2.256959 0.166638
2.313575 -2.331410 -0.638447
2.371350 -2.390465 0.294586
2.086409 -2.103961 -0.469303
7.169350 -7.232189 1.250380
2.354431 -2.375896 -0.410700
2.415952 -2.438830 -0.300339
2.250985 -2.273888 -0.167684
2.214965 -2.239064 -0.054975
3.340185 -3.385969 -1.274425
2.211446 -2.242540 0.054975
3.737572 -3.791450 -1.229133
2.224792 -2.257650 0.166114
2.301288 -2.335277 -0.637302
2.360194 -2.395889 0.294238
2.084596 -2.116862 -0.470555
6.369774 -6.470625 1.114861
2.305745 -2.343068 -0.403631
2.380877 -2.420262 -0.297027
2.245834 -2.284580 -0.167894
2.235163 -2.275312 -0.055673
3.329697 -3.398988 -1.274943
2.207801 -2.254532 0.055080
3.732494 -3.812828 -1.231832
2.223882 -2.272540 0.166638
2.282138 -2.332070 -0.634249
2.344851 -2.396992 0.293366
2.082719 -2.129775 -0.471806
2.529249 -2.588200 -0.444336
2.474049 -2.532598 -0.309752
2.246217 -2.300981 -0.168522
2.253738 -2.310298 -0.056336
3.316465 -3.409205 -1.274425
2.204100 -2.266526 0.055185
3.716445 -3.823039 -1.230932
2.213152 -2.277424 0.166428
2.271247 -2.337206 -0.633486
2.322586 -2.390872 0.291623
2.093162 -2.155454 -0.475874
2.397593 -2.469807 0.422643
2.521582 -2.598438 -0.444579
5.868971 -6.049966 1.335012
2.301495 -2.372471 -0.289183
39.045200 -40.263382 10.902063
2.243732 -2.314543 -0.168940
2.235920 -2.308097 -0.056092
3.301860 -3.417982 -1.273390
2.194786 -2.272768 0.055150
2.284647 -2.366648 -0.759435
2.217671 -2.298070 0.167370
2.263075 -2.345120 -0.633486
2.308693 -2.393228 0.290926
2.225490 -2.307784 -0.507786
2.340737 -2.428141 0.414112
2.519383 -2.614371 -0.445798
5.867003 -6.090332 1.339392
2.240673 -2.325964 -0.282559
38.945271 -40.441856 10.913512
2.230098 -2.316606 -0.168522
2.226464 -2.314446 -0.056057
3.292584 -3.432275 -1.274425
2.203448 -2.297735 0.055568
2.260190 -2.357728 -0.754036
2.224837 -2.321660 0.168522
2.249442 -2.347336 -0.631959
2.312730 -2.414222 0.292495
2.218786 -2.316965 -0.508099
2.315774 -2.419089 0.411187
2.512987 -2.626018 -0.446286
5.927639 -6.196420 1.358164
2.228408 -2.329453 -0.282036
38.898846 -40.676880 10.940225
2.224759 -2.327264 -0.168731
2.226659 -2.330880 -0.056267
2.282550 -2.396076 -0.886714
2.202310 -2.312653 0.055743
2.247915 -2.361368 -0.752686
2.211617 -2.323238 0.168103
2.243941 -2.358018 -0.632723
2.301542 -2.419393 0.292146
2.207963 -2.321833 -0.507473
2.281329 -2.399822 0.406556
2.499703 -2.630457 -0.445554
5.893450 -6.201724 1.355036
2.319064 -2.441222 -0.294586
38.891811 -40.954777 10.978387
2.213871 -2.332118 -0.168522
2.223047 -2.342602 -0.056371
2.270189 -2.399819 -0.885161
2.183635 -2.308322 0.055464
2.242750 -2.371641 -0.753586
2.213098 -2.341104 0.168836
2.220864 -2.350140 -0.628525
2.284874 -2.418722 0.291100
2.207034 -2.336322 -0.509038
2.286988 -2.421806 0.408994
2.490966 -2.638732 -0.445554
5.814825 -6.161918 1.341895
2.307794 -2.446403 -0.294238
2.217088 -2.351071 -0.169359
2.205256 -2.340161 -0.056127
2.250313 -2.394664 -0.880502
2.182410 -2.323217 0.055638
2.233124 -2.378035 -0.753136
2.218582 -2.363376 0.169883
2.217089 -2.361786 -0.629670
2.272750 -2.421927 0.290577
2.190756 -2.335367 -0.507161
2.264942 -2.415295 0.406556
2.485813 -2.651756 -0.446286
6.068829 -6.476224 1.405720
2.370070 -2.530055 -0.303302
2.206137 -2.355880 -0.169150
2.202539 -2.353685 -0.056267
2.233614 -2.394419 -0.877397
2.168831 -2.324972 0.055499
2.227467 -2.388666 -0.754036
2.232109 -2.394481 0.171557
2.215110 -2.377078 -0.631578
2.255710 -2.421493 0.289531
2.176797 -2.337599 -0.505909
2.245674 -2.411564 0.404606
2.487362 -2.672041 -0.448235
16.693287 -17.938984 3.881140
2.370723 -2.548524 -0.304522
6.615131 -7.113747 1.888246
2.205647 -2.372728 -0.169778
2.205200 -2.373078 -0.056546
2.227868 -2.405036 -0.878432
2.169805 -2.343177 0.055743
2.209430 -2.386803 -0.750887
2.245022 -2.426101 0.173232
2.202799 -2.380472 -0.630433
2.241832 -2.423502 0.288834
2.173989 -2.350984 -0.507161
2.230083 -2.412490 0.403388
2.476205 -2.679681 -0.447992
7.172378 -7.764471 1.674162
2.372628 -2.568493 -0.305917
2.189223 -2.371607 -0.169150
2.200555 -2.385554 -0.056651
2.224690 -2.418486 -0.880502
2.173795 -2.363984 0.056057
2.201086 -2.394501 -0.750887
2.247351 -2.445688 0.174069
2.203774 -2.398266 -0.633104
2.236054 -2.434247 0.289183
2.172449 -2.365834 -0.508725
2.217621 -2.415873 0.402656
2.380939 -2.594700 -0.432392
7.131879 -7.774902 1.671033
2.382503 -2.597314 -0.308357
2.186329 -2.385123 -0.169569
2.193565 -2.394695 -0.056685
2.207115 -2.416252 -0.876879
2.173620 -2.380418 0.056267
2.195341 -2.405049 -0.751786
2.257647 -2.474173 0.175535
2.192743 -2.403044 -0.632341
2.218145 -2.431734 0.287963
2.172164 -2.382160 -0.510602
2.205163 -2.419198 0.401925
2.346464 -2.575117 -0.427761
2.254720 -2.475300 0.530313
2.360006 -2.590885 -0.306614
2.186057 -2.401603 -0.170197
2.178465 -2.394941 -0.056511
6.636073 -7.298064 2.643060
2.190879 -2.415356 -0.873773
2.180073 -2.404286 0.056651
2.185624 -2.411253 -0.751337
2.267772 -2.502759 0.177000
2.185660 -2.412138 -0.632723
2.202955 -2.432078 0.287091
2.169139 -2.395585 -0.511854
2.199369 -2.429824 0.402413
2.386741 -2.637754 -0.436780
7.040323 -7.783483 1.662273
2.346938 -2.594675 -0.306091
5.651391 -6.250130 1.637905
2.183017 -2.415145 -0.170615
6.327319 -7.002581 2.178876
2.178134 -2.411435 -0.056720
6.592431 -7.301109 2.635813
2.181142 -2.421553 -0.873255
2.167653 -2.407423 0.056546
2.188927 -2.431904 -0.755386
2.190358 -2.434347 -0.636539
2.209108 -2.456048 0.289008
2.166047 -2.409018 -0.513105
2.190874 -2.437486 0.402413
2.388133 -2.657882 -0.438730
5.661440 -6.303135 1.341895
2.327215 -2.590993 -0.304696
5.545594 -6.176326 1.613481
2.187914 -2.437614 -0.171662
2.175044 -2.424978 -0.056860
2.179115 -2.436352 -0.875844
2.171232 -2.428391 0.056860
2.176529 -2.435171 -0.754036
5.386748 -6.028984 0.423712
2.191004 -2.452226 -0.639210
2.205830 -2.469688 0.289706
2.182621 -2.444561 -0.519050
2.179709 -2.442157 0.401925
2.397343 -2.686939 -0.442142
6.420425 -7.198536 1.527739
2.237260 -2.508400 -0.294063
5.521388 -6.192716 1.612718
2.186037 -2.452692 -0.172185
6.288648 -7.058224 2.182475
2.173216 -2.440021 -0.057034
6.829055 -7.670152 2.751764
2.178295 -2.452610 -0.878950
2.186640 -2.462872 0.057488
2.165428 -2.439838 -0.753136
6.451263 -7.271343 0.509438
2.196763 -2.476014 -0.643408
2.201162 -2.481845 0.290229
4.749154 -5.356627 -1.133837
2.176437 -2.455693 0.402900
2.351090 -2.653688 -0.435317
5.477160 -6.184275 1.308418
2.187541 -2.469957 -0.288660
5.520559 -6.235470 1.618824
2.185404 -2.469281 -0.172813
6.269136 -7.085970 2.184275
2.171309 -2.455082 -0.057209
6.728024 -7.609999 2.721741
2.174831 -2.465994 -0.881020
2.209768 -2.506490 0.058326
2.162052 -2.453230 -0.754936
5.304918 -6.021483 0.420572
2.198489 -2.495452 -0.646461
2.197753 -2.495494 0.290926
4.723900 -5.365760 -1.132273
2.178344 -2.475197 0.404850
2.364103 -2.687216 -0.439461
5.437277 -6.182590 1.304038
2.206536 -2.508996 -0.292320
5.516908 -6.275345 1.624166
2.189956 -2.491897 -0.173860
6.261085 -7.126843 2.190123
2.182519 -2.485184 -0.057733
2.161119 -2.467757 -0.878950
2.253692 -2.574372 0.059722
2.158610 -2.466628 -0.756735
5.304907 -6.064017 0.422247
4.026634 -4.602828 -1.188740
2.190340 -2.504650 0.291100
4.714242 -5.392627 -1.134463
2.170997 -2.484280 0.405094
5.441648 -6.231289 1.310295
2.412692 -2.762799 -0.320907
5.587929 -6.401051 1.651643
2.204882 -2.526613 -0.175744
6.174679 -7.078166 2.168528
2.205374 -2.528959 -0.058570
6.639188 -7.616009 2.707247
2.161366 -2.485491 -0.882573
2.257811 -2.597315 0.060071
2.161490 -2.487387 -0.760784
5.391110 -6.206137 0.430830
4.013117 -4.619819 -1.189503
2.207711 -2.542368 0.294586
4.688915 -5.401591 -1.132899
2.177924 -2.509835 0.408019
5.503551 -6.344517 -1.031259
5.443160 -6.277110 1.315927
2.617101 -3.018069 -0.349495
2.279758 -2.630896 -0.182443
6.194590 -7.151230 2.184275
2.226640 -2.571411 -0.059373
6.642908 -7.674193 2.719671
2.164040 -2.506180 -0.887232
2.162979 -2.506720 -0.764384
7.336635 -8.505572 0.588675
3.998249 -4.635286 -1.189885
5.714337 -6.627135 0.765576
4.667452 -5.414933 -1.132273
2.179516 -2.529453 0.409968
5.445096 -6.321575 -1.024434
5.488239 -6.373912 1.332196
2.566249 -2.980381 -0.344091
15.894164 -18.465628 4.735879
2.400828 -2.790235 -0.192910
10.801435 -12.562259 -0.289186
6.323934 -7.357445 2.599579
10.819426 -12.623240 0.290199
3.486813 -4.069571 -1.237231
7.319892 -8.546300 0.589722
3.982044 -4.649214 -1.189885
6.595640 -7.703425 0.887245
4.652375 -5.435695 -1.133211
2.171964 -2.538554 0.410212
5.379127 -6.289252 -1.016147
5.414609 -6.332974 1.319681
2.466492 -2.884831 -0.332063
2.406642 -2.816820 -0.194166
10.812052 -12.663759 -0.290652
6.355903 -7.447069 2.623390
3.103269 -3.645040 -1.282707
10.637917 -12.499508 0.286499
3.482688 -4.093591 -1.240830
7.411644 -8.714814 0.599561
3.970879 -4.669068 -1.191411
6.594520 -7.756759 0.890732
4.643607 -5.463943 -1.135714
2.152807 -2.534017 0.408262
5.328871 -6.274704 -1.010785
6.594205 -7.767372 1.613778
2.424171 -2.855452 -0.327706
5.358275 -6.313793 1.609665
6.097291 -7.187135 -0.493947
10.853127 -12.802096 -0.292956
6.344858 -7.486895 2.629602
3.084291 -3.648474 -1.280119
3.470892 -4.108700 -1.241730
10.710957 -12.683683 0.870033
3.952023 -4.679901 -1.190648
7.019797 -8.315635 0.952089
4.639793 -5.498236 -1.139469
2.137549 -2.533930 0.407044
5.283901 -6.265950 -1.006397
2.374381 -2.816673 -0.322302
6.078600 -7.216013 -0.494470
10.795495 -12.824603 -0.292607
6.263956 -7.443959 2.606826
3.072779 -3.660697 -1.280637
22.770498 -27.136822 0.618339
3.459033 -4.123777 -1.242630
6.252137 -7.456290 0.509962
3.938186 -4.696676 -1.191411
5.462545 -6.516934 0.743961
4.606617 -5.497743 -1.136027
2.109571 -2.518549 0.403388
5.218667 -6.232607 -0.998110
5.474784 -6.540806 1.350968
2.520550 -3.011338 -0.343568
6.037997 -7.218803 -0.493214
10.825043 -12.951200 -0.294632
6.122737 -7.327907 2.558685
3.064929 -3.677337 -1.282707
3.443371 -4.134328 -1.242180
6.399870 -7.686816 0.524197
3.929305 -4.719447 -1.193701
5.470353 -6.572716 0.748145
4.597506 -5.525938 -1.138530
5.640972 -6.782531 1.083175
5.179112 -6.229416 -0.994698
5.420353 -6.521896 1.343146
2.352112 -2.830116 -0.321953
6.636786 -7.988372 2.018759
6.003830 -7.229080 -0.492481
10.741458 -12.942743 -0.293584
6.189632 -7.460744 2.597508
3.055769 -3.692479 -1.284260
10.008583 -12.098296 0.274073
3.427677 -4.144822 -1.241730
6.364090 -7.698334 0.523464
3.916559 -4.737673 -1.194846
6.470345 -7.829648 0.888640
4.573156 -5.535860 -1.137279
5.325890 -6.453932 1.325313
2.356168 -2.855212 -0.323871
6.576379 -7.972115 2.008837
5.972206 -7.242289 -0.491958
4.975559 -6.035835 1.805907
10.787776 -13.091272 -0.296098
6.664693 -8.090672 2.808704
3.042862 -3.703123 -1.284260
10.248068 -12.476202 0.281821
3.415661 -4.159773 -1.242630
5.504641 -6.706231 0.454695
3.890033 -4.739176 -1.191793
5.530495 -6.740126 0.762787
4.561321 -5.560954 -1.139156
7.285122 -8.884849 1.410760
2.372068 -2.893977 -0.459447
5.345895 -6.524434 1.335950
5.174744 -6.315551 -0.714328
5.097985 -6.224087 1.563871
5.975991 -7.298634 -0.494365
5.266735 -6.434694 1.919732
10.615383 -12.974082 -0.292607
3.027475 -3.710728 -1.283225
3.406045 -4.177712 -1.244429
5.569453 -6.831258 0.461917
3.870986 -4.749682 -1.191030
5.481765 -6.728498 0.759301
4.538140 -5.572247 -1.138217
6.652483 -8.171297 1.293765
2.424603 -2.979222 -0.471634
5.246922 -6.447135 1.316553
5.145122 -6.324303 -0.713283
5.071275 -6.235753 1.562344
6.681216 -8.218303 -0.555075
10.650494 -13.105428 -0.294771
3.014503 -3.721273 -1.283225
10.052141 -12.408931 0.278750
3.397078 -4.195042 -1.246229
5.921311 -7.314820 0.493214
3.865498 -4.776901 -1.194464
5.453232 -6.741395 0.758604
4.523364 -5.591873 -1.139156
6.627846 -8.196401 1.294253
2.399735 -2.968720 -0.468710
5.214454 -6.453120 1.314050
5.126771 -6.346874 -0.713806
6.521080 -8.073009 2.017233
6.835865 -8.465731 -0.570253
5.222815 -6.470394 1.919732
10.436414 -12.933989 -0.290094
3.004568 -3.734259 -1.284260
5.842832 -7.264421 0.162726
3.371424 -4.193206 -1.242180
3.852096 -4.792754 -1.195228
5.525687 -6.877482 0.771851
4.508765 -5.613789 -1.140407
5.652191 -7.039967 1.108524
2.442786 -3.043648 -0.479190
6.005294 -7.485116 1.519917
5.101955 -6.359178 -0.713283
6.446184 -8.037524 2.002731
6.898721 -8.604854 -0.577998
11.025102 -13.761577 -0.307791
6.018744 -7.515306 2.579908
2.993927 -3.747743 -1.285295
5.816191 -7.283209 0.162691
3.361630 -4.211040 -1.243979
5.445290 -6.823640 0.457521
3.837791 -4.809240 -1.195991
5.740201 -7.195775 0.805319
4.486678 -5.626404 -1.139782
5.632533 -7.065863 1.109499
2.387611 -2.996268 -0.470416
5.988976 -7.518394 1.522420
5.089658 -6.389416 -0.714677
5.065496 -6.361361 1.580662
6.673355 -8.383549 -0.561565
10.970219 -13.786515 4.067565
10.836331 -13.623135 -0.303846
6.047781 -7.605826 2.603720
2.983227 -3.761198 -1.286331
10.997546 -13.870476 0.308977
3.348120 -4.224277 -1.244429
10.956985 -13.829233 0.924672
3.819762 -4.821068 -1.195609
5.994615 -7.568747 0.844713
4.471915 -5.648226 -1.141033
7.145306 -9.028073 1.413684
2.329102 -2.943869 -0.460910
5.974949 -7.554748 1.525549
5.109345 -6.460276 -0.720604
10.899870 -13.786781 3.416245
5.562921 -7.038826 -0.470186
10.878537 -13.769674 4.051368
10.402028 -13.171250 -0.292956
10.871669 -13.770861 4.701190
2.967690 -3.768553 -1.285295
6.449212 -8.192543 0.181994
3.336970 -4.240532 -1.245779
5.309846 -6.750034 0.450089
3.800482 -4.831285 -1.194846
6.061757 -7.708655 0.857961
4.459497 -5.673120 -1.142910
5.433433 -6.914589 1.079762
2.294287 -2.920760 -0.456035
5.384918 -6.857775 1.381004
5.105221 -6.501576 -0.723218
10.858952 -13.834010 3.418534
5.528454 -7.045632 -0.469349
10.835218 -13.813700 4.053168
10.114147 -12.899049 -0.286115
10.809231 -13.790482 4.694978
2.958086 -3.783455 -1.286848
5.987119 -7.660405 0.169707
3.325747 -4.256762 -1.247129
5.313297 -6.803157 0.452392
3.789637 -4.852259 -1.196754
6.809700 -8.722294 0.968126
4.439667 -5.688652 -1.142910
5.538695 -7.099416 1.105599
4.718313 -6.050039 -0.942050
5.365806 -6.882762 1.382255
5.080045 -6.516215 -0.722870
5.230310 -6.711377 1.653932
7.078629 -9.086352 -0.603643
10.830036 -13.906785 4.069365
10.221376 -13.129937 -0.290443
5.486107 -7.049753 2.393559
2.944861 -3.793757 -1.286848
5.592571 -7.207301 0.159236
3.306090 -4.262186 -1.245329
6.343259 -8.180629 0.542515
3.776285 -4.870112 -1.197899
6.698653 -8.642077 0.956621
4.413733 -5.696307 -1.141346
4.685011 -6.050776 -0.939613
5.341748 -6.901450 1.382255
5.079219 -6.562267 -0.726007
6.540401 -8.453139 2.077528
6.884351 -8.900886 -0.589722
10.124124 -13.099085 -0.288977
5.435482 -7.035228 2.382171
2.930422 -3.802484 -1.286331
5.562497 -7.220442 0.159096
3.295948 -4.279876 -1.247129
5.034188 -6.539387 0.432504
3.766448 -4.892599 -1.200189
4.409481 -5.732034 -1.145413
5.549501 -7.216591 1.117786
4.620309 -6.010436 -0.930838
5.310402 -6.910656 1.380378
5.346426 -6.957535 -0.767668
6.204687 -8.077345 1.979834
6.865402 -8.940703 -0.590768
5.066730 -6.600704 1.921082
5.870001 -7.649934 -0.168311
6.001127 -7.823647 2.642025
2.924174 -3.821895 -1.289437
9.864532 -12.897608 0.283427
3.280988 -4.291354 -1.247129
5.154442 -6.744170 0.444856
3.741002 -4.894797 -1.197517
5.568891 -7.289079 0.802530
4.389445 -5.747390 -1.145413
5.536323 -7.251696 1.120223
4.575214 -5.994967 -0.925963
5.084959 -6.665303 1.327816
5.238722 -6.866856 -0.755640
6.202645 -8.133297 1.988230
6.750602 -8.855019 -0.583546
5.635432 -7.394883 2.146483
5.839627 -7.665606 -0.168206
6.200840 -8.142715 2.742447
2.902636 -3.821311 -1.285813
3.262454 -4.298124 -1.245779
5.555826 -7.322184 0.481700
3.727453 -4.912518 -1.198662
5.466355 -7.206880 0.791374
4.372937 -5.767399 -1.146352
5.510976 -7.270978 1.120223
4.537476 -5.988749 -0.922551
5.073587 -6.698759 1.330945
5.253214 -6.935925 -0.761218
7.648445 -10.102058 2.462963
6.736527 -8.900825 -0.585011
5.915283 -7.818569 2.263458
7.554634 -9.989016 -0.218609
6.165389 -8.155063 2.739341
2.892769 -3.836047 -1.287366
5.980109 -7.932991 0.173407
3.257986 -4.323494 -1.249828
4.919768 -6.531125 0.428527
3.715007 -4.931771 -1.200189
5.457944 -7.248199 0.793815
4.348026 -5.776315 -1.145100
6.199306 -8.238717 1.265979
4.499838 -5.982342 -0.919139
5.000313 -6.650117 1.317804
5.232564 -6.958997 -0.761741
7.551796 -10.047088 2.443119
6.904574 -9.189346 -0.602387
5.354282 -7.128644 2.058302
7.488502 -9.973748 -0.217701
6.113691 -8.145633 2.728988
2.878203 -3.844574 -1.286848
6.094960 -8.144337 0.177561
3.238205 -4.328598 -1.248029
4.975885 -6.653824 0.435435
3.702473 -4.950998 -1.201715
5.597235 -7.487425 0.817869
4.329019 -5.793040 -1.145413
5.488594 -7.347443 1.126073
4.469427 -5.985288 -0.917189
5.957831 -7.981408 1.577485
5.252337 -7.036294 -0.768191
7.415706 -9.938069 2.410300
6.828272 -9.154158 -0.598514
5.415569 -7.262896 2.091595
7.432130 -9.970967 -0.217073
7.456474 -10.007271 3.343942
2.876289 -3.870103 -1.292025
5.535809 -7.451256 0.162028
3.225399 -4.343004 -1.248928
4.981202 -6.709640 0.437947
3.688679 -4.968621 -1.202860
5.761041 -7.762908 0.845759
4.319363 -5.822394 -1.148229
4.401220 -5.937065 -0.907439
6.089884 -8.218001 1.620036
5.290615 -7.139426 -0.777429
7.376296 -9.957582 2.408773
6.779636 -9.155466 -0.597049
5.202356 -7.028014 2.018711
5.953269 -8.045382 -0.174699
5.803931 -7.846426 2.615108
2.860469 -3.877011 -1.290990
6.516290 -8.835252 0.191627
3.210220 -4.354236 -1.248928
4.968406 -6.738982 0.438785
3.667818 -4.976726 -1.201715
5.587369 -7.584064 0.824145
4.294328 -5.831074 -1.146978
5.430104 -7.375989 1.124610
4.366350 -5.933206 -0.904514
6.039183 -8.206331 1.613778
5.257397 -7.146616 -0.776209
5.671280 -7.712045 1.860770
6.763014 -9.199996 -0.598409
5.146635 -7.003732 2.006563
5.770253 -7.852374 -0.170091
5.824772 -7.929465 2.636331
2.844635 -3.883855 -1.289954
6.323895 -8.634181 0.186811
3.202670 -4.374292 -1.251628
5.473310 -7.478329 0.485678
3.652743 -4.992667 -1.202478
5.537339 -7.571358 0.820658
4.291293 -5.867604 -1.151358
5.261511 -7.196846 1.094630
4.341966 -5.941242 -0.903539
5.649264 -7.732891 1.516789
5.213618 -7.139181 -0.773420
5.629465 -7.708612 1.855427
6.754843 -9.253021 -0.600398
5.139463 -7.042798 2.012862
5.693311 -7.804616 -0.168625
5.835757 -8.002819 2.653931
2.830603 -3.891704 -1.289437
5.733963 -7.886332 0.170196
3.189673 -4.388597 -1.252527
3.640782 -5.011106 -1.204005
5.372875 -7.397841 0.799915
4.266143 -5.876154 -1.150106
5.039309 -6.943656 1.053439
4.297887 -5.924226 -0.898665
5.824025 -8.030811 1.571228
5.526470 -7.623307 1.830240
5.842342 -8.061989 -0.521790
5.039395 -6.956537 1.983168
5.708256 -7.882749 -0.169882
5.636735 -7.786844 2.575767
2.818133 -3.903128 -1.289954
5.576495 -7.726315 0.166321
3.168633 -4.391803 -1.250278
3.620971 -5.020599 -1.203242
5.507812 -7.639580 0.823970
4.236366 -5.878190 -1.147603
5.026645 -6.977312 1.055876
4.263260 -5.919862 -0.895740
6.144499 -8.535248 1.665714
5.359922 -7.448142 1.783683
5.799004 -8.061256 -0.520429
5.060591 -7.037372 2.001165
5.779915 -8.040641 -0.172849
5.816946 -8.095138 2.671013
2.814619 -3.927073 -1.294613
5.749809 -8.025328 0.172325
3.156688 -4.407589 -1.251628
5.753957 -8.037042 0.518021
3.613709 -5.047575 -1.206676
5.573875 -7.788378 0.837915
4.204328 -5.876875 -1.144475
4.926046 -6.888246 1.039789
4.231025 -5.918559 -0.893302
5.508255 -7.708050 1.500520
5.223233 -7.309201 -0.785971
5.353291 -7.493964 1.790170
5.765026 -8.073321 -0.519905
5.757621 -8.068908 -0.173023
5.668617 -7.947109 2.615625
2.796414 -3.930578 -1.292542
5.755370 -8.092607 0.173337
3.143542 -4.421759 -1.252527
5.710826 -8.035913 0.516661
3.590381 -5.052157 -1.204768
5.692041 -8.012443 0.859879
4.165488 -5.865746 -1.139469
4.922656 -6.934536 1.044177
4.182769 -5.894439 -0.887453
5.681322 -8.009188 1.555272
5.167717 -7.285138 -0.781438
5.681406 -8.012271 1.909235
7.037323 -9.928140 -0.637766
6.984100 -9.856702 2.788943
5.753693 -8.123224 -0.173756
2.781990 -3.940800 -1.292542
3.131808 -4.439620 -1.254327
5.837014 -8.274493 0.530687
3.574103 -5.068491 -1.205531
5.689039 -8.070706 0.863888
4.134859 -5.868056 -1.136966
4.908638 -6.968760 1.046614
4.149708 -5.893498 -0.885015
5.132952 -7.292624 -0.780218
5.644094 -8.021802 1.906564
6.973311 -9.914658 -0.635254
6.925511 -9.850349 2.779945
6.963983 -9.905068 -0.211349
5.529686 -7.867947 2.576802
2.763782 -3.944159 -1.290472
3.119304 -4.453173 -1.255227
5.164278 -7.375353 0.471861
3.563144 -5.090587 -1.207821
5.531762 -7.906047 0.844191
4.113112 -5.878499 -1.136340
4.177916 -5.975555 -0.895252
4.880664 -6.983274 1.349404
5.104042 -7.305597 -0.779695
6.982473 -9.994264 2.369848
6.917522 -9.904979 -0.633160
5.521832 -7.909474 2.227015
6.914487 -9.908000 -0.210895
5.431449 -7.785800 2.543674
2.761721 -3.969159 -1.295648
7.008531 -10.076447 0.214246
3.100403 -4.459234 -1.253877
6.321680 -9.095705 0.580510
3.546243 -5.102375 -1.207821
5.687401 -8.186147 0.872080
4.063270 -5.850636 -1.128206
5.689761 -8.195646 1.225031
4.168349 -6.006412 -0.897690
5.125214 -7.387964 -0.786668
5.987642 -8.634367 2.042420
6.861285 -9.897878 -0.631172
6.812794 -9.831590 2.761499
5.695641 -8.222482 -0.174594
2.748948 -3.980366 -1.296166
7.011943 -10.156801 0.215433
3.082605 -4.466822 -1.252977
6.931809 -10.048229 0.639755
3.533985 -5.122803 -1.209729
5.973232 -8.661926 0.920539
4.038339 -5.858278 -1.126954
6.911385 -10.029855 1.495581
4.142853 -6.014386 -0.896715
6.142529 -8.920746 1.715461
5.075665 -7.371349 -0.783007
6.845742 -9.945734 2.346951
6.804051 -9.888860 -0.629078
6.768494 -9.840859 2.757450
5.644246 -8.209358 -0.173896
5.321157 -7.742332 2.517274
2.738313 -3.994717 -1.297719
5.606476 -8.181923 0.173128
3.074703 -4.488809 -1.256127
5.743483 -8.388144 0.532780
3.516082 -5.135108 -1.209729
6.222045 -9.090472 0.963768
4.000017 -5.846254 -1.121948
4.137519 -6.051753 -0.900127
5.527301 -8.087550 1.551517
5.028543 -7.357767 -0.779695
6.799909 -9.953360 2.343135
6.750343 -9.884511 -0.627299
5.026680 -7.363314 2.058302
5.612174 -8.224054 -0.173791
5.715407 -8.378472 2.717600
2.717832 -3.994668 -1.294613
3.063398 -4.505961 -1.257926
4.997932 -7.354232 0.465999
3.498135 -5.147349 -1.209729
3.957390 -5.827498 -1.115691
5.596937 -8.244925 1.223568
4.120828 -6.072729 -0.901102
4.827043 -7.116127 1.361919
5.716401 -8.427238 -0.890906
6.046742 -8.917584 2.094320
6.691146 -9.871642 -0.624996
6.651532 -9.816889 2.737654
6.686886 -9.872777 -0.208137
6.643560 -9.812496 3.175192
2.707115 -4.008934 -1.296166
3.049830 -4.519857 -1.258826
4.981164 -7.384880 0.466837
3.477951 -5.156274 -1.208966
5.336416 -7.914542 0.835126
3.917152 -5.811791 -1.110059
5.381779 -7.987834 1.182620
4.077427 -6.054146 -0.896227
5.393482 -8.011237 1.529616
4.343935 -6.452287 -0.680512
5.511357 -8.189407 1.918775
6.644383 -9.876710 -0.623845
5.678741 -8.444489 2.349389
6.631186 -9.864527 -0.207474
5.646000 -8.402134 2.712424
2.695256 -4.021568 -1.297201
8.400938 -12.539700 0.263462
3.029697 -4.523999 -1.257027
5.188681 -7.750758 0.488818
3.468668 -5.181434 -1.212019
5.253354 -7.850328 0.826411
3.885858 -5.809010 -1.106930
5.519379 -8.254095 1.219181
4.027587 -6.025433 -0.889890
5.435722 -8.135133 1.549640
4.316958 -6.460784 -0.679815
5.506726 -8.244513 1.927171
6.586576 -9.864961 -0.621647
5.704403 -8.546926 2.372334
6.588944 -9.875970 -0.207230
5.624140 -8.433042 2.716047
2.686551 -4.038994 -1.299789
3.011729 -4.531301 -1.256127
3.453820 -5.198416 -1.213164
5.135532 -7.732524 0.812117
3.863371 -5.819247 -1.106305
5.453212 -8.217075 1.210894
4.026283 -6.069231 -0.894277
5.315588 -8.015769 1.523359
5.701615 -8.597888 -0.902585
5.521303 -8.329139 1.942436
6.534451 -9.861254 -0.619972
5.678838 -8.573285 2.374134
6.535662 -9.870564 -0.206636
5.619193 -8.489674 2.727953
2.671372 -4.046736 -1.299272
17.681499 -26.795042 0.560362
3.004478 -4.554801 -1.259726
3.428088 -5.198967 -1.210492
3.816951 -5.793109 -1.098796
5.736776 -8.710196 1.280603
3.957042 -6.010296 -0.883553
5.433095 -8.255387 1.565283
5.758098 -8.749218 -0.916355
6.571212 -9.988510 2.324054
6.482430 -9.857303 -0.618297
5.691697 -8.658192 2.392130
6.473713 -9.851539 -0.205764
6.435907 -9.797731 3.141028
2.660405 -4.060884 -1.300825
5.523732 -8.434719 0.175990
2.987493 -4.563629 -1.259276
5.076610 -7.757874 0.485887
3.409919 -5.210902 -1.210492
3.790220 -5.796478 -1.096919
5.365303 -8.208419 1.204069
3.930609 -6.015763 -0.882334
5.265980 -8.062607 1.525236
5.827758 -8.922731 -0.932392
6.106991 -9.353826 2.171407
6.423966 -9.843075 -0.615994
5.710419 -8.753084 2.412825
6.416347 -9.838901 -0.205031
6.386898 -9.797481 3.133781
2.645161 -4.068525 -1.300307
5.505152 -8.470716 0.176339
2.977915 -4.583835 -1.261975
5.049499 -7.775547 0.485887
3.401332 -5.237592 -1.213927
3.757060 -5.789788 -1.093164
5.468412 -8.430277 1.233805
3.903107 -6.019453 -0.880872
5.132511 -7.918492 1.494575
5.881102 -9.073427 -0.945988
5.438050 -8.393091 1.943962
6.372196 -9.838616 -0.614320
5.910709 -9.129575 2.510904
6.364580 -9.834378 -0.204472
6.331672 -9.787275 3.123428
2.637228 -4.087474 -1.303413
2.959785 -4.590926 -1.261076
5.007181 -7.769622 0.484422
