# This PCD file was generated using the MATLAB® pcwrite function
# from Computer Vision Toolbox®.
# .PCD v.7 - Point Cloud Data file format
VERSION .7
FIELDS x y z
SIZE 4 4 4
TYPE F F F
COUNT 1 1 1
WIDTH 1569
HEIGHT 1
VIEWPOINT 0 0 0 1 0 0 0
POINTS 1569
DATA ascii
-13.028489 -7.440364 3.463796
-12.990303 -7.412545 4.007555
-1.123297 -0.639159 -0.346300
-6.993177 -3.975909 -1.857196
-8.476319 -4.817176 -1.895115
-10.591649 -6.014449 -1.929150
-13.099694 -7.435615 1.849489
-13.292638 -7.542067 -1.876544
-13.091430 -7.424883 2.383749
-13.126807 -7.441920 2.933116
-20.425943 -11.575275 -1.230418
-13.098467 -7.419814 3.475494
-15.666142 -8.870698 -0.314248
-13.086710 -7.407121 4.029295
-1.137298 -0.641881 -0.349923
-7.007014 -3.951472 -1.857196
-8.494792 -4.788522 -1.895497
-10.636675 -5.991012 -1.933530
-13.187842 -7.424904 1.858264
-13.374241 -7.526778 -1.884344
-13.182692 -7.415944 2.395638
-13.197197 -7.421072 2.943038
-13.192245 -7.412228 3.493490
-15.923672 -8.943259 -0.318786
-13.166391 -7.391657 4.045859
-1.146274 -0.641682 -0.351994
-7.029268 -3.931745 -1.859445
-8.506314 -4.755969 -1.894352
-10.671319 -5.961554 -1.936033
-13.279539 -7.415605 1.867526
-13.445502 -7.505200 -1.890681
-13.287848 -7.414157 2.410030
-13.264171 -7.397914 2.952197
-13.275915 -7.398387 3.508786
-6.014462 -3.339363 -1.843309
-7.049765 -3.910967 -1.861245
-8.485092 -4.705301 -1.885956
-10.728347 -5.944375 -1.942603
-13.364387 -7.401906 1.875813
-13.554979 -7.504371 -1.902381
-13.375867 -7.402165 2.421293
-13.375812 -7.399081 2.971278
-13.352824 -7.380283 3.522284
-42.338612 -23.391457 -0.844313
-6.021007 -3.315551 -1.841756
-7.071910 -3.891032 -1.863495
-8.487703 -4.668082 -1.882903
-10.806161 -5.938283 -1.952928
-13.456259 -7.391523 1.885075
-13.699413 -7.521981 -1.918955
-13.467429 -7.391546 2.433182
-13.473849 -7.392005 2.987306
-13.474200 -7.386085 3.547478
-6.037629 -3.297292 -1.843309
-7.102556 -3.875657 -1.867994
-8.495328 -4.633728 -1.880995
-10.830296 -5.902415 -1.953554
-13.565652 -7.390093 1.896775
-13.784863 -7.506392 -1.927242
-13.534790 -7.367152 2.440691
-13.551304 -7.373079 2.998754
-21.295090 -11.581552 -1.270403
-13.544416 -7.363202 3.559175
-6.059294 -3.281717 -1.846415
-7.112614 -3.848985 -1.867094
-8.544260 -4.621792 -1.888246
-10.847355 -5.862698 -1.952928
-13.633281 -7.365340 1.902624
-13.880847 -7.495958 -1.936992
-13.654741 -7.373856 2.457899
-13.628792 -7.353699 3.010203
-21.338905 -11.509038 -1.270612
-13.624927 -7.345474 3.573572
-6.079222 -3.265117 -1.849003
-7.128771 -3.827223 -1.867994
-8.582833 -4.604004 -1.893207
-14.061245 -7.539574 1.395886
-10.877183 -5.832295 -1.954805
-13.717118 -7.351973 1.910911
-13.965122 -7.481759 -1.945279
-13.743088 -7.359718 2.469162
-13.729261 -7.349231 3.026994
-21.472048 -11.489100 -1.276265
-13.735129 -7.346205 3.596068
-6.090017 -3.244939 -1.849003
-7.150690 -3.806893 -1.870243
-8.592853 -4.572749 -1.892062
-14.114312 -7.507877 1.398675
-10.913173 -5.802637 -1.957621
-13.816320 -7.343175 1.921149
-14.033225 -7.455321 -1.951128
-13.800098 -7.328377 2.474793
-13.831132 -7.341763 3.043785
-21.621407 -11.472116 -1.282754
-13.802007 -7.320129 3.606865
-13.969995 -7.402974 4.236350
-6.091057 -3.218247 -1.845898
-7.174274 -3.787367 -1.872942
-8.605289 -4.540896 -1.891299
-14.179205 -7.479009 1.402510
-10.936856 -5.766350 -1.958247
-13.943723 -7.348585 1.935285
-14.097805 -7.426641 -1.956491
-13.930468 -7.335383 2.493566
-13.940063 -7.337333 3.062103
-13.906816 -7.313632 3.627561
-6.103965 -3.197862 -1.846415
-7.199536 -3.768629 -1.876092
-8.621087 -4.510830 -1.891299
-14.155793 -7.403615 1.397629
-10.984925 -5.742783 -1.963253
-14.022072 -7.327445 1.942598
-14.197541 -7.415986 -1.966728
-14.008517 -7.314143 2.502952
-14.478861 -7.559719 -1.429006
-14.028251 -7.321326 3.075841
-13.994462 -7.297483 3.643757
-18.890623 -9.846412 -0.371841
-6.125377 -3.181878 -1.849521
-7.212647 -3.743475 -1.876092
-8.622840 -4.473474 -1.888246
-14.223997 -7.376173 1.401813
-10.997890 -5.700767 -1.962001
-14.096914 -7.304024 1.949422
-14.360832 -7.437593 -1.985739
-14.111152 -7.305158 2.516718
-14.459159 -7.485317 -1.424473
-14.154851 -7.324645 3.097975
-14.502439 -7.501305 -0.855693
-14.127178 -7.304074 3.671651
-14.558281 -7.523745 -0.286045
-6.148468 -3.166670 -1.853144
-14.546967 -7.488970 0.285591
-7.229136 -3.720058 -1.876992
-14.624209 -7.522279 0.861869
-8.631419 -4.439757 -1.886719
-14.331166 -7.368383 1.409831
-11.066918 -5.687622 -1.970762
-14.217672 -7.303757 1.962584
-14.450278 -7.420062 -1.994514
-14.220922 -7.299150 2.531736
-14.485202 -7.434796 -1.424473
-14.211774 -7.291326 3.104844
-14.503654 -7.437876 -0.854228
-14.204614 -7.281385 3.685148
-14.534626 -7.447349 -0.285068
-6.169808 -3.150460 -1.856250
-14.551646 -7.427237 0.285172
-7.255965 -3.701887 -1.880591
-14.582767 -7.436706 0.857891
-8.618881 -4.395330 -1.880614
-14.445553 -7.363554 1.418547
-11.164146 -5.688418 -1.984528
-14.317376 -7.291923 1.972821
-14.483169 -7.373178 -1.995489
-14.306171 -7.279928 2.542373
-14.495083 -7.376059 -1.422905
-14.317634 -7.282615 3.122398
-14.499265 -7.371812 -0.852448
-14.323757 -7.279434 3.709443
-14.519526 -7.375741 -0.284265
-6.173873 -3.125413 -1.854180
-14.557858 -7.366465 0.284788
-7.282755 -3.683572 -1.884190
-14.592596 -7.377646 0.856949
-8.641179 -4.368761 -1.882140
-14.542298 -7.349030 1.425519
-11.206856 -5.660992 -1.988595
-14.424253 -7.283057 1.984033
-14.629324 -7.383397 -2.012063
-14.412623 -7.270872 2.556765
-14.570549 -7.350543 -1.427785
-14.430618 -7.276791 3.141479
-14.569497 -7.343629 -0.855065
-14.415210 -7.262712 3.726539
-14.564831 -7.334907 -0.284649
-6.191651 -3.107311 -1.856250
-14.595996 -7.321880 0.285033
-7.300793 -3.660748 -1.885540
-14.609331 -7.322192 0.856426
-8.638824 -4.329776 -1.878324
-14.635553 -7.332135 1.432143
-11.231848 -5.624491 -1.989534
-14.499293 -7.257537 1.990858
-14.726021 -7.367815 -2.021812
-14.522719 -7.262929 2.571783
-14.678089 -7.340631 -1.435804
-14.519151 -7.257973 3.155218
-14.686158 -7.338259 -0.860403
-14.517183 -7.250661 3.746335
-14.678014 -7.327784 -0.286359
-6.212838 -3.090840 -1.859356
-14.709200 -7.314514 0.286743
-7.317018 -3.636978 -1.886440
-14.695618 -7.301363 0.859985
-8.636305 -4.290857 -1.874508
-14.743143 -7.321768 1.440161
-11.285029 -5.601941 -1.995478
-14.624119 -7.256295 2.004507
-14.797888 -7.339299 -2.028150
-14.622314 -7.249045 2.584923
-14.787520 -7.330946 -1.443996
-14.635871 -7.252580 3.175062
-14.767167 -7.314431 -0.863648
-14.601785 -7.229337 3.761631
-14.776983 -7.312871 -0.287790
-6.233986 -3.074261 -1.862462
-14.811768 -7.301146 0.288244
-7.331417 -3.612275 -1.886889
-14.803434 -7.290612 0.864799
-8.651230 -4.260684 -1.874508
-14.836535 -7.303701 1.446785
-11.339966 -5.579955 -2.001736
-14.717049 -7.238495 2.013769
-14.901799 -7.326139 -2.038874
-14.718448 -7.232805 2.597438
-14.879183 -7.311791 -1.450446
-14.721011 -7.230875 3.188037
-14.889421 -7.310372 -0.869300
-14.696907 -7.212668 3.779628
-14.902957 -7.310563 -0.289745
-6.248149 -3.054180 -1.863497
-14.916217 -7.288023 0.289780
-7.357990 -3.593501 -1.890489
-14.895726 -7.274787 0.868777
-8.651935 -4.223572 -1.871455
-14.869104 -7.255363 1.447483
-11.368251 -5.544666 -2.003300
-14.817167 -7.223618 2.024006
-14.995093 -7.307121 -2.048136
-14.838242 -7.230687 2.614333
-14.997759 -7.305178 -1.459510
-14.834419 -7.222414 3.207118
-14.990276 -7.295060 -0.873697
-14.848168 -7.222698 3.812021
-14.993654 -7.293468 -0.291036
-6.258772 -3.032351 -1.863497
-15.026687 -7.280371 0.291455
-7.380390 -3.574178 -1.893188
-15.010916 -7.266262 0.874011
-8.656022 -4.188214 -1.869165
-14.940972 -7.225965 1.452015
-11.431033 -5.528438 -2.011122
-14.933976 -7.219365 2.036680
-15.094310 -7.293628 -2.058373
-14.941660 -7.216646 2.628099
-15.082376 -7.281365 -1.465262
-14.953760 -7.219273 3.227725
-15.095328 -7.284374 -0.878407
-14.921184 -7.197124 3.824618
-15.100078 -7.280165 -0.292607
-6.274018 -3.014089 -1.865050
-15.124113 -7.262497 0.292851
-7.410389 -3.556828 -1.897687
-15.114154 -7.254469 0.878616
-8.659243 -4.154391 -1.866875
-15.025935 -7.205674 1.457941
-11.480543 -5.503017 -2.016440
-15.048594 -7.210081 2.048867
-15.212780 -7.285477 -2.071048
-15.040335 -7.202892 2.641240
-15.194498 -7.273462 -1.473804
-15.031998 -7.192455 3.239174
-15.212559 -7.275582 -0.883745
-15.023576 -7.181977 3.844413
-15.205324 -7.268862 -0.294178
-6.293222 -2.996322 -1.867638
-15.223946 -7.248408 0.294317
-7.415105 -3.528883 -1.895887
-15.229564 -7.244564 0.883850
-8.655961 -4.115709 -1.863059
-15.137373 -7.194227 1.466308
-11.498729 -5.464916 -2.016440
-15.129801 -7.187396 2.056667
-15.258372 -7.245210 -2.073973
-15.151048 -7.191004 2.656258
-15.298998 -7.257958 -1.481473
-15.130264 -7.177910 3.255202
-15.306980 -7.258472 -0.887827
-15.149445 -7.180527 3.870508
-15.319152 -7.257696 -0.295888
-6.310112 -2.978735 -1.869709
-15.346809 -7.241305 0.296202
-7.434428 -3.506304 -1.897687
-15.330637 -7.227128 0.888246
-8.648252 -4.076936 -1.858480
-15.247655 -7.184761 1.474675
-11.508800 -5.420539 -2.014876
-15.226637 -7.168360 2.066417
-15.394934 -7.244303 -2.089084
-15.258280 -7.176751 2.670650
-15.425211 -7.251980 -1.491235
-15.222744 -7.156792 3.269703
-15.415378 -7.244068 -0.892642
-15.230858 -7.154117 3.884905
-15.425849 -7.242421 -0.297459
-6.331487 -2.960497 -1.872815
-15.449887 -7.224108 0.297703
-7.455449 -3.484457 -1.899937
-15.429960 -7.208232 0.892537
-8.689819 -4.057671 -1.864204
-15.389434 -7.182753 1.485831
-11.567972 -5.396693 -2.021759
-15.366700 -7.168877 2.082016
-15.369750 -7.167033 -2.082260
-15.387085 -7.171848 2.688796
-15.528090 -7.234271 -1.498730
-15.377013 -7.160621 3.297180
-15.525116 -7.226292 -0.897457
-15.345323 -7.139342 3.907400
-15.543504 -7.231545 -0.299239
-6.338276 -2.936753 -1.871779
-15.576060 -7.213656 0.299623
-7.477013 -3.461201 -1.902186
-15.548722 -7.194400 0.897876
-8.718184 -4.033907 -1.867257
-15.475899 -7.157426 1.491758
-11.602878 -5.363740 -2.024575
-15.461350 -7.144147 2.091278
-15.345455 -7.087347 -2.075435
-15.470659 -7.141897 2.698808
-15.638268 -7.219272 -1.506923
-15.487482 -7.146384 3.315497
-15.655436 -7.220570 -0.903528
-15.490492 -7.141216 3.937993
-15.644365 -7.208843 -0.300670
-15.578050 -7.174989 4.595591
-6.350245 -2.915416 -1.872297
-15.677481 -7.194270 0.301089
-7.504990 -3.442392 -1.906235
-15.660888 -7.180035 0.902900
-8.823230 -4.045179 -1.886719
-15.605839 -7.151505 1.501868
-11.612550 -5.319092 -2.023011
-15.587271 -7.136410 2.104928
-15.543386 -7.113037 -2.098834
-15.588906 -7.130578 2.715077
-15.759399 -7.208564 -1.516161
-15.587323 -7.126565 3.331525
-15.753210 -7.199085 -0.907715
-15.760387 -7.195716 -0.302415
-6.372691 -2.898833 -1.875920
-15.788056 -7.178398 0.302729
-7.508091 -3.412143 -1.903986
-15.779162 -7.171031 0.908343
-8.953481 -4.067135 -1.911525
-15.717791 -7.136521 1.510235
-11.658030 -5.290770 -2.027704
-15.709703 -7.126242 2.118089
-15.698294 -7.117758 -2.116383
-15.713216 -7.124524 2.732598
-15.869760 -7.192164 -1.524354
-15.701521 -7.112619 3.350606
-15.861938 -7.181946 -0.912530
-15.877075 -7.185462 -0.304195
-6.384533 -2.877364 -1.876438
-15.908399 -7.169553 0.304579
-7.535356 -3.394429 -1.908035
-15.893333 -7.156091 0.913472
-8.998058 -4.049554 -1.918012
-15.840723 -7.125749 1.519647
-11.689922 -5.258564 -2.030207
-15.791183 -7.100156 2.125889
-15.819586 -7.109602 -2.129545
-15.824482 -7.108484 2.747615
-15.994733 -7.181612 -1.533941
-15.821733 -7.103936 3.371214
-15.971308 -7.167741 -0.917449
-15.987819 -7.168452 -0.305836
-6.404623 -2.860904 -1.879544
-16.024626 -7.154737 0.306325
-7.559615 -3.373666 -1.911184
-16.009418 -7.141251 0.918705
-9.027575 -4.026891 -1.921447
-15.962531 -7.116992 1.529060
-11.728053 -5.226574 -2.033648
-15.917421 -7.090225 2.139539
-15.826171 -7.046264 -2.127108
-15.950261 -7.098182 2.765136
-16.107084 -7.164604 -1.542308
-15.936126 -7.088560 3.390295
-16.107555 -7.161442 -0.923834
-16.102297 -7.152373 -0.307546
-6.416832 -2.838192 -1.880062
-16.142769 -7.140014 0.308105
-7.574909 -3.348833 -1.912084
-16.138380 -7.131334 0.924672
-9.051253 -3.997742 -1.923355
-16.072351 -7.095456 1.537079
-11.770626 -5.193917 -2.037716
-16.069204 -7.090712 2.156600
-15.825242 -6.979766 -2.123695
-16.021938 -7.063179 2.773271
-16.221336 -7.147697 -1.550849
-16.087769 -7.085495 3.417008
-16.226923 -7.143401 -0.929173
-16.222343 -7.138001 -0.309361
-6.424932 -2.815000 -1.879544
-16.264082 -7.122513 0.309920
-7.601415 -3.327299 -1.915683
-16.252237 -7.110565 0.929696
-9.059756 -3.963761 -1.922210
-16.210199 -7.088803 1.547886
-11.819453 -5.166250 -2.043034
-16.149654 -7.055613 2.163912
-15.912573 -6.948723 -2.131983
-16.203415 -7.072366 2.800177
-16.344791 -7.134072 -1.560262
-16.187981 -7.062266 3.433036
-16.350622 -7.129820 -0.934825
-16.341892 -7.119230 -0.311142
-6.448895 -2.798708 -1.883685
-16.371401 -7.101507 0.311491
-7.614771 -3.301519 -1.916133
-16.375917 -7.096676 0.935348
-9.093352 -3.940700 -1.926408
-16.300661 -7.060684 1.554161
-11.857356 -5.133594 -2.046476
-16.309002 -7.057537 2.181949
-15.838345 -6.850584 -2.118821
-16.311411 -7.051821 2.814569
-16.472008 -7.121251 -1.570023
-16.320667 -7.052442 3.455933
-16.463419 -7.110718 -0.939849
-16.476807 -7.109673 -0.313236
-6.471049 -2.781522 -1.887309
-16.510002 -7.093256 0.313655
-7.631620 -3.277225 -1.917483
-16.489286 -7.080948 0.940477
-9.134113 -3.920551 -1.932132
-16.431408 -7.049301 1.564271
-11.904251 -5.104629 -2.051482
-16.413818 -7.034973 2.192673
-16.229536 -6.955989 -2.168056
-16.443653 -7.044363 2.833341
-16.608492 -7.111549 -1.580657
-16.406551 -7.021692 3.468908
-16.596481 -7.099552 -0.946025
-16.599581 -7.097451 -0.315121
-6.482014 -2.760804 -1.887826
-16.618071 -7.074498 0.315260
-7.649619 -3.254952 -1.919282
-16.610081 -7.067674 0.946025
-9.159711 -3.895618 -1.934803
-16.561043 -7.039981 1.574381
-11.926569 -5.067442 -2.052420
-16.539375 -7.023960 2.206323
-16.336563 -6.937829 -2.179268
-16.532383 -7.017581 2.844604
-16.731026 -7.098454 -1.590069
-16.512888 -7.002509 3.486462
-16.715555 -7.085007 -0.951468
-16.711407 -7.079808 -0.316796
-6.484015 -2.736289 -1.885756
-16.755672 -7.067540 0.317424
-7.671146 -3.234109 -1.921982
-16.730356 -7.049984 0.951468
-9.178007 -3.867509 -1.935948
-16.698141 -7.032973 1.585189
-11.957871 -5.033995 -2.054923
-16.672359 -7.015268 2.220947
-16.316765 -6.862288 -2.173418
-16.669682 -7.007289 2.864002
-16.851818 -7.083852 -1.599308
-16.680817 -7.008549 3.516992
-16.862339 -7.081349 -0.958481
-16.842968 -7.066305 -0.318821
-6.497092 -2.715129 -1.886791
-16.879881 -7.050623 0.319309
-7.696774 -3.213320 -1.925581
-16.867300 -7.038458 0.957853
-9.196887 -3.837716 -1.937093
-16.788786 -7.002251 1.591464
-11.995426 -5.000587 -2.058365
-16.803026 -7.001310 2.235084
-16.439577 -6.846501 -2.186580
-16.814404 -6.999165 2.884652
-16.964733 -7.061741 -1.607675
-16.817564 -6.997033 3.540652
-16.988382 -7.064625 -0.964238
-16.972792 -7.051193 -0.320810
-6.522595 -2.699081 -1.891450
-17.007870 -7.034461 0.321264
-7.727753 -3.194623 -1.930530
-17.002522 -7.025296 0.964133
-9.239259 -3.817582 -1.943199
-16.956764 -7.002930 1.605060
-12.016460 -4.960192 -2.058991
-16.897095 -6.971380 2.244346
-16.408318 -6.766374 -2.179268
-16.915436 -6.972044 2.897792
-17.097961 -7.047275 -1.617959
-16.921757 -6.971189 3.557443
-17.099737 -7.041025 -0.969157
-17.111961 -7.039069 -0.322974
-6.539128 -2.679226 -1.893520
-17.134100 -7.016730 0.323184
-7.803783 -3.194203 -1.946726
-17.117517 -7.002964 0.969262
-9.316125 -3.811328 -1.956556
-17.025366 -6.961794 1.609244
-12.031874 -4.917469 -2.058678
-17.035261 -6.958902 2.259458
-16.332596 -6.668537 -2.166106
-17.045753 -6.956241 2.915939
-17.233139 -7.032712 -1.628418
-17.069601 -6.962503 3.583393
-17.231482 -7.025025 -0.975228
-17.238289 -7.020780 -0.324894
-17.223618 -7.011304 4.982784
-6.548440 -2.656384 -1.893520
-17.308596 -7.017738 0.326011
-7.879905 -3.193292 -1.962923
-17.252932 -6.988158 0.975542
-9.360968 -3.789681 -1.963043
-17.186228 -6.957649 1.622143
-12.034316 -4.869512 -2.056175
-17.188269 -6.951494 2.276520
-16.473562 -6.659098 -2.181705
-17.187149 -6.944057 2.935962
-17.371494 -7.015015 -1.639051
-17.178751 -6.933694 3.600948
-17.390474 -7.015616 -0.982765
-17.353565 -6.997210 -0.326604
-6.559925 -2.633086 -1.894038
-17.412149 -6.985523 0.327477
-7.924114 -3.177444 -1.971021
-17.393368 -6.970942 0.982032
-9.376618 -3.756077 -1.963425
-17.337379 -6.944991 1.633996
-12.026409 -4.815092 -2.051795
-17.335272 -6.937120 2.292606
-16.402014 -6.560339 -2.169031
-17.329874 -6.927949 2.955986
-17.496998 -6.991214 -1.648464
-17.371786 -6.937673 3.636057
-17.518089 -6.992557 -0.988522
-17.501680 -6.982460 -0.328908
-6.571327 -2.609736 -1.894555
-17.543577 -6.963714 0.329467
-7.941141 -3.150535 -1.972371
-17.528986 -6.954376 0.988312
-9.380548 -3.719705 -1.961517
-17.447916 -6.915171 1.642014
-12.060505 -4.777528 -2.054610
-17.471323 -6.917387 2.307231
-16.554014 -6.554199 -2.186093
-17.438446 -6.900845 2.970378
-17.632458 -6.974067 -1.658922
-17.457973 -6.901531 3.649031
-17.655704 -6.976131 -0.994907
-17.633821 -6.963932 -0.330933
-6.590732 -2.592172 -1.897661
-17.674513 -6.947931 0.331491
-7.969682 -3.131310 -1.976870
-17.678360 -6.945875 0.995430
-9.403794 -3.692882 -1.963806
-17.593161 -6.905318 1.653519
-12.087316 -4.741835 -2.056488
-17.568090 -6.888397 2.316980
-16.656975 -6.531151 -2.196817
-17.615723 -6.903532 2.996659
-17.783493 -6.965696 -1.670950
-17.616047 -6.896562 3.677271
-17.784756 -6.959031 -1.000873
-17.783457 -6.954944 -0.333306
-6.606493 -2.573107 -1.899732
-17.826036 -6.939334 0.333899
-7.987286 -3.107692 -1.978670
-17.799294 -6.921765 1.000873
-9.458074 -3.678043 -1.972583
-17.745956 -6.897464 1.665721
-12.093766 -4.698152 -2.054923
-17.742577 -6.889018 2.336967
-16.701878 -6.481585 -2.199742
-17.768633 -6.891998 3.018560
-17.921017 -6.947507 -1.681583
-17.719362 -6.869330 3.694062
-17.930649 -6.947641 -1.007781
-15.271403 -5.911126 -0.285836
-6.626694 -2.553044 -1.902838
-12.123399 -4.670741 0.226777
-7.996268 -3.079090 -1.978220
-17.931456 -6.901204 1.006944
-9.467825 -3.641945 -1.971820
-17.905016 -6.883849 1.678271
-12.079558 -4.641746 -2.049605
-17.862871 -6.864068 2.349641
-16.835587 -6.465951 -2.214366
-17.858973 -6.855417 3.029823
-18.058632 -6.928443 -1.692216
-17.858072 -6.847925 3.717723
-18.095865 -6.935484 -1.015632
-14.985697 -5.740470 -0.280111
-6.624735 -2.525768 -1.899732
-18.123764 -6.906301 0.338542
-8.016604 -3.053232 -1.980469
-18.091024 -6.886590 1.014480
-9.504334 -3.617951 -1.976781
-18.074186 -6.876569 1.691867
-12.075377 -4.591832 -2.046163
-18.017801 -6.847918 2.366703
-16.951960 -6.439444 -2.226553
-18.002169 -6.834792 3.049847
-18.203121 -6.907447 -1.703372
-18.036055 -6.844050 3.749779
-18.230146 -6.914062 -1.021807
-18.234230 -6.908332 -0.340357
-6.644794 -2.505559 -1.902838
-12.203289 -4.601507 0.227649
-8.065507 -3.039661 -1.989917
-18.257004 -6.876904 1.022435
-9.539578 -3.591395 -1.981361
-18.173857 -6.838347 1.698840
-12.105070 -4.552407 -2.048353
-18.156794 -6.828306 2.381815
-16.981766 -6.383029 -2.227528
-18.159061 -6.821925 3.072373
-18.348366 -6.889388 -1.714702
-18.156595 -6.813772 3.769623
-18.375046 -6.892088 -1.028506
-18.363091 -6.883949 -0.342312
-6.656686 -2.484862 -1.903873
-18.420719 -6.872572 0.343184
-8.070592 -3.009444 -1.988567
-18.384504 -6.855401 1.028297
-9.573512 -3.567968 -1.985940
-18.334597 -6.829507 1.711739
-12.133059 -4.517064 -2.050543
-18.266100 -6.796733 2.393027
-17.015106 -6.327864 -2.228991
-18.303782 -6.807118 3.093023
-18.496235 -6.875012 -1.726381
-18.274790 -6.789076 3.789467
-18.519505 -6.876310 -1.035310
-18.513302 -6.870325 -0.344685
-6.672569 -2.464287 -1.905944
-11.720345 -4.328512 0.218085
-8.086010 -2.984693 -1.989917
-18.539488 -6.839579 1.035624
-18.530317 -6.828849 1.727775
-12.125728 -4.468610 -2.046789
-18.445009 -6.793755 2.413501
-17.009918 -6.261804 -2.225578
-18.512819 -6.811389 3.124309
-18.665977 -6.864046 -1.739977
-18.647188 -6.853442 -1.041172
-18.672329 -6.855286 -0.347198
-6.691590 -2.446126 -1.909049
-18.726271 -6.841732 0.348001
-8.122007 -2.965805 -1.996216
-18.698336 -6.824123 1.043160
-8.810073 -3.215314 -1.822989
-18.616499 -6.790575 1.733702
-8.826627 -3.217865 -1.488005
-18.587980 -6.772821 2.429100
-8.850650 -3.223123 -1.156540
-18.599596 -6.769701 3.134947
-8.844994 -3.217567 -0.823447
-8.857790 -3.220472 -0.493947
-8.907310 -3.234957 -0.165414
-6.689610 -2.417645 -1.905944
-8.944352 -3.232517 0.166007
-8.148806 -2.943394 -2.000265
-18.823488 -6.795434 1.048813
-8.810718 -3.179004 -1.820700
-8.834645 -3.184152 -1.487379
-18.760908 -6.761742 2.448599
-8.835701 -3.182791 -1.153128
-18.738346 -6.746221 3.154345
-8.831800 -3.177903 -0.821181
-8.862016 -3.185282 -0.493528
-8.813159 -3.165985 -0.163459
-6.701646 -2.395578 -1.906979
-8.181562 -2.921373 -2.005664
-8.908166 -3.180820 0.495726
-8.855044 -3.160107 -1.827569
-8.943852 -3.190040 0.830769
-8.838263 -3.150643 -1.486127
-8.934645 -3.183241 1.164584
-8.858526 -3.154380 -1.154590
-8.958462 -3.189965 1.506151
-8.854101 -3.151063 -0.822227
-8.974881 -3.192282 1.851611
-8.869316 -3.152990 -0.493319
-9.051030 -3.215809 2.217567
-6.724539 -2.377322 -1.911120
-8.187531 -2.892927 -2.004764
-8.913567 -3.147707 0.495412
-8.953034 -3.159888 -1.845505
-8.924870 -3.148199 0.827980
-12.209291 -4.306760 -2.050543
-8.930174 -3.148315 1.162634
-8.966295 -3.159290 -1.167265
-8.950910 -3.152115 1.503023
-8.900756 -3.132705 -0.825539
-8.952084 -3.150770 1.844741
-8.894795 -3.128863 -0.494156
-8.975237 -3.155401 2.196422
-8.982391 -3.154392 2.550921
-6.743327 -2.358836 -1.914226
-8.221495 -2.872686 -2.010612
-8.930156 -3.118549 0.495726
-9.688176 -3.383262 -1.994717
-8.954072 -3.125150 0.829723
-12.272744 -4.281031 -2.058678
-8.956105 -3.122351 1.164584
-17.345304 -6.043673 -2.255314
-8.976783 -3.126046 1.505525
-8.970445 -3.122084 1.846268
-12.403036 -4.314343 -0.688218
-8.973311 -3.119570 2.193273
-8.987872 -3.121119 2.549368
-6.749693 -2.334653 -1.913708
-8.954595 -3.095558 0.165379
-8.249890 -2.850331 -2.015111
-15.284256 -5.277718 0.847424
-9.712917 -3.353911 -1.997389
-19.466696 -6.718130 1.801683
-12.168099 -4.196939 -2.038654
-19.435270 -6.699693 2.524158
-17.388819 -5.990849 -2.258239
-19.420923 -6.687159 3.253211
-14.765549 -5.084185 -1.366253
-12.353806 -4.248936 -0.684659
-9.062663 -3.111681 2.567485
-6.757802 -2.311078 -1.913708
-8.276388 -2.827188 -2.019161
-9.731997 -3.322523 -1.998915
-11.641974 -3.972322 1.076199
-12.289245 -4.190783 -2.056488
-12.179436 -4.150965 1.579914
-17.409626 -5.930109 -2.258239
-19.586264 -6.667712 3.276990
-14.942524 -5.083942 -1.380896
-9.033696 -3.068287 -0.166531
-6.760736 -2.284439 -1.912155
-9.059343 -3.061133 0.166915
-8.308361 -2.805762 -2.024559
-15.184476 -5.124898 0.839887
-9.781315 -3.299381 -2.006547
-11.690439 -3.941084 1.079337
-12.364426 -4.165896 -2.066499
-12.223950 -4.118566 1.583814
-17.460320 -5.879441 -2.262139
-19.721750 -6.637105 3.295762
-14.665585 -4.932663 -1.353703
-6.779663 -2.264497 -1.915261
-8.324135 -2.777142 -2.025909
-12.508151 -4.173036 0.691044
-9.807673 -3.270185 -2.009600
-11.738149 -3.911591 1.082474
-12.438866 -4.142684 -2.076511
-19.870893 -6.614021 2.571443
-17.489286 -5.817913 -2.263114
-19.879755 -6.613117 3.318288
-6.794864 -2.243240 -1.917332
-15.217706 -5.023937 0.279727
-8.331448 -2.748914 -2.025459
-11.710814 -3.861647 0.646244
-9.832080 -3.240232 -2.012272
-20.032822 -6.598087 1.845261
-12.497563 -4.116246 -2.084020
-20.107674 -6.618846 2.599230
-17.516026 -5.762365 -2.264089
-20.064104 -6.596738 3.345195
-14.870016 -4.886138 -1.369391
-6.827976 -2.229089 -1.924579
-14.949990 -4.877751 0.274491
-8.355815 -2.724646 -2.029058
-11.704567 -3.816600 0.645198
-9.831571 -3.203959 -2.009982
-12.783711 -4.163552 1.176254
-12.564451 -4.089712 -2.092780
-12.609975 -4.102097 1.628175
-17.532257 -5.699964 -2.263602
-20.232395 -6.577814 3.369599
-14.639804 -4.756762 -1.346730
-14.701944 -4.771283 -0.810056
-11.274023 -3.656628 -0.206881
-6.824684 -2.201684 -1.921473
-11.114182 -3.585501 0.203844
-8.377787 -2.701109 -2.032208
-9.859512 -3.175039 -2.013417
-11.929532 -3.839342 1.096419
-12.611791 -4.058917 -2.098412
-20.379030 -6.554762 2.628478
-17.494366 -5.623568 -2.256289
-20.401930 -6.554271 3.394003
-15.111602 -4.851805 -1.388565
-12.117986 -3.888330 -0.666969
-11.233398 -3.600163 -0.205903
-20.377453 -6.526797 5.733359
-6.903727 -2.201934 -1.941661
-15.272444 -4.868187 0.279797
-8.400162 -2.675987 -2.035357
-11.239916 -3.578473 0.618192
-9.905531 -3.153642 -2.020667
-11.790310 -3.751436 1.082474
-12.554348 -3.992122 -2.086523
-12.115451 -3.850233 1.560903
-17.510105 -5.561264 -2.255802
-20.582840 -6.533215 3.420284
-15.263284 -4.841803 -1.400941
-12.308546 -3.902136 -0.676704
-11.253524 -3.563344 -0.206043
-6.985457 -2.199827 -1.962366
-11.474637 -3.613538 0.209987
-8.403875 -2.644896 -2.034008
-11.183751 -3.517643 0.614424
-9.941371 -3.124966 -2.025628
-11.963647 -3.758356 1.097116
-12.614127 -3.960285 -2.094032
-20.768990 -6.520555 2.672839
-17.563507 -5.510802 -2.260189
-20.748770 -6.506247 3.444062
-20.966637 -6.570550 -1.922307
-15.170441 -4.748312 -0.833084
-13.025532 -4.074469 -0.238225
-7.070569 -2.199530 -1.984107
-11.426699 -3.552459 0.208870
-8.430262 -2.619280 -2.038057
-11.211221 -3.483323 0.615262
-9.970968 -3.096069 -2.029445
-11.931025 -3.702400 1.092933
-12.680702 -3.932612 -2.102792
-20.906517 -6.479644 2.687463
-17.716322 -5.487509 -2.277251
-20.941179 -6.486386 3.472220
-12.028771 -3.723526 -1.101649
-12.160604 -3.759687 -0.667074
-11.570443 -3.575012 -0.211384
-7.179770 -2.206043 -2.012577
-11.224329 -3.448767 0.204961
-8.435176 -2.590166 -2.037157
-11.788486 -3.617606 0.646244
-9.972330 -3.058367 -2.027536
-11.848630 -3.631538 1.084217
-12.635126 -3.872594 -2.093093
-21.151859 -6.478881 2.716224
-17.802753 -5.449646 -2.286025
-21.186590 -6.481437 3.509138
-12.285579 -3.756077 -1.123960
-19.576515 -5.981409 -1.072783
-12.105000 -3.693939 -0.220913
-21.109642 -6.437758 5.913498
-7.233258 -2.196253 -2.025518
-11.971098 -3.632534 0.218365
-8.447894 -2.561838 -2.038057
-11.900435 -3.606556 0.651687
-9.986176 -3.026419 -2.028300
-11.708059 -3.546024 1.070273
-12.712852 -3.847920 -2.103731
-21.326351 -6.450993 2.735723
-15.412255 -4.659107 -1.976965
-21.303635 -6.436001 3.524782
-12.038581 -3.636953 -1.100254
-11.772896 -3.552207 -0.644465
-11.631497 -3.505114 -0.212047
-7.375965 -2.211492 -2.063306
-12.006690 -3.597615 0.218783
-8.486655 -2.541276 -2.045255
-11.071048 -3.313051 0.605632
-10.039939 -3.004488 -2.037077
-11.815807 -3.533679 1.078988
-12.729989 -3.804654 -2.104357
-12.759028 -3.810908 1.634999
-15.453153 -4.612660 -1.980133
-21.515265 -6.418069 3.556069
-12.091296 -3.606871 -1.103915
-12.233129 -3.644527 -0.668958
-11.444330 -3.405180 -0.208417
-7.478111 -2.213700 -2.089705
-11.372963 -3.364510 0.207020
-8.493606 -2.511084 -2.044805
-12.260520 -3.622426 0.670005
-10.093667 -2.982220 -2.045854
-11.835714 -3.494666 1.079685
-12.703405 -3.748455 -2.097786
-12.003025 -3.539513 1.536529
-15.497722 -4.567107 -1.983789
-21.749769 -6.405431 3.591110
-12.172618 -3.584905 -1.110190
-15.514636 -4.563264 -0.847529
-14.798402 -4.346990 -0.269221
-7.539567 -2.203297 -2.104717
-11.359685 -3.317500 0.206567
-8.494837 -2.479238 -2.043005
-10.132287 -2.955213 -2.051579
-12.123283 -3.533615 1.104786
-12.816931 -3.733368 -2.114368
-12.000058 -3.493157 1.534579
-15.357272 -4.467514 -1.963803
-21.919949 -6.372483 3.615514
-15.098832 -4.389474 -1.375666
-11.694366 -3.395314 -0.638185
-12.309041 -3.569120 -0.223705
-7.582480 -2.187136 -2.114552
-11.367353 -3.276719 0.206497
-8.512801 -2.452267 -2.045255
-13.250924 -3.814662 0.722655
-10.148202 -2.921454 -2.052723
-12.204474 -3.511105 1.111061
-12.826086 -3.687516 -2.113743
-11.985469 -3.443570 1.531167
-18.177538 -5.219193 -2.322099
-12.371623 -3.549846 -1.126052
-11.700387 -3.352822 -0.637871
-12.429085 -3.556941 -0.225660
-7.593785 -2.161713 -2.115587
-11.413342 -3.246871 0.207125
-8.508187 -2.418807 -2.042106
-12.866466 -3.655399 0.700988
-10.179112 -2.891914 -2.056921
-11.676164 -3.315031 1.061906
-12.850282 -3.645954 -2.115620
-11.993596 -3.400629 1.530679
-18.260582 -5.174113 -2.330386
-12.380105 -3.505550 -1.125704
-18.567413 -5.250553 -1.011235
-11.469591 -3.239082 -0.208033
-7.614304 -2.138851 -2.119210
-11.624835 -3.263217 0.210755
-8.379609 -2.350667 -2.009263
-13.157355 -3.690932 0.716165
-10.183473 -2.854777 -2.055776
-11.752894 -3.292527 1.067832
-12.807766 -3.585632 -2.106547
-11.229247 -3.141603 1.431721
-18.312943 -5.119960 -2.334773
-12.185024 -3.404412 -1.106878
-12.483402 -3.483079 -0.679216
-11.397440 -3.177934 -0.206532
-7.625446 -2.113291 -2.120246
-11.889963 -3.295145 0.215363
-8.376089 -2.319750 -2.006563
-12.382874 -3.427095 0.673354
-10.240681 -2.832295 -2.065317
-12.244414 -3.384171 1.111410
-12.442595 -3.438945 -2.044599
-12.690000 -3.504943 1.616475
-12.455245 -3.437765 -1.586495
-12.588668 -3.469863 -1.142437
-15.621972 -4.303011 -0.849203
-11.608984 -3.193290 -0.210162
-7.634275 -2.088502 -2.120763
-15.242271 -4.166955 0.275818
-8.391656 -2.292550 -2.008363
-12.086483 -3.299687 0.656607
-10.261381 -2.801422 -2.067606
-11.675083 -3.185183 1.058768
-12.460241 -3.397052 -2.045537
-12.639553 -3.441200 -1.608432
-12.326686 -3.353709 2.023324
-12.469968 -3.390354 -1.130584
-11.687681 -3.175471 -0.634731
-23.171558 -6.291234 5.543244
-12.374660 -3.357484 -0.223810
-7.641879 -2.060507 -2.120763
-12.470663 -3.362509 0.225450
-8.403370 -2.264257 -2.009263
-12.520284 -3.371200 0.679530
-10.281058 -2.766344 -2.069515
-11.740552 -3.156856 1.063649
-13.023936 -3.499501 -2.135956
-12.595301 -3.384327 1.601363
-12.349765 -3.313731 2.025201
-12.545233 -3.363833 -1.136337
-12.308897 -3.295858 -0.667807
-12.453915 -3.332359 -0.225031
-7.652759 -2.034811 -2.121799
-12.434588 -3.303941 0.224578
-8.422914 -2.236444 -2.011962
-12.070616 -3.204979 0.654514
-10.317219 -2.737489 -2.074857
-11.709131 -3.104620 1.059814
-13.095267 -3.469701 -2.145655
-12.394613 -3.281743 1.574308
-18.463243 -4.885096 -2.345010
-12.533126 -3.316076 2.053359
-11.742932 -3.100425 -0.636510
-23.404408 -6.174974 5.588234
-11.657255 -3.075628 -0.210441
-7.657946 -2.007596 -2.121281
-12.524784 -3.283478 0.226009
-8.460446 -2.216402 -2.019161
-10.398887 -2.720339 -2.089359
-12.298180 -3.214902 1.112107
-13.091411 -3.422263 -2.143152
-18.563854 -4.845903 -2.355735
-12.257911 -3.197520 2.006429
-12.828685 -3.344013 -1.159869
-11.975418 -3.119363 -0.648547
-23.707642 -6.170961 5.655720
-15.368214 -3.997393 -0.277179
-7.670173 -1.983641 -2.122834
-12.847878 -3.320297 0.231628
-8.560586 -2.210732 -2.041206
-11.665304 -3.010336 0.631381
-10.417356 -2.688292 -2.091267
-11.702982 -3.017884 1.057374
-13.107104 -3.377527 -2.143778
-12.753081 -3.283926 1.616963
-18.592190 -4.784045 -2.357197
-12.406746 -3.190127 2.028955
-12.253099 -3.150620 -1.106878
-15.729512 -4.038657 -0.851087
-23.823418 -6.112382 5.678215
-12.213067 -3.131239 -0.220075
-23.811823 -6.100556 6.586428
-7.703258 -1.963537 -2.130081
-11.954428 -3.044925 0.215328
-8.672120 -2.207271 -2.065950
-12.616458 -3.208863 0.682252
-10.457119 -2.659657 -2.097373
-11.806133 -3.000571 1.065740
-11.541187 -2.931087 -1.885974
-12.320000 -3.126595 1.560659
-18.651108 -4.729852 -2.362559
-12.544187 -3.178826 2.049605
-12.389560 -3.139642 -1.118208
-11.650317 -2.947983 -0.629811
-12.066883 -3.048913 -0.217248
-7.710065 -1.936635 -2.130081
-11.972742 -3.005122 0.215467
-8.823427 -2.213019 -2.100143
-11.674413 -2.925914 0.630753
-10.487288 -2.628389 -2.101570
-11.963420 -2.996125 1.078988
-11.624166 -2.909009 -1.897863
-12.382835 -3.096573 1.567240
-18.648247 -4.659901 -2.360122
-12.497709 -3.120666 2.040219
-16.350332 -4.076595 -0.883117
-12.595556 -3.135758 -0.226567
-7.703651 -1.906461 -2.126457
-12.641232 -3.126048 0.227300
-8.978662 -2.218669 -2.135236
-11.756298 -2.902859 0.634626
-10.549766 -2.604943 -2.112256
-12.360682 -3.049804 1.113850
-11.787685 -2.906244 -1.922893
-12.432118 -3.062824 1.572115
-18.691385 -4.601426 -2.363534
-12.184813 -2.997390 -1.097814
-11.740439 -2.883731 -0.633579
-15.760461 -3.865307 -0.283253
-7.715889 -1.880931 -2.128010
-12.040059 -2.932824 0.216305
-9.103745 -2.215888 -2.163129
-12.171961 -2.960454 0.656502
-10.579779 -2.573205 -2.116454
-11.894987 -2.890890 1.070970
-13.352619 -3.242677 -2.176316
-12.427300 -3.015667 1.570165
-18.772924 -4.552057 -2.371821
-12.392483 -3.002638 2.019569
-15.757190 -3.812068 -0.849622
-15.839946 -3.826233 -0.284439
-7.734003 -1.855343 -2.131116
-9.225127 -2.211354 -2.190123
-12.318185 -2.950514 0.663829
-10.619688 -2.541722 -2.122559
-12.823996 -3.066936 1.153593
-13.391313 -3.200143 -2.180697
-12.356661 -2.952890 1.559928
-18.796425 -4.488343 -2.372796
-12.472060 -2.975863 2.030833
-25.532106 -6.087317 -2.296380
-12.089075 -2.880025 2.415642
-16.388920 -3.901367 -0.882908
-12.433161 -2.957413 -0.223077
-7.751713 -1.831001 -2.134222
-11.525526 -2.720272 0.206706
-9.290072 -2.190945 -2.203620
-11.581939 -2.731452 0.623635
-10.651426 -2.510043 -2.127139
-11.876583 -2.796565 1.067483
-13.402403 -3.153379 -2.180697
-12.382860 -2.911219 1.561878
-18.920967 -4.444842 -2.386446
-12.413143 -2.916049 2.019569
-25.844149 -6.066452 -2.322526
-12.141105 -2.847669 2.424038
-17.961983 -4.209640 -0.966855
-12.511554 -2.929953 -0.224298
-7.750531 -1.802179 -2.132151
-14.962497 -3.479129 0.268139
-9.306778 -2.162330 -2.205870
-12.062218 -2.800312 0.648966
-10.694549 -2.480830 -2.134008
-11.963911 -2.773086 1.074456
-13.424332 -3.111593 -2.182574
-12.551025 -2.906867 1.581864
-18.985888 -4.393710 -2.392783
-12.250033 -2.832648 1.991411
-26.125292 -6.036310 -2.345884
-12.253776 -2.831264 2.444645
-11.954704 -2.759962 -0.643000
-25.670832 -5.921861 6.082227
-11.268756 -2.597456 -0.201855
-7.756464 -1.776469 -2.132151
-14.806910 -3.388514 0.265137
-9.323768 -2.132005 -2.208120
-11.273616 -2.575793 0.606050
-10.698887 -2.444479 -2.133245
-11.965271 -2.731622 1.073759
-13.448592 -3.067793 -2.184764
-11.767560 -2.682165 1.481931
-12.582888 -2.865691 -1.584545
-12.329187 -2.805649 2.002674
-26.413263 -6.010643 -2.369939
-12.172663 -2.765562 -0.654200
-15.540796 -3.525079 -0.278156
-7.758849 -1.748531 -2.131116
-12.536154 -2.822847 0.224298
-9.338758 -2.101156 -2.209919
-11.204594 -2.518899 0.601864
-10.649893 -2.394197 -2.121796
-11.982509 -2.691588 1.074456
-13.495841 -3.029049 -2.190708
-11.680002 -2.619352 1.469744
-12.759401 -2.859079 -1.605507
-26.741276 -5.987191 -2.397480
-15.763788 -3.517847 -0.281926
-7.770564 -1.722693 -2.132669
-13.002786 -2.880269 0.232466
-9.346035 -2.068545 -2.209919
-13.155659 -2.909315 0.706117
-10.617929 -2.348108 -2.113782
-11.914012 -2.632550 1.067483
-13.440749 -2.967438 -2.180071
-11.770492 -2.596525 1.479982
-19.057997 -4.200638 -2.396195
-27.077225 -5.963222 -2.425719
-12.367117 -2.721349 2.461436
-12.876356 -2.831053 -0.690939
-18.545607 -4.070730 -0.331421
-7.765204 -1.693089 -2.129563
-12.297645 -2.679073 0.219691
-9.351295 -2.035491 -2.209469
-11.986945 -2.607004 0.642895
-10.629897 -2.311864 -2.114545
-12.148974 -2.640023 1.087704
-13.588084 -2.950261 -2.202285
-12.505030 -2.712825 1.571140
-19.212225 -4.164364 -2.413744
-27.397753 -5.933613 -2.452563
-12.462544 -2.694497 -0.668226
-11.714406 -2.528467 -0.209185
-7.793735 -1.670832 -2.135775
-12.416422 -2.659581 0.221646
-9.381209 -2.007733 -2.214868
-12.751825 -2.726773 0.683403
-10.626383 -2.272281 -2.112256
-11.865854 -2.535154 1.061557
-13.665914 -2.917248 -2.213235
-15.984344 -3.406324 -2.006701
-16.006674 -3.408166 -1.431795
-12.431902 -2.644752 2.470595
-16.048941 -3.411306 -0.859880
-12.122214 -2.572236 -0.216305
-7.776835 -1.638838 -2.129563
-12.838512 -2.703159 0.229010
-9.391974 -1.975776 -2.215768
-12.043945 -2.531476 0.644988
-10.668833 -2.242445 -2.119125
-13.757211 -2.886564 -2.226376
-11.400693 -2.390035 1.430259
-16.058311 -3.363533 -2.014500
-16.022373 -3.353087 -1.432143
-13.009880 -2.720274 2.583554
-16.045111 -3.352000 -0.859043
-12.542212 -2.615635 -0.223635
-7.782509 -1.611680 -2.129563
-12.074374 -2.498285 0.215223
-9.391180 -1.941404 -2.213968
-12.623853 -2.607382 0.675553
-10.818873 -2.234574 -2.147365
-11.883264 -2.452255 1.061557
-13.813636 -2.848098 -2.233884
-13.672586 -2.814041 -1.713971
-28.586386 -5.878344 -2.553315
-20.803099 -4.270265 -1.112977
-16.122509 -3.303613 -0.287267
-7.776729 -1.582193 -2.126457
-12.055586 -2.450545 0.214734
-9.403629 -1.909774 -2.215318
-12.902996 -2.618109 0.689997
-11.022861 -2.236616 -2.186290
-11.915184 -2.415510 1.063649
-13.931913 -2.821821 -2.251405
-16.250105 -3.288404 2.035706
-13.686216 -2.767084 -1.714458
-16.295637 -3.291697 2.633105
-28.962166 -5.850320 -2.585039
-20.445887 -4.122615 -1.093089
-12.293553 -2.474351 -0.218888
-7.797359 -1.558066 -2.130599
-12.256245 -2.446817 0.218155
-9.415972 -1.878078 -2.216668
-12.289174 -2.448928 0.656712
-11.269349 -2.245703 -2.233610
-11.943083 -2.377797 1.065392
-14.050174 -2.794753 -2.268926
-12.558258 -2.495714 1.572115
-29.345913 -5.821294 -2.617461
-20.115328 -3.982943 -1.074667
-12.302116 -2.431423 -0.218888
-7.795166 -1.529352 -2.128528
-12.076325 -2.367091 0.214804
-9.432033 -1.847072 -2.218917
-12.360370 -2.418290 0.660061
-11.492912 -2.248573 -2.276351
-13.761996 -2.690020 1.226804
-13.625563 -2.660882 -2.198843
-12.574688 -2.453386 1.573090
-19.279636 -3.758059 -2.411794
-29.843235 -5.811749 -2.659993
-19.423306 -3.775509 -1.036985
-29.782013 -5.778257 -0.529541
-7.798561 -1.501767 -2.128010
-12.084515 -2.324922 0.214804
-9.434594 -1.813403 -2.218017
-12.509539 -2.404431 0.667598
-11.653007 -2.237690 -2.306499
-13.628946 -2.612191 -2.197904
-12.041167 -2.305688 1.505330
-19.323187 -3.700077 -2.415694
-12.587975 -2.408116 2.029894
-30.246902 -5.780855 -2.694158
-19.828743 -3.782535 -1.057919
-12.373382 -2.358114 -0.219865
-7.790211 -1.473384 -2.124387
-12.129491 -2.291889 0.215467
-9.452046 -1.784275 -2.220717
-13.447714 -2.538543 0.717212
-11.685443 -2.203764 -2.311460
-12.825204 -2.411759 1.602338
-19.378269 -3.644053 -2.421057
-30.688877 -5.759906 -2.731810
-12.263199 -2.294998 -0.217771
-7.787457 -1.446132 -2.122316
-13.312780 -2.469782 0.236340
-9.440665 -1.749725 -2.216668
-11.719713 -2.170006 -2.316803
-12.781517 -2.364301 1.137208
-14.351094 -2.652048 -2.311476
-12.903406 -2.382190 1.611113
-19.410395 -3.579984 -2.423494
-31.181984 -5.745475 -2.773993
-31.894682 -5.865276 -1.699558
-13.136547 -2.411010 -0.233129
-7.815264 -1.423093 -2.128528
-13.311482 -2.421507 0.236166
-9.446715 -1.716760 -2.216668
-11.734942 -2.130486 -2.318329
-14.383591 -2.606163 -2.315230
-12.915550 -2.337841 1.611600
-19.469654 -3.520689 -2.429344
-20.284929 -3.664459 -1.803427
-31.887444 -5.748952 -1.698093
-12.554457 -2.258902 -0.222658
-7.812577 -1.394448 -2.126457
-20.863705 -3.720149 0.369921
-9.441139 -1.681723 -2.213968
-11.746174 -2.090197 -2.319093
-12.833020 -2.281288 1.140346
-14.415939 -2.560083 -2.318985
-12.935359 -2.294823 1.613063
-18.961893 -3.360559 -2.364509
-20.242664 -3.583903 -1.798546
-29.252144 -5.168474 -1.556786
-13.184567 -2.324797 -0.233688
-7.798367 -1.363838 -2.121281
-9.458469 -1.650769 -2.216668
-11.765003 -2.051206 -2.321382
-12.935122 -2.252888 1.148713
-14.424787 -2.509750 -2.318985
-18.820951 -3.267860 -2.345498
-20.227568 -3.508453 -1.796106
-19.300137 -3.340652 -1.026518
-13.165015 -2.273994 -0.233199
-7.806889 -1.337260 -2.122316
-20.017962 -3.425333 0.354493
-9.462255 -1.617412 -2.216218
-11.918897 -2.035193 0.633684
-11.775963 -2.010787 -2.322146
-14.390619 -2.452079 -2.312102
-18.934010 -3.219451 -2.358172
-20.141478 -3.421142 -1.787390
-19.803972 -3.356708 -1.052685
-13.038798 -2.205348 -0.230826
-7.822941 -1.311920 -2.125422
-12.312528 -2.062622 0.217911
-9.458233 -1.582765 -2.213968
-11.798400 -1.972260 -2.325199
-14.375710 -2.397931 -2.308347
-19.058704 -3.172238 -2.372309
-20.259430 -3.368460 -1.796803
-19.342691 -3.209100 -1.027564
-12.588717 -2.084052 -0.222728
-7.827473 -1.284604 -2.125422
-12.357145 -2.025774 0.218574
-9.467546 -1.550372 -2.214868
-11.816838 -1.932966 -2.327488
-14.376194 -2.346466 -2.307096
-19.042233 -3.101224 -2.368896
-20.320227 -3.305723 -1.801160
-20.315847 -3.297727 -1.078644
-20.420738 -3.307438 -0.361090
-7.847168 -1.259723 -2.129563
-12.297009 -1.971864 0.217387
-9.457506 -1.514848 -2.211269
-20.632910 -3.301161 1.095078
-11.846776 -1.895424 -2.332067
-14.396000 -2.298137 -2.308973
-19.013733 -3.028494 -2.364022
-19.810217 -3.151812 -1.754968
-20.331179 -3.227417 -1.078853
-20.400560 -3.231131 -0.360532
-7.840067 -1.230526 -2.126457
-11.920559 -1.868842 0.210616
-9.474288 -1.483635 -2.213968
-11.845562 -1.852849 -2.330541
-14.583497 -2.275894 -2.337757
-19.408634 -3.021964 -2.411794
-19.758099 -3.072839 -1.749390
-19.447351 -3.010608 -0.343498
-7.840496 -1.202566 -2.125422
-12.820449 -1.964095 0.226393
-9.496746 -1.453207 -2.218017
-11.871364 -1.814454 -2.334357
-14.946762 -2.279168 -2.394699
-19.615318 -2.984051 -2.436168
-7.852287 -1.176335 -2.127493
-13.032904 -1.950109 0.230023
-9.484415 -1.417456 -2.213968
-11.916461 -1.778801 -2.341990
-15.321947 -2.281680 -2.453518
-19.492092 -2.895722 -2.419594
-29.700138 -4.406927 -2.626874
-19.802753 -2.931277 -1.049127
-19.725065 -2.912747 -0.348036
-7.852523 -1.148360 -2.126457
-13.019846 -1.901711 0.229674
-9.497019 -1.385465 -2.215768
-11.887628 -1.732101 -2.335121
-15.630863 -2.271939 -2.501700
-19.898920 -2.885207 -2.468829
-29.447174 -4.264391 -2.603168
-20.113329 -2.905544 -1.065037
-19.513437 -2.811927 -0.344127
-7.860308 -1.121488 -2.127493
-13.042242 -1.858508 0.229953
-9.488292 -1.350386 -2.212619
-12.160904 -1.728587 0.643732
-11.881939 -1.688934 -2.332831
-15.748223 -2.232896 -2.519221
-20.148666 -2.849643 -2.498565
-28.893713 -4.081320 -2.552966
-20.534716 -2.893277 -1.086809
-19.923140 -2.800016 -0.351177
-7.860348 -1.093510 -2.126457
-20.396933 -2.833941 0.359450
-9.512251 -1.319936 -2.217118
-11.852759 -1.642597 -2.325962
-15.798971 -2.183861 -2.526104
-20.402336 -2.812913 -2.528789
-22.078550 -3.040090 -1.949848
-20.469501 -2.811253 -1.082831
-19.520704 -2.674005 -0.343917
-7.860289 -1.065548 -2.125422
-20.248169 -2.741261 0.356657
-9.509075 -1.285677 -2.215318
-20.449614 -2.764894 1.081470
-11.873984 -1.603315 -2.329015
-15.798669 -2.127640 -2.524853
-20.671730 -2.776565 -2.560963
-21.950798 -2.944460 -1.937646
-20.700907 -2.769451 -1.094554
-21.368837 -2.855008 -0.376309
-7.867791 -1.038609 -2.126457
-20.114412 -2.655258 0.354144
-9.509422 -1.253629 -2.214418
-11.867829 -1.560324 -2.326725
-15.864394 -2.082956 -2.534239
-20.885525 -2.734803 -2.586311
-22.328409 -2.915805 -1.970068
-20.911987 -2.727132 -1.105231
-7.867360 -1.012020 -2.125422
-21.000217 -2.697643 0.369572
-9.509874 -1.219929 -2.213518
-21.237072 -2.720534 1.122083
-11.880729 -1.521958 -2.328252
-15.879406 -2.028563 -2.535490
-21.139122 -2.692988 -2.616535
-22.334496 -2.837349 -1.969720
-20.501326 -2.600830 -1.083040
-20.150305 -2.549153 -0.354528
-7.878684 -0.984137 -2.127493
-20.973789 -2.619865 0.368944
-9.514075 -1.186728 -2.213518
-11.870642 -1.476461 -2.325199
-15.914178 -1.973756 -2.539870
-21.309937 -2.639184 -2.636522
-32.484211 -4.011586 -2.863589
-20.990435 -2.584742 -1.108371
-21.087942 -2.593013 -0.370864
-7.874401 -0.955696 -2.125422
-31.913597 -3.867622 0.561130
-9.516425 -1.151614 -2.213068
-11.867926 -1.434076 -2.323672
-15.897436 -1.915357 -2.536116
-21.418013 -2.572904 -2.648709
-32.422844 -3.889145 -2.856965
-21.035025 -2.515725 -1.110255
-20.060390 -2.395606 -0.352643
-7.870013 -0.927299 -2.123352
-31.481398 -3.709355 0.553311
-9.525999 -1.120733 -2.214418
-11.880660 -1.393555 -2.325199
-15.927244 -1.865386 -2.539870
-21.477692 -2.507850 -2.655046
-32.511425 -3.784706 -2.863589
-21.208822 -2.457698 -0.372679
-7.884562 -0.902514 -2.126457
-9.525980 -1.087035 -2.213518
-11.881313 -1.353704 -2.324435
-15.925808 -1.808890 -2.538619
-21.482370 -2.432417 -2.654558
-36.800121 -4.160317 -3.240102
-31.638025 -3.565550 -1.668575
-20.119947 -2.263927 -0.353411
-7.887664 -0.874986 -2.126457
-9.541154 -1.056726 -2.216218
-20.709183 -2.289973 1.091937
-11.905481 -1.314377 -2.328252
-15.939571 -1.756933 -2.539870
-21.549515 -2.367668 -2.661870
-31.530315 -3.453131 -2.775039
-20.064114 -2.186748 -0.352294
-7.894511 -0.847862 -2.127493
-9.548840 -1.022161 -2.217118
-11.902187 -1.271979 -2.326725
-15.930191 -1.696821 -2.537367
-21.905472 -2.325553 -2.704768
-27.607332 -2.926007 -2.428856
-7.893580 -0.819900 -2.126457
-9.542657 -0.987822 -2.214868
-11.883121 -1.228003 -2.322146
-15.908508 -1.638375 -2.532987
-29.785696 -3.051790 -2.619553
-20.178719 -2.053238 -0.354040
-7.877172 -0.790413 -2.121281
-9.544107 -0.954312 -2.214418
-11.902964 -1.188072 -2.325199
-15.886611 -1.580096 -2.528607
-18.191591 -1.802939 -2.244590
-29.323425 -2.890695 -1.544225
-31.736404 -3.117373 -0.556627
-7.906803 -0.765517 -2.128528
-9.560959 -0.922301 -2.217567
-11.910947 -1.146895 -2.325962
-15.919558 -1.527272 -2.532987
-18.102921 -1.730361 -2.232890
-18.477194 -1.762877 -1.623886
-29.492403 -2.803439 -1.552599
-21.207865 -2.008472 -0.371841
-7.905580 -0.737554 -2.127493
-9.544716 -0.887117 -2.213068
-11.914877 -1.105310 -2.325962
-15.893318 -1.468784 -2.527981
-18.142454 -1.670252 -2.237034
-18.431652 -1.693633 -1.619354
-19.223146 -1.759595 -1.011654
-31.060394 -2.832188 -0.544410
-7.908106 -0.709954 -2.127493
-9.561341 -0.855009 -2.216218
-11.918663 -1.063713 -2.325962
-15.925899 -1.415746 -2.532362
-18.156084 -1.607613 -2.238009
-18.493021 -1.634194 -1.624234
-30.691601 -2.690569 -0.537778
-7.898988 -0.681350 -2.124387
-9.566209 -0.821795 -2.216668
-11.934040 -1.023111 -2.328252
-15.911059 -1.358465 -2.529233
-18.050821 -1.534808 -2.224360
-18.367586 -1.558513 -1.612730
-31.776371 -2.679510 -0.556627
-7.897468 -0.653455 -2.123352
-9.580535 -0.791030 -2.219367
-11.917972 -0.979835 -2.324435
-15.915477 -1.305694 -2.529233
-18.239864 -1.483571 -1.601051
-30.788929 -2.488045 -0.539175
-7.922701 -0.629097 -2.129563
-9.561869 -0.755895 -2.214418
-11.936813 -0.941546 -2.327488
-15.923877 -1.250443 -2.529859
-18.062183 -1.405666 -1.585014
-7.928806 -0.600346 -2.130599
-54.758892 -4.146183 0.958556
-9.560562 -0.722220 -2.213518
-11.948014 -0.898378 -2.329015
-15.936232 -1.192656 -2.531110
-18.043139 -1.340836 -1.582923
-31.802687 -2.346605 -0.556627
-7.915439 -0.571552 -2.126457
-54.849518 -3.950913 0.959882
-9.578695 -0.688291 -2.217118
-11.943245 -0.856104 -2.327488
-15.960003 -1.138430 -2.534239
-18.077520 -1.279956 -1.585537
-30.893089 -2.171091 -0.540571
-7.913531 -0.543654 -2.125422
-9.578979 -0.656389 -2.216668
-11.953996 -0.814943 -2.329015
-15.967631 -1.085762 -2.534864
-18.207342 -1.231677 -2.240690
-55.185078 -3.723432 8.760331
-18.145489 -1.221130 -1.591115
-38.099350 -2.543921 -0.666507
-7.915291 -0.517408 -2.125422
-9.583158 -0.623075 -2.217118
-11.952714 -0.775043 -2.328252
-15.947667 -1.028496 -2.531110
-18.152102 -1.164297 -2.233378
-55.217457 -3.532051 8.763460
-18.101719 -1.157898 -1.586932
-7.932474 -0.490732 -2.129563
-9.567768 -0.588542 -2.213068
-11.939671 -0.732356 -2.325199
-15.943275 -0.972340 -2.529859
-18.171906 -1.101893 -2.235328
-55.245220 -3.340236 8.765963
-18.121561 -1.095666 -1.588326
-38.611225 -2.307451 -0.675164
-7.937995 -0.463262 -2.130599
-9.571711 -0.555256 -2.213518
-11.953914 -0.691352 -2.327488
-15.978125 -0.918499 -2.534864
-18.096367 -1.033924 -2.225578
-18.109360 -1.031496 -1.586932
-7.939564 -0.435550 -2.130599
-9.581373 -0.522265 -2.215318
-11.964095 -0.650046 -2.329015
-16.004904 -0.863993 -2.538619
-17.905605 -0.960331 -2.201692
-18.120811 -0.968701 -1.587629
-7.925602 -0.407042 -2.126457
-9.583138 -0.488814 -2.215318
-11.962370 -0.608080 -2.328252
-15.988093 -0.807124 -2.535490
-17.920744 -0.898423 -2.203154
-18.072344 -0.902857 -1.583097
-7.926974 -0.379374 -2.126457
-9.594519 -0.455822 -2.217567
-11.960498 -0.566137 -2.327488
-15.975028 -0.750568 -2.532987
-18.042747 -0.841406 -2.217778
-18.055483 -0.838842 -1.581354
-7.932110 -0.351873 -2.127493
-9.588264 -0.421987 -2.215768
-11.974170 -0.524899 -2.329778
-15.997285 -0.695662 -2.536116
-18.101107 -0.780815 -2.224603
-18.082188 -0.776841 -1.583446
