# This PCD file was generated using the MATLAB® pcwrite function
# from Computer Vision Toolbox®.
# .PCD v.7 - Point Cloud Data file format
VERSION .7
FIELDS x y z
SIZE 4 4 4
TYPE F F F
COUNT 1 1 1
WIDTH 1669
HEIGHT 1
VIEWPOINT 0 0 0 1 0 0 0
POINTS 1669
DATA ascii
1.757576 -2.622464 -0.728841
1.693037 -2.527119 0.159415
1.740248 -2.598571 -0.607917
1.784921 -2.665277 0.280641
1.716472 -2.564035 -0.488701
1.808369 -2.702329 0.399244
1.949174 -2.913840 -0.430443
5.439660 -8.134878 1.549953
1.829097 -2.736403 -0.287963
5.495076 -8.223963 1.922591
1.616291 -2.419864 -0.152507
5.696562 -8.528729 2.367835
1.636716 -2.451371 -0.051450
5.630301 -8.435899 2.717600
2.687932 -4.033433 -1.298754
1.664082 -2.498018 0.052392
1.750867 -2.629289 -0.729291
1.685531 -2.532131 0.159415
1.737336 -2.609957 -0.609444
1.785835 -2.683830 0.282036
1.709950 -2.570761 -0.489014
1.791550 -2.694458 0.397294
1.940519 -2.919611 -0.430443
5.321487 -8.009481 1.523046
1.811049 -2.726881 -0.286394
5.502502 -8.285069 1.933277
1.611736 -2.427696 -0.152716
5.682007 -8.561831 2.372334
1.629436 -2.456216 -0.051450
5.626599 -8.484767 2.727953
2.674196 -4.044870 -1.299272
1.656455 -2.505479 0.052427
3.002005 -4.542422 -1.257027
1.684388 -2.549664 0.160148
1.720186 -2.604839 -0.606773
1.784767 -2.703660 0.283430
1.704869 -2.583606 -0.490266
1.783227 -2.702353 0.397538
1.922665 -2.914768 -0.428736
5.419636 -8.219309 1.559339
1.722573 -2.613411 -0.273843
6.550099 -9.941297 2.314131
1.603926 -2.435255 -0.152821
5.704169 -8.663981 2.394829
1.618653 -2.458549 -0.051380
6.446579 -9.795339 3.142063
2.659001 -4.052565 -1.298754
1.654938 -2.523238 0.052671
2.996021 -4.569691 -1.261526
1.676127 -2.557492 0.160253
1.715387 -2.617397 -0.608299
1.768768 -2.699874 0.282385
1.693675 -2.586236 -0.489640
1.762438 -2.692262 0.395100
1.918491 -2.931761 -0.430199
5.279177 -8.070500 1.527426
1.690085 -2.584689 -0.270183
6.126414 -9.369277 2.175986
1.595416 -2.440839 -0.152821
5.712264 -8.742570 2.411025
1.605257 -2.457768 -0.051240
6.387399 -9.783314 3.130675
2.647291 -4.067140 -1.300307
1.646120 -2.529000 0.052671
1.829055 -2.811123 -0.774282
1.675901 -2.576721 0.161090
1.707923 -2.626958 -0.609062
1.753432 -2.697986 0.281513
1.683109 -2.590770 -0.489327
1.749785 -2.693403 0.394369
1.909326 -2.940105 -0.430443
5.158473 -7.946386 1.500520
1.638755 -2.525390 -0.263385
5.450991 -8.403419 1.947015
1.588632 -2.450022 -0.153030
5.909129 -9.116667 2.508204
1.628210 -2.512019 -0.052253
6.351110 -9.802308 3.129640
2.630982 -4.073111 -1.299272
1.645517 -2.548456 0.052951
1.807114 -2.799798 -0.769333
1.683143 -2.607726 0.162660
1.712579 -2.654350 -0.614023
1.747243 -2.709113 0.282036
1.674055 -2.596630 -0.489327
1.728073 -2.681444 0.391688
1.900688 -2.950421 -0.430930
5.126424 -7.957703 1.499268
1.621300 -2.517694 -0.261990
6.412012 -9.960943 2.302683
1.575747 -2.448834 -0.152612
5.826667 -9.058568 2.486609
1.664866 -2.588324 -0.053719
6.275063 -9.759420 3.108935
2.623003 -4.092028 -1.302377
1.643532 -2.564000 0.053160
1.794666 -2.800853 -0.767983
1.675107 -2.615268 0.162765
1.743531 -2.723140 -0.628525
1.732406 -2.706805 0.281164
1.677149 -2.620468 -0.492769
1.719171 -2.687160 0.391688
1.886615 -2.950018 -0.429955
5.166711 -8.082067 1.519292
1.569587 -2.456184 -0.255018
6.368373 -9.965609 2.298867
1.567618 -2.454046 -0.152612
5.630888 -8.818333 2.415524
1.663352 -2.605919 -0.053963
6.232644 -9.768235 3.104793
2.610456 -4.102334 -1.302895
1.648524 -2.591655 0.053614
1.788015 -2.812033 -0.769333
1.685252 -2.651439 0.164649
1.765031 -2.776957 -0.639592
1.726626 -2.717580 0.281687
1.676464 -2.639647 -0.495272
1.714037 -2.699848 0.392663
1.878434 -2.959937 -0.430443
5.557502 -8.760602 1.643188
1.576376 -2.484929 -0.257458
5.685893 -8.966452 2.063790
1.569735 -2.476372 -0.153658
5.608417 -8.851104 2.419124
1.652106 -2.608330 -0.053893
5.338696 -8.431942 2.674119
1.846267 -2.923895 -0.926572
1.633064 -2.587248 0.053404
1.771949 -2.808369 -0.766633
1.696231 -2.689403 0.166638
1.757422 -2.786422 -0.640355
1.710753 -2.713478 0.280641
1.684091 -2.672221 -0.500277
1.697195 -2.694057 0.390957
1.872321 -2.973196 -0.431418
1.730047 -2.748331 0.514357
1.561324 -2.480299 -0.256412
5.460080 -8.677176 1.992809
1.592984 -2.532555 -0.156799
6.131396 -9.751585 2.659371
1.640863 -2.610695 -0.053823
5.266065 -8.381823 2.652378
1.792969 -2.861565 -0.904831
1.624022 -2.592933 0.053404
1.759033 -2.809582 -0.765283
1.703201 -2.720406 0.168208
1.751851 -2.799197 -0.641881
1.698101 -2.714366 0.280119
1.679989 -2.686458 -0.501842
1.693042 -2.708382 0.392176
1.868243 -2.989814 -0.432880
1.719876 -2.752378 0.514044
1.535768 -2.458697 -0.253623
4.354620 -6.974265 1.598216
1.640181 -2.627899 -0.162346
6.093195 -9.766314 2.657572
1.632196 -2.616122 -0.053823
5.215751 -8.363177 2.640990
1.775830 -2.856322 -0.901208
1.618582 -2.603399 0.053509
1.743534 -2.805469 -0.762584
1.711612 -2.755176 0.169987
1.743105 -2.806963 -0.642263
1.693870 -2.728741 0.280990
1.683574 -2.712154 -0.505596
1.675678 -2.700487 0.390226
1.863550 -3.004428 -0.434099
1.715463 -2.766758 0.515608
1.557615 -2.513155 -0.258678
5.448466 -8.790902 2.010364
1.631458 -2.633324 -0.162346
5.465675 -8.825546 2.396628
1.625160 -2.625204 -0.053893
5.231256 -8.453614 2.663766
1.771421 -2.870415 -0.903796
1.616834 -2.620946 0.053753
1.729639 -2.804903 -0.760784
1.708272 -2.771335 0.170615
1.731727 -2.809385 -0.641500
1.681676 -2.729254 0.280467
1.691707 -2.746607 -0.510915
1.674568 -2.719843 0.392176
1.850971 -3.007533 -0.433611
1.594164 -2.591276 -0.266174
1.622256 -2.639003 -0.162346
5.987807 -9.744472 2.640476
1.626452 -2.647900 -0.054242
5.982073 -9.742762 3.063382
1.754329 -2.865049 -0.900173
1.616027 -2.640218 0.054033
1.720855 -2.812585 -0.761234
5.287507 -8.645352 0.531105
1.720885 -2.813738 -0.641118
1.675257 -2.740207 0.280990
1.694470 -2.772722 -0.514669
1.658854 -2.715508 0.390713
1.836323 -3.007199 -0.432636
1.681697 -2.755062 0.511228
1.518673 -2.487986 -0.255018
1.621354 -2.658290 -0.163184
5.937526 -9.738689 2.633277
1.609915 -2.641609 -0.053998
5.541978 -9.097059 2.854257
1.735290 -2.856296 -0.895514
1.611991 -2.654389 0.054207
1.714061 -2.823573 -0.762584
5.007590 -8.252253 0.505879
1.713090 -2.823085 -0.641881
1.660515 -2.737521 0.280119
1.700144 -2.803957 -0.519363
1.655539 -2.731467 0.392176
1.716780 -2.833624 -0.406800
5.707959 -9.424961 1.745183
1.531212 -2.529328 -0.258678
1.617235 -2.672477 -0.163707
5.881306 -9.722673 2.623379
1.603788 -2.652346 -0.054102
5.875937 -9.721460 3.043712
1.722815 -2.859327 -0.894479
1.605812 -2.665139 0.054312
1.706205 -2.832877 -0.763484
5.032322 -8.358659 0.511322
1.707793 -2.837755 -0.643790
1.652525 -2.747003 0.280467
1.694945 -2.818634 -0.520927
1.649063 -2.742333 0.392907
1.636312 -2.722204 -0.389982
5.186676 -8.632078 1.595006
1.539814 -2.563694 -0.261642
1.615651 -2.692087 -0.164544
5.827585 -9.714085 2.615281
1.601721 -2.669931 -0.054347
5.635313 -9.397301 2.936044
1.712824 -2.865324 -0.894479
1.608341 -2.691606 0.054731
1.690814 -2.830747 -0.761234
5.133185 -8.593938 0.524616
1.698883 -2.845385 -0.644171
1.649052 -2.763020 0.281513
1.687120 -2.827926 -0.521553
1.630867 -2.734720 0.390957
1.676130 -2.811734 -0.401925
5.160560 -8.656918 1.596257
1.587969 -2.664900 -0.271403
1.604201 -2.694278 -0.164335
5.763741 -9.684131 2.601784
1.608755 -2.703000 -0.054905
5.746686 -9.659310 3.011619
1.705768 -2.876270 -0.896032
1.620828 -2.733043 0.055464
1.684398 -2.841367 -0.762584
5.097046 -8.601494 0.523988
1.698946 -2.868189 -0.647987
1.640412 -2.770474 0.281687
1.683772 -2.843704 -0.523430
1.614712 -2.728155 0.389251
1.596041 -2.697684 -0.384863
1.635436 -2.766473 -0.281164
5.303131 -8.970679 2.025628
1.611515 -2.727095 -0.166010
5.709791 -9.666277 2.591886
1.600327 -2.710321 -0.054940
5.709006 -9.672655 3.009548
1.701120 -2.890235 -0.898620
1.669077 -2.836925 0.057453
1.678422 -2.853949 -0.764384
4.589591 -7.804030 0.474478
1.691416 -2.877192 -0.648751
1.641310 -2.793076 0.283430
1.686842 -2.871706 -0.527497
1.607189 -2.737198 0.389738
1.590634 -2.710086 -0.385838
1.716993 -2.926543 -0.296852
9.758963 -16.640400 3.749779
1.606026 -2.739595 -0.166428
5.689808 -9.709686 2.598185
1.619639 -2.763921 -0.055918
5.608550 -9.574849 2.973313
1.690047 -2.894487 -0.898102
1.675825 -2.871280 -0.767533
33.889805 -58.088497 3.524513
1.684329 -2.888167 -0.649895
1.629544 -2.795346 0.283082
1.683279 -2.887523 -0.529374
1.596105 -2.739083 0.389251
1.661570 -2.852572 -0.405337
1.734828 -2.980734 -0.301733
6.154449 -10.574404 2.378243
1.611998 -2.770801 -0.167998
5.637985 -9.694810 2.589187
1.631085 -2.805863 -0.056651
5.625564 -9.681226 3.000231
1.689156 -2.915119 -0.902761
1.676533 -2.895664 -0.772482
1.687527 -2.915826 -0.654857
5.124188 -8.857493 0.895264
1.680112 -2.905352 -0.531564
1.590507 -2.751511 0.390226
1.648623 -2.853198 -0.404606
1.682573 -2.914302 -0.294412
1.618289 -2.804089 -0.169673
5.594371 -9.697552 2.584688
5.628033 -9.759837 -0.196654
5.584017 -9.687413 2.996089
1.682310 -2.927991 -0.904831
1.672238 -2.911637 -0.775181
33.415821 -58.205891 3.517395
3.136724 -5.465963 -1.224994
4.619796 -8.053576 0.812292
1.576944 -2.750159 0.389251
1.636679 -2.855491 -0.404119
1.622882 -2.833711 -0.285697
5.577909 -9.747463 -0.588570
5.537503 -9.680776 2.574790
5.580029 -9.755122 -0.196165
5.534825 -9.680014 2.987807
1.688340 -2.962379 -0.913631
1.668305 -2.929601 -0.778331
33.151875 -58.239460 3.512057
3.121510 -5.483704 -1.226520
3.933453 -6.912887 0.695851
3.220894 -5.662893 -1.031842
1.570777 -2.762822 0.390226
1.539890 -2.709595 -0.382670
5.427748 -9.558447 -0.961676
5.536948 -9.754716 -0.587838
5.486367 -9.669539 2.566692
5.533387 -9.756374 -0.195781
5.484066 -9.673345 2.979525
2.412138 -4.268652 -1.313766
4.767426 -8.436700 0.169149
2.717124 -4.810333 -1.275472
3.096566 -5.486558 -1.224612
4.885111 -8.659072 0.869814
3.196236 -5.667778 -1.030590
1.563074 -2.771747 0.390713
1.573313 -2.791042 -0.393394
5.450082 -9.676285 -0.971612
5.483526 -9.743614 -0.585953
5.431781 -9.655613 2.557693
5.481648 -9.744258 -0.195153
5.440797 -9.675591 2.974349
2.397223 -4.277046 -1.313766
4.725720 -8.434927 0.168765
2.704237 -4.828762 -1.277722
3.080272 -5.502474 -1.225757
3.162932 -5.654765 -1.026210
1.565498 -2.799982 0.393882
1.566946 -2.803720 -0.394369
6.402794 -11.461148 2.079327
4.799685 -8.595068 -0.861273
5.437799 -9.741770 -0.584697
5.388548 -9.657497 2.553195
5.440053 -9.753805 -0.194943
5.378958 -9.648222 2.959855
2.377777 -4.279049 -1.311695
6.189140 -11.137981 0.222413
2.690203 -4.843282 -1.279072
3.061990 -5.517160 -1.226520
4.981536 -8.979535 0.898401
3.128774 -5.642134 -1.021830
1.585559 -2.859246 0.401438
1.539827 -2.777921 -0.389982
6.387641 -11.528352 2.087462
3.869973 -6.987367 -0.698815
5.391419 -9.742412 -0.583546
5.345569 -9.663540 2.549595
5.398229 -9.758738 -0.194664
5.328419 -9.636508 2.950537
2.372720 -4.301722 -1.316354
6.127069 -11.112913 0.221506
2.671305 -4.847057 -1.277722
3.049378 -5.535350 -1.228428
4.997510 -9.075423 0.906420
3.095792 -5.624247 -1.016824
1.576068 -2.864488 0.401438
1.516257 -2.756922 -0.386326
3.593645 -6.536815 -0.652622
5.341555 -9.724289 -0.581453
5.300177 -9.652956 2.542397
5.365619 -9.772142 -0.194594
5.294402 -9.646425 2.948467
2.352127 -4.299809 -1.313248
5.387691 -9.848979 0.195956
2.657088 -4.859308 -1.278622
3.027214 -5.540792 -1.227283
4.007020 -7.337200 0.731411
3.080912 -5.641416 -1.018076
1.497598 -2.744509 -0.383888
5.705666 -10.460587 1.887226
4.595123 -8.428051 -0.839833
5.299720 -9.724412 -0.580406
5.253222 -9.643097 2.535198
5.337214 -9.801351 -0.194804
5.245920 -9.637699 2.940185
2.349834 -4.329658 -1.319977
5.349464 -9.860694 0.195816
2.643825 -4.875406 -1.280421
5.343317 -9.857569 0.587628
3.012566 -5.557704 -1.228810
3.891547 -7.182278 0.714677
3.044267 -5.620870 -1.012444
4.173439 -7.708963 1.076350
1.473837 -2.723532 -0.380232
5.319496 -9.834099 1.770838
3.758560 -6.948413 -0.691145
5.316894 -9.833390 2.172933
5.253398 -9.720011 -0.579045
5.209340 -9.642517 2.530249
5.306769 -9.826958 -0.194943
5.203069 -9.638952 2.935008
2.329213 -4.327628 -1.316871
6.372330 -11.844604 0.234770
2.628636 -4.888037 -1.281321
2.995006 -5.571645 -1.229573
4.907566 -9.133424 0.907117
3.022758 -5.627983 -1.011818
4.191575 -7.807435 1.088050
1.431468 -2.667440 -0.371702
5.285137 -9.852608 1.770838
3.738051 -6.968513 -0.691842
5.278825 -9.844969 2.171407
5.207172 -9.715405 -0.577684
5.168287 -9.646900 2.526650
5.270546 -9.841897 -0.194874
5.151157 -9.622993 2.924655
2.310454 -4.328915 -1.314801
5.997739 -11.242208 0.222413
2.612475 -4.898902 -1.281771
6.219507 -11.667699 0.692928
2.977386 -5.585531 -1.230337
4.956228 -9.301717 0.922108
2.993809 -5.621065 -1.008690
4.119519 -7.737911 1.076350
3.230375 -6.070338 -0.844311
5.627354 -10.579058 1.897863
3.733063 -7.020870 -0.695677
5.705274 -10.730059 2.362215
5.161041 -9.710594 -0.576324
5.119954 -9.637347 2.519452
5.224905 -9.839042 -0.194455
5.112101 -9.630676 2.921549
2.300896 -4.349307 -1.318424
2.593537 -4.904546 -1.280871
6.171274 -11.675212 0.692091
2.959646 -5.601613 -1.231481
3.747869 -7.096454 0.702127
2.963964 -5.614531 -1.005561
6.216571 -11.775826 1.634999
3.265678 -6.188672 -0.859179
5.573802 -10.567185 1.892232
3.602601 -6.832941 -0.675806
6.487877 -12.310560 2.704908
5.110522 -9.701173 -0.574649
5.075517 -9.638804 2.514953
5.179349 -9.835988 -0.194036
5.071254 -9.634786 2.917408
2.288393 -4.362444 -1.319977
6.149292 -11.727589 0.231140
2.578258 -4.919198 -1.282221
6.367574 -12.154198 0.719096
2.938252 -5.608432 -1.230718
4.133464 -7.893159 0.779521
2.933354 -5.603841 -1.001806
4.767152 -9.110971 1.262567
3.236533 -6.188286 -0.857473
3.549190 -6.788973 -0.670228
5.537419 -10.596610 2.324054
5.060907 -9.688857 -0.572869
5.025606 -9.625368 2.506855
5.126609 -9.822994 -0.193408
5.021610 -9.625904 2.909126
2.282065 -4.387545 -1.325154
6.538168 -12.575775 0.247405
2.561969 -4.929896 -1.282671
6.067316 -11.680080 0.689788
2.905082 -5.592521 -1.224994
4.047125 -7.794373 0.768365
2.910136 -5.607033 -1.000555
4.767315 -9.189229 1.271097
3.155512 -6.085001 -0.841630
5.507134 -10.624337 1.895360
3.696013 -7.130332 -0.702650
5.016033 -9.685183 -0.571613
4.974058 -9.608240 2.497856
5.075746 -9.808862 -0.192779
4.973778 -9.615919 2.900844
2.263195 -4.388616 -1.323083
6.494230 -12.598521 0.247405
2.550100 -4.949203 -1.285370
5.887670 -11.426719 0.673669
2.880149 -5.592156 -1.222704
4.015334 -7.799596 0.767493
2.885123 -5.606618 -0.998678
4.766989 -9.267598 1.279628
3.204145 -6.231916 -0.860398
5.589294 -10.870923 1.936033
3.697512 -7.194579 -0.707705
6.333490 -12.328929 2.694223
4.976721 -9.691973 -0.570985
4.936930 -9.618609 2.496057
5.034061 -9.807849 -0.192430
4.918935 -9.587670 2.887385
2.241705 -4.384449 -1.319459
2.536334 -4.962839 -1.286720
6.002210 -11.749567 0.691463
2.856148 -5.593432 -1.220796
4.003481 -7.843732 0.770457
2.852146 -5.588004 -0.993672
4.748860 -9.308111 1.283041
3.042776 -5.966634 -0.822374
5.730736 -11.242351 1.998607
3.663330 -7.189690 -0.705962
6.248005 -12.262400 2.675142
4.932771 -9.685287 -0.569625
4.892629 -9.610615 2.489758
5.003421 -9.832490 -0.192570
4.876680 -9.587564 2.882209
2.238512 -4.414257 -1.326189
2.515473 -4.964708 -1.284920
5.520796 -10.900937 0.640383
2.828713 -5.585359 -1.216980
3.946854 -7.796527 0.764530
2.823704 -5.580300 -0.990543
4.712757 -9.317545 1.282066
3.011182 -5.955961 -0.819450
5.333291 -10.553544 1.872834
3.623838 -7.173980 -0.703173
6.212245 -12.298154 2.678195
4.883629 -9.672136 -0.567845
4.850271 -9.610238 2.485259
4.952857 -9.817759 -0.191942
4.836225 -9.590728 2.878068
2.217981 -4.413801 -1.323601
2.501626 -4.980424 -1.286720
5.606381 -11.166461 0.654828
2.804700 -5.588670 -1.215453
4.500718 -8.972074 0.878181
2.796149 -5.576486 -0.988040
5.521928 -11.012629 1.512642
2.978811 -5.943365 -0.816281
5.345968 -10.671000 1.890354
3.608588 -7.206182 -0.705090
6.031799 -12.050478 2.619426
4.837422 -9.668536 -0.566589
4.802812 -9.603549 2.478961
4.907823 -9.813526 -0.191523
4.800989 -9.604095 2.877033
2.208590 -4.433621 -1.327224
2.485091 -4.993049 -1.287620
5.556689 -11.164507 0.653571
2.774682 -5.577333 -1.210874
5.617321 -11.296210 1.103740
2.762599 -5.557909 -0.983034
5.532757 -11.135903 1.526779
2.956124 -5.952464 -0.816037
3.576324 -7.204457 -0.703695
5.961775 -12.015182 2.607214
4.791219 -9.660315 -0.565124
4.757143 -9.595813 2.472662
4.864656 -9.812681 -0.191174
4.757143 -9.600024 2.870821
2.186258 -4.427446 -1.323083
5.762065 -11.668903 0.227161
2.469383 -5.003010 -1.288070
5.512383 -11.173088 0.652943
2.741302 -5.558812 -1.204768
2.751139 -5.581214 -0.985537
3.844602 -7.802947 1.068063
2.982853 -6.056619 -0.828955
8.270823 -16.801130 2.965998
3.544997 -7.204383 -0.702475
5.902829 -11.996131 2.598819
4.753870 -9.665396 -0.564496
4.717557 -9.595796 2.468613
4.810971 -9.790119 -0.190406
4.703162 -9.574956 2.858398
2.174112 -4.439876 -1.324636
2.453617 -5.015100 -1.288970
5.450535 -11.145612 0.650222
2.721130 -5.564344 -1.204005
5.556051 -11.366404 1.106878
2.722969 -5.573035 -0.982409
5.604925 -11.476541 1.568215
2.969530 -6.083049 -0.831149
8.357657 -17.128149 3.018560
4.217440 -8.643204 -0.841402
5.413388 -11.099092 2.400377
4.712225 -9.665773 -0.563554
4.668667 -9.580672 2.460515
4.762756 -9.778088 -0.189847
4.663791 -9.579156 2.854774
2.160288 -4.450914 -1.325671
2.433545 -5.018374 -1.287620
5.423792 -11.189732 0.651687
2.694839 -5.559676 -1.200952
2.696611 -5.568283 -0.979906
5.592506 -11.553211 1.576014
2.969028 -6.136264 -0.836999
4.345003 -8.984066 1.580614
4.058860 -8.392414 -0.815603
5.410501 -11.192157 2.416405
4.663684 -9.651592 -0.561774
4.626720 -9.579361 2.456016
4.726858 -9.791052 -0.189777
4.625288 -9.584938 2.851668
2.148926 -4.467133 -1.328259
2.418545 -5.032107 -1.288970
2.671165 -5.560201 -1.199044
2.666900 -5.556292 -0.976151
5.564165 -11.597719 1.579427
2.943300 -6.137640 -0.835780
4.047872 -8.448562 -0.819613
5.362916 -11.193270 2.412589
4.616163 -9.638990 -0.560099
4.578949 -9.565573 2.448367
4.685746 -9.793062 -0.189498
4.583467 -9.583595 2.846492
2.137525 -4.485442 -1.331365
5.364588 -11.257202 0.217666
2.405155 -5.049315 -1.291219
2.639801 -5.546908 -1.194083
8.118709 -17.067200 1.653519
2.638035 -5.548189 -0.973022
5.066753 -10.656153 1.448783
2.874139 -6.047474 -0.822131
3.986737 -8.396048 -0.813163
5.730968 -12.074833 2.598055
4.575667 -9.645019 -0.559471
4.530500 -9.554118 2.441169
4.630971 -9.765994 -0.188661
4.543366 -9.585572 2.842351
2.118554 -4.485889 -1.329295
8.065181 -17.085169 0.329781
2.388296 -5.061622 -1.292119
8.064309 -17.091047 0.990406
2.615397 -5.545435 -1.191793
8.081172 -17.142290 1.658051
2.620337 -5.560938 -0.973648
5.054729 -10.732120 1.456583
2.825744 -6.002292 -0.814575
8.023461 -17.043001 2.983518
3.857304 -8.197186 -0.792594
5.705498 -12.130295 2.605688
4.531774 -9.639241 -0.558215
4.495464 -9.566348 2.440269
4.586646 -9.760383 -0.188242
4.487703 -9.554161 2.828375
2.104521 -4.496757 -1.330330
5.426576 -11.595033 0.223461
2.375626 -5.078339 -1.294368
5.018314 -10.732450 0.620914
2.594361 -5.550973 -1.191030
4.980416 -10.661097 1.029484
2.593521 -5.551700 -0.970520
3.702183 -7.928516 1.074400
2.809182 -6.018824 -0.815550
3.828666 -8.210601 -0.792594
5.436241 -11.658058 2.500361
4.489659 -9.632493 -0.556959
4.457134 -9.567071 2.436670
4.544107 -9.758205 -0.187893
4.444543 -9.548752 2.822163
2.092849 -4.510720 -1.332400
5.350734 -11.537711 0.221995
2.353787 -5.077761 -1.292119
5.370419 -11.590758 0.669482
2.572638 -5.552421 -1.189503
4.923265 -10.630548 1.024951
2.567487 -5.546378 -0.968017
4.904871 -10.600532 1.434159
2.784822 -6.021387 -0.814575
5.162321 -11.167165 1.948548
3.245460 -7.020598 -0.676677
5.407044 -11.701913 2.505704
4.444283 -9.622722 -0.555494
4.412275 -9.557800 2.430371
4.504991 -9.763113 -0.187683
4.402285 -9.544911 2.816469
2.074671 -4.512732 -1.330848
5.339650 -11.619916 0.223216
2.336861 -5.087717 -1.292569
5.143264 -11.202849 0.646035
2.545050 -5.543525 -1.185687
2.543169 -5.544533 -0.966139
2.676126 -5.839780 -0.788738
5.123308 -11.185116 1.948548
3.225911 -7.042753 -0.677723
5.385776 -11.763557 2.514863
4.402357 -9.620015 -0.554447
4.365917 -9.544788 2.423173
4.455915 -9.746043 -0.187055
4.357699 -9.535620 2.809222
2.065312 -4.534011 -1.334989
5.313144 -11.669421 0.223810
2.321510 -5.101164 -1.293918
4.980078 -10.948034 0.630334
2.517554 -5.534504 -1.181871
4.876969 -10.726326 1.030878
2.522166 -5.549779 -0.965514
5.303640 -11.675556 1.574552
2.656546 -5.850893 -0.788982
5.286688 -11.649035 2.026139
3.891302 -8.574348 -0.823796
5.334950 -11.760831 2.510283
4.360502 -9.617134 -0.553400
4.322919 -9.538671 2.417774
4.402066 -9.717821 -0.186217
4.314825 -9.529655 2.803010
2.047089 -4.535910 -1.333436
5.241131 -11.618629 0.222483
2.308495 -5.119896 -1.296618
4.977941 -11.045469 0.634940
2.491767 -5.528940 -1.178818
4.790398 -10.634290 1.020419
2.493045 -5.536935 -0.961759
5.279147 -11.730202 1.579427
2.629591 -5.845648 -0.787032
5.145545 -11.444015 1.987344
3.852360 -8.567890 -0.821879
4.317084 -9.610433 -0.552144
4.284808 -9.543036 2.415074
4.356655 -9.707587 -0.185729
4.274417 -9.528795 2.798352
2.031244 -4.543028 -1.333436
5.269078 -11.790211 0.225415
2.294583 -5.136819 -1.298867
4.880728 -10.931468 0.627403
2.467650 -5.526847 -1.176528
4.798719 -10.752834 1.030181
2.558198 -5.735027 -0.994610
5.179965 -11.618019 1.561878
2.714216 -6.090506 -0.818718
5.641685 -12.665479 2.196027
3.862154 -8.670465 -0.830420
5.557751 -12.482915 2.656061
4.277014 -9.610847 -0.551307
4.241967 -9.536569 2.409676
4.324367 -9.726390 -0.185798
4.234853 -9.529535 2.794210
2.019284 -4.558923 -1.336024
14.372249 -32.463406 0.619700
2.274273 -5.139451 -1.297518
5.603579 -12.669065 0.726004
2.443577 -5.524655 -1.174239
5.228408 -11.826427 1.131281
2.562914 -5.799934 -1.004309
5.113715 -11.577922 1.554078
2.773912 -6.283359 -0.843336
5.184350 -11.748939 2.033961
3.807734 -8.629210 -0.825191
5.319248 -12.060349 2.562183
4.232162 -9.600131 -0.549842
4.200007 -9.531702 2.404727
4.287166 -9.734104 -0.185659
4.193001 -9.524810 2.788517
2.004911 -4.569481 -1.337059
14.244382 -32.480412 0.619072
2.258666 -5.152713 -1.298867
5.123297 -11.693368 0.669063
2.422702 -5.529554 -1.173475
2.537900 -5.797988 -1.002432
4.988929 -11.402925 1.528242
2.719352 -6.218433 -0.833343
5.572113 -12.747996 2.203536
3.772801 -8.631495 -0.824145
5.273973 -12.071647 2.560657
4.187435 -9.589221 -0.548376
4.156577 -9.523087 2.398878
4.245163 -9.730682 -0.185310
4.157412 -9.534075 2.786964
1.992028 -4.583539 -1.339130
14.142075 -32.555614 0.619560
2.243770 -5.167716 -1.300667
5.107891 -11.769810 0.672412
2.398696 -5.527172 -1.171186
4.987145 -11.497072 1.096419
2.512932 -5.795937 -1.000555
4.472338 -10.320136 1.381024
2.717354 -6.273427 -0.839436
5.547987 -12.814501 2.211671
3.698321 -8.542222 -0.814383
5.170986 -11.949444 2.530891
4.149179 -9.592781 -0.547748
4.115577 -9.519649 2.394379
4.198481 -9.716071 -0.184751
4.111850 -9.520152 2.778681
1.976017 -4.590465 -1.339130
2.224178 -5.171936 -1.299767
5.042006 -11.724300 0.668854
2.368534 -5.510259 -1.165843
2.498920 -5.819194 -1.003058
2.698571 -6.290171 -0.840411
3.765845 -8.782141 -0.835998
5.124604 -11.956594 2.528601
4.107804 -9.588846 -0.546701
4.076184 -9.519626 2.390780
4.155219 -9.704205 -0.184263
4.073416 -9.517753 2.774023
1.956951 -4.590226 -1.337059
2.210835 -5.188247 -1.302017
4.997919 -11.734478 0.668435
2.350823 -5.522107 -1.166606
4.789745 -11.256610 1.070273
2.488890 -5.849261 -1.006812
2.657505 -6.251586 -0.834074
3.763983 -8.863085 -0.842447
5.072647 -11.944609 2.522495
4.069740 -9.587708 -0.545864
4.037743 -9.516946 2.386731
4.124443 -9.726014 -0.184402
4.031875 -9.512348 2.768328
1.946980 -4.609148 -1.340683
2.187407 -5.183364 -1.298867
4.607631 -10.923739 0.621333
2.326395 -5.515400 -1.163553
4.993879 -11.845233 1.124658
2.912596 -6.911901 -1.187963
4.415147 -10.482725 1.396623
3.624887 -8.619050 -0.818044
4.998956 -11.886234 2.506467
4.022317 -9.568713 -0.543980
3.998461 -9.516609 2.383132
4.088917 -9.736664 -0.184332
3.995656 -9.519238 2.766258
1.930819 -4.618035 -1.341200
5.023179 -12.014183 0.227300
2.173809 -5.201757 -1.301567
5.223791 -12.506265 0.710304
2.299356 -5.507585 -1.160119
2.896368 -6.944408 -1.191718
4.383112 -10.509067 1.398085
3.492955 -8.378915 -1.114617
3.607799 -8.662918 -0.821007
3.979547 -9.564952 -0.542933
3.950833 -9.500611 2.375483
4.062584 -9.769342 -0.184681
3.943867 -9.488531 2.753317
1.914687 -4.624747 -1.341200
2.157708 -5.216893 -1.303366
4.674766 -11.302618 0.641011
2.275617 -5.504691 -1.157829
2.409888 -5.835259 -0.999929
4.958076 -12.011341 1.595514
3.465249 -8.399001 -1.115592
3.597287 -8.723349 -0.825539
3.940048 -9.564012 -0.542096
3.908742 -9.492720 2.370084
3.999527 -9.713198 -0.183355
3.904840 -9.487948 2.749176
1.898532 -4.631402 -1.341200
5.200097 -12.685452 0.239307
2.146307 -5.238445 -1.306966
5.157550 -12.594180 0.713234
2.248951 -5.494432 -1.154013
2.421939 -5.920007 -1.013070
4.793496 -11.722705 1.555053
3.449394 -8.439848 -1.119492
3.584889 -8.780123 -0.829723
3.903784 -9.565929 -0.541468
3.872825 -9.494803 2.367385
3.942948 -9.671549 -0.182308
3.856387 -9.463951 2.738306
1.884617 -4.641252 -1.342236
5.178346 -12.759113 0.240355
2.128009 -5.245905 -1.306966
5.460262 -13.467229 0.761593
2.235144 -5.512776 -1.156303
2.374562 -5.862513 -1.001806
4.728711 -11.680486 1.547253
3.431826 -8.481279 -1.123392
3.564718 -8.814126 -0.831814
3.863635 -9.562831 -0.540526
3.830171 -9.484775 2.361536
3.934612 -9.748301 -0.183495
3.816102 -9.459438 2.733129
1.869125 -4.649595 -1.342753
2.104601 -5.240643 -1.303816
4.926655 -12.274004 0.693137
2.210037 -5.505968 -1.153250
4.962951 -12.370677 1.166144
2.356289 -5.876266 -1.002745
2.491305 -6.219261 -0.822618
4.920085 -12.288650 2.096535
3.542815 -8.848711 -0.833906
7.091304 -17.720547 3.710090
3.819105 -9.548443 -0.538956
3.791977 -9.485419 2.358387
3.821909 -9.565140 -0.179795
3.776611 -9.456555 2.728471
1.855027 -4.661475 -1.344306
3.798751 -9.550692 0.179411
2.092054 -5.262444 -1.307415
4.895579 -12.320826 0.694812
2.182104 -5.491756 -1.148670
5.115353 -12.880479 1.212511
2.351797 -5.924849 -1.009628
2.462264 -6.209466 -0.820181
3.513375 -8.864729 -0.834255
3.780605 -9.548717 -0.538223
3.749523 -9.475041 2.352538
3.781144 -9.559827 -0.179446
3.740737 -9.462494 2.726400
1.843700 -4.680505 -1.347930
3.753669 -9.534123 0.178852
2.076526 -5.276968 -1.309215
3.756006 -9.549836 0.537804
2.161485 -5.495685 -1.147907
3.756848 -9.556874 0.898401
2.330378 -5.931182 -1.009315
3.744119 -9.534266 1.257692
3.373286 -8.594360 -1.133629
3.760716 -9.586366 1.630986
3.750175 -9.559495 -0.898401
3.745065 -9.556277 -0.537909
3.710739 -9.473557 2.348939
3.733172 -9.535725 -0.178748
3.702052 -9.461102 2.722259
1.822439 -4.674313 -1.344306
3.715283 -9.534125 0.178608
2.060922 -5.291449 -1.311015
3.716852 -9.547998 0.536967
2.135166 -5.484901 -1.144091
3.713351 -9.543936 0.895961
2.325411 -5.979784 -1.016198
3.713691 -9.554676 1.258667
2.466296 -6.348629 -0.836268
3.700061 -9.529459 1.619097
3.710294 -9.555812 -0.896833
3.697721 -9.528359 1.986703
3.701573 -9.543222 -0.536444
3.674126 -9.477366 2.346689
3.696972 -9.541241 -0.178608
3.659934 -9.450548 2.715529
1.806806 -4.682447 -1.344824
3.671907 -9.520915 0.178119
2.045243 -5.305884 -1.312814
3.677755 -9.546006 0.536130
2.118830 -5.499649 -1.145617
3.677150 -9.549400 0.895264
2.293172 -5.958368 -1.011192
3.667488 -9.534232 1.254279
2.440558 -6.347935 -0.835049
3.662524 -9.531253 1.617220
3.672627 -9.557545 -0.895787
3.660215 -9.530212 1.984414
3.656786 -9.526251 -0.534769
3.636832 -9.479218 2.343990
3.655769 -9.533548 -0.178224
3.623467 -9.454247 2.712941
1.792518 -4.694140 -1.346377
3.635085 -9.524333 0.177945
2.027404 -5.314811 -1.313264
3.638009 -9.541989 0.535188
2.094025 -5.492336 -1.142564
3.632443 -9.532390 0.892475
2.277983 -5.981105 -1.013695
3.628536 -9.532133 1.252329
2.358385 -6.198710 -0.814331
3.623613 -9.529208 1.614717
3.620830 -9.521889 -0.891255
3.619254 -9.522743 1.980216
3.613581 -9.512818 -0.533303
3.598188 -9.477280 2.340391
3.616083 -9.529425 -0.177910
3.589073 -9.463224 2.711906
1.778853 -4.707597 -1.348447
3.597577 -9.525740 0.177735
2.008151 -5.320033 -1.312814
3.596218 -9.532206 0.533931
2.069296 -5.484917 -1.139511
3.589305 -9.518912 0.890034
2.248732 -5.966839 -1.009941
3.589642 -9.529881 1.250380
2.355617 -6.257066 -0.820912
3.583372 -9.523310 1.611588
3.583361 -9.523280 -0.890209
3.580461 -9.520618 1.977163
3.574028 -9.508549 -0.532361
3.554120 -9.460593 2.333192
3.575065 -9.521398 -0.177526
3.548552 -9.455800 2.706212
1.765115 -4.721016 -1.350518
3.559404 -9.525127 0.177491
1.990932 -5.330661 -1.313714
3.555239 -9.524118 0.532780
2.046018 -5.481071 -1.137222
3.554663 -9.527650 0.889686
2.208566 -5.922827 -1.001181
3.551502 -9.529332 1.248673
2.329603 -6.254089 -0.819450
3.539079 -9.506143 1.606582
3.545229 -9.522661 -0.888989
3.542415 -9.520179 1.974492
3.538032 -9.513478 -0.531943
3.514963 -9.456503 2.329143
3.531362 -9.505699 -0.177002
3.514179 -9.464507 2.705177
1.745945 -4.719901 -1.348447
3.518507 -9.516862 0.177107
1.977716 -5.352202 -1.317313
3.515746 -9.519608 0.531838
2.021432 -5.473446 -1.134169
3.513105 -9.517570 0.887594
2.149589 -5.826717 -0.983660
3.511349 -9.523046 1.246236
3.211779 -8.715275 -1.140453
3.501779 -9.507315 1.604705
3.501639 -9.506932 -0.886374
3.505770 -9.523273 1.972583
3.500664 -9.514524 -0.531315
3.474535 -9.448596 2.324194
3.489881 -9.495444 -0.176583
3.468463 -9.442262 2.695342
1.729458 -4.725967 -1.348447
3.474275 -9.499038 0.176549
1.963036 -5.370055 -1.320013
3.479752 -9.524319 0.531419
1.999619 -5.473093 -1.132642
3.473027 -9.511060 0.885851
2.100116 -5.754391 -0.970207
3.470603 -9.514730 1.243555
3.190856 -8.752544 -1.143866
3.462486 -9.502777 1.601889
3.461612 -9.500379 -0.884631
3.456383 -9.491179 1.963425
3.461965 -9.511671 -0.530477
3.434203 -9.440521 2.319245
3.455348 -9.503811 -0.176514
3.428226 -9.434338 2.689647
1.714924 -4.737424 -1.350000
3.434292 -9.492303 0.176199
1.939641 -5.364045 -1.316863
3.440375 -9.519502 0.530477
1.979835 -5.478193 -1.132261
3.433037 -9.504386 0.884108
2.096785 -5.808137 -0.978028
3.430633 -9.508114 1.241117
3.164326 -8.774833 -1.145328
3.423934 -9.499938 1.599386
3.426400 -9.506781 -0.884108
3.415248 -9.481021 1.958845
3.418595 -9.495510 -0.528907
3.397930 -9.443284 2.316996
3.416739 -9.500761 -0.176234
3.390700 -9.433521 2.686024
1.704238 -4.759751 -1.354659
3.397769 -9.494819 0.176025
1.923529 -5.378123 -1.318663
3.400402 -9.512646 0.529431
1.960039 -5.483222 -1.131879
3.396488 -9.506931 0.883236
2.065206 -5.783795 -0.972710
3.390750 -9.501336 1.238680
2.172033 -6.089685 -0.793857
3.382794 -9.489504 1.595632
3.385168 -9.496163 -0.882016
3.378179 -9.481789 1.956556
3.379397 -9.490452 -0.527965
3.355146 -9.427547 2.310247
3.378194 -9.497557 -0.175955
3.353866 -9.434378 2.682918
1.690837 -4.774776 -1.357247
3.360600 -9.495311 0.175816
1.906044 -5.388479 -1.319563
3.358521 -9.499977 0.528070
1.930417 -5.460414 -1.125773
3.357971 -9.503700 0.881842
2.087760 -5.912042 -0.993046
3.352278 -9.498139 1.236730
2.170573 -6.153391 -0.801169
3.340453 -9.475173 1.591252
3.351336 -9.506042 -0.881842
3.343756 -9.489820 1.955792
3.342269 -9.490887 -0.527337
3.318981 -9.430012 2.307998
3.337058 -9.486654 -0.175536
3.307459 -9.407756 2.672048
1.670329 -4.769710 -1.354141
3.321491 -9.489997 0.175501
1.893014 -5.411655 -1.323612
3.321724 -9.495980 0.527232
1.907458 -5.456000 -1.123483
3.314263 -9.485270 0.879053
2.001983 -5.732800 -0.961759
3.313215 -9.492915 1.234537
2.221457 -6.364845 -0.827737
3.304461 -9.473142 1.589062
3.308295 -9.489463 -0.879227
3.305441 -9.486603 1.952739
3.306493 -9.494951 -0.526918
3.281285 -9.422563 2.303499
3.303608 -9.492002 -0.175432
3.270531 -9.402250 2.667389
1.662092 -4.797127 -1.360353
3.284113 -9.483953 0.175187
1.875058 -5.417902 -1.323612
3.289563 -9.505056 0.527128
1.890638 -5.466006 -1.124247
3.278233 -9.483027 0.877833
1.961029 -5.675926 -0.951122
3.273943 -9.481333 1.231612
2.159519 -6.253964 -0.812381
3.270450 -9.476579 1.587810
3.271611 -9.485312 -0.877833
3.264368 -9.469670 1.947015
3.267181 -9.483203 -0.525662
3.250020 -9.433392 2.303499
3.266904 -9.487779 -0.175152
3.229904 -9.385643 2.659625
0.389620 -1.136691 -0.321971
3.248109 -9.481548 0.174943
1.857081 -5.424091 -1.323612
3.248605 -9.493805 0.525872
1.872501 -5.472246 -1.124247
3.243545 -9.484419 0.876961
3.235425 -9.471474 1.228931
2.101118 -6.154383 -0.798488
3.230971 -9.469240 1.584681
3.234349 -9.479139 -0.876264
3.226610 -9.461862 1.943199
3.225405 -9.463737 -0.523988
3.208903 -9.420698 2.297650
3.227967 -9.482088 -0.174838
3.192144 -9.382230 2.655483
0.386890 -1.141704 -0.323006
3.210501 -9.479571 0.174699
1.838137 -5.430540 -1.323612
3.207126 -9.480492 0.524511
1.849614 -5.467590 -1.121957
3.204036 -9.476810 0.875218
1.959025 -5.797686 -0.969268
3.197899 -9.469545 1.227224
2.125328 -6.297101 -0.816037
3.190953 -9.459873 1.581240
3.194872 -9.471493 -0.874521
3.196072 -9.480509 1.944725
3.189164 -9.465475 -0.523464
3.168536 -9.409679 2.292251
3.186555 -9.468660 -0.174384
3.159375 -9.393315 2.655483
0.386584 -1.154038 -0.326112
3.170410 -9.469862 0.174315
1.822879 -5.448012 -1.326311
3.169578 -9.478370 0.523778
1.824290 -5.455394 -1.118141
3.168411 -9.480377 0.874521
1.946286 -5.826972 -0.973022
3.162308 -9.473118 1.226249
2.058730 -6.170784 -0.798732
3.154164 -9.459709 1.579363
3.160532 -9.478806 -0.874172
3.151786 -9.458080 1.937856
3.150423 -9.459496 -0.522522
3.129516 -9.402192 2.287752
3.150329 -9.470239 -0.174210
3.122910 -9.393287 2.652378
0.374052 -1.129706 -0.318865
3.137335 -9.480870 0.174315
1.804463 -5.456191 -1.326761
3.133967 -9.481790 0.523360
1.806469 -5.465457 -1.118904
3.126550 -9.464894 0.872080
1.948228 -5.901259 -0.984286
3.123625 -9.467134 1.224056
2.055827 -6.234490 -0.806044
3.117413 -9.459405 1.577485
3.118693 -9.463290 -0.871732
3.115068 -9.457837 1.935566
3.117384 -9.470435 -0.522522
3.091805 -9.398251 2.284153
3.109134 -9.456481 -0.173756
3.081659 -9.378436 2.645131
0.370106 -1.131004 -0.318865
3.091789 -9.453752 0.173617
1.784801 -5.460605 -1.326311
3.097130 -9.481282 0.522732
1.788600 -5.475462 -1.119667
3.091018 -9.468174 0.871383
1.932518 -5.923047 -0.986789
3.086868 -9.466655 1.222593
2.036512 -6.249178 -0.807019
3.081317 -9.460837 1.575921
3.080089 -9.457068 -0.870163
3.077780 -9.455585 1.932895
3.078130 -9.462267 -0.521476
3.054764 -9.396012 2.281004
3.069925 -9.448259 -0.173407
3.046517 -9.381787 2.643060
0.366750 -1.134127 -0.319383
3.053236 -9.447360 0.173302
1.765729 -5.466802 -1.326311
3.060333 -9.480631 0.522104
1.765857 -5.470462 -1.117378
3.053057 -9.463737 0.869989
1.913044 -5.933517 -0.987414
3.044671 -9.449031 1.218937
2.020162 -6.273254 -0.809213
3.042827 -9.454613 1.573105
3.041565 -9.450692 -0.868594
3.036340 -9.440105 1.927553
3.038969 -9.453938 -0.520429
3.015986 -9.388065 2.276505
3.036927 -9.458917 -0.173407
3.010799 -9.383166 2.640472
0.359849 -1.126200 -0.316795
3.016590 -9.446531 0.173093
1.741303 -5.456223 -1.322262
3.016904 -9.458907 0.520324
1.743171 -5.465370 -1.115088
3.013952 -9.455353 0.868246
1.908509 -5.990978 -0.995862
3.008658 -9.450143 1.217719
2.005475 -6.302968 -0.812137
3.004418 -9.448234 1.570289
3.005538 -9.451758 -0.867723
2.999802 -9.439420 1.925263
2.999904 -9.445455 -0.519382
2.978480 -9.383677 2.272905
3.001472 -9.461837 -0.173267
2.973357 -9.378887 2.636331
0.357079 -1.131133 -0.317830
2.979385 -9.443654 0.172849
1.722833 -5.464127 -1.322712
2.982066 -9.463666 0.520010
1.719362 -5.456442 -1.112035
2.979731 -9.462014 0.867897
1.914864 -6.084279 -1.010254
2.970291 -9.443546 1.215525
1.976913 -6.289098 -0.809456
2.968460 -9.449241 1.568725
2.962128 -9.434849 1.922210
2.965718 -9.452056 -0.519173
2.941626 -9.381000 2.269756
2.959455 -9.443633 -0.172744
2.940023 -9.387364 2.635813
0.343926 -1.102865 -0.309548
2.944023 -9.446362 0.172709
1.700852 -5.460804 -1.320463
2.942484 -9.453041 0.518859
1.699139 -5.458662 -1.111272
2.940175 -9.451432 0.865979
1.972784 -6.345579 -1.052491
2.936132 -9.450065 1.215037
1.930224 -6.216337 -0.799219
2.927260 -9.433132 1.564345
2.111607 -6.804680 -0.623338
2.925688 -9.433880 1.919920
2.109066 -6.804880 -0.373365
2.903095 -9.372596 2.265257
2.114583 -6.831110 -0.124820
2.899815 -9.373578 2.629084
0.335525 -1.089289 -0.305406
1.682352 -5.468571 -1.320913
2.903014 -9.442254 0.517707
1.677767 -5.457053 -1.109745
2.903069 -9.448306 0.864759
1.950042 -6.350539 -1.052178
2.895557 -9.435584 1.211869
1.894544 -6.177489 -0.793369
2.892579 -9.437627 1.563406
2.078501 -6.781531 -0.620549
2.886990 -9.425265 1.916104
2.077115 -6.785464 -0.371899
2.866942 -9.371491 2.262558
2.077277 -6.794467 -0.124017
2.863125 -9.370710 2.625460
0.330596 -1.086757 -0.304371
2.060786 -6.778590 0.123668
1.654189 -5.444577 -1.313714
2.064615 -6.799715 0.372423
1.657566 -5.459119 -1.108982
2.063026 -6.798748 0.621595
2.053979 -6.773187 -1.121009
2.069226 -6.827758 0.875997
1.914399 -6.320855 -0.810919
2.054816 -6.788745 -0.620549
2.849524 -9.420251 1.913051
2.048215 -6.775466 -0.370957
2.833085 -9.377710 2.261658
2.046034 -6.776790 -0.123563
2.827050 -9.369551 2.622355
0.337917 -1.124908 -0.314724
2.035386 -6.779996 0.123563
1.634054 -5.446585 -1.312814
2.032837 -6.780097 0.370957
1.636809 -5.459230 -1.107837
2.036422 -6.796365 0.620723
2.015590 -6.731115 -1.112875
2.033429 -6.795002 0.870878
1.895168 -6.337008 -0.812137
2.032429 -6.800305 1.124138
2.089300 -6.990590 -0.638329
2.027768 -6.789024 1.377259
2.022839 -6.776833 -0.370643
2.026578 -6.793691 1.636744
2.020081 -6.776226 -0.123423
2.030934 -6.816978 1.905944
2.007161 -6.771721 0.123284
1.613371 -5.446650 -1.311465
2.004622 -6.771831 0.370120
1.613842 -5.451733 -1.105166
2.009294 -6.791969 0.619677
2.009444 -6.796833 -1.122574
2.002948 -6.779214 0.867954
2.119251 -7.177466 -0.918895
1.994704 -6.759993 1.116316
2.069961 -7.015038 -0.639897
1.999059 -6.779113 1.373825
1.998041 -6.780022 -0.370434
1.994044 -6.770813 1.629545
1.991898 -6.767889 -0.123144
2.000039 -6.799932 1.899214
1.989689 -6.799798 0.123668
1.596537 -5.459730 -1.313264
1.979851 -6.774952 0.369911
1.590947 -5.444142 -1.102494
1.978871 -6.775991 0.617586
1.980726 -6.786740 -1.119758
1.974269 -6.769013 0.865760
2.026415 -6.952313 -0.889159
1.967779 -6.755535 1.114439
2.031531 -6.974399 -0.635540
1.971543 -6.772854 1.371153
1.973805 -6.785037 -0.370329
1.968764 -6.772119 1.628196
1.970493 -6.782482 -0.123284
1.974137 -6.799451 1.897144
1.575307 -5.457781 -1.311465
1.574655 -5.459094 -1.104403
1.956863 -6.788601 0.618109
1.967412 -6.829679 -1.125703
1.951179 -6.777771 0.866004
1.992805 -6.926913 -0.885015
1.940912 -6.750972 1.112562
1.953774 -6.795710 -0.618631
1.944636 -6.768373 1.368864
1.950659 -6.793806 -0.370434
1.943501 -6.773331 1.626846
1.948460 -6.795085 -0.123389
1.935489 -6.754302 1.882650
1.935043 -6.788522 0.123214
1.549840 -5.440756 -1.306066
1.934146 -6.794372 0.370225
1.549139 -5.441898 -1.099823
1.928792 -6.780059 0.616714
1.964627 -6.910607 -1.137904
1.923167 -6.769265 0.864054
1.958853 -6.899454 -0.880628
1.920031 -6.767207 1.114126
1.934936 -6.819739 -0.620200
1.916714 -6.760010 1.365811
1.930744 -6.814025 -0.371167
1.916661 -6.768823 1.624147
1.930718 -6.823011 -0.123772
1.910849 -6.757299 1.881615
1.914583 -6.806786 0.123423
1.530312 -5.444257 -1.305616
1.909877 -6.799159 0.370120
1.534381 -5.462393 -1.102876
1.903499 -6.780996 0.616191
1.945294 -6.934541 -1.140720
1.875950 -6.691835 0.853329
1.924048 -6.868020 -0.875753
1.900124 -6.787184 1.116316
1.918637 -6.853312 -0.622641
1.887816 -6.747753 1.361995
1.911249 -6.836111 -0.372004
1.891972 -6.771719 1.623247
1.907964 -6.833561 -0.123842
1.887770 -6.765788 1.882132
1.894555 -6.826915 0.123668
1.511298 -5.449565 -1.305616
1.889332 -6.817333 0.370748
1.507439 -5.439337 -1.097152
1.886730 -6.812561 0.618457
1.925819 -6.958424 -1.143536
1.864221 -6.740434 0.858692
2.147023 -7.768233 -0.989579
1.879051 -6.803296 1.117881
1.903721 -6.892616 -0.625604
1.869474 -6.773227 1.365811
1.894278 -6.867770 -0.373365
1.866252 -6.770767 1.621447
1.891003 -6.865242 -0.124296
1.865166 -6.776062 1.883168
1.875993 -6.852775 0.124017
1.492267 -5.454808 -1.305616
1.871318 -6.845078 0.371899
1.489479 -5.448353 -1.097915
1.866088 -6.830637 0.619503
1.899957 -6.959386 -1.142597
1.862625 -6.827334 0.868928
2.111539 -7.745036 -0.985679
1.855291 -6.809813 1.117881
1.853555 -6.808125 1.371535
2.558743 -9.404760 -0.510799
1.847207 -6.794164 1.625496
2.547043 -9.374672 -0.169568
1.841502 -6.782531 1.883168
2.534399 -9.386385 0.169707
1.474231 -5.463747 -1.306516
1.857292 -6.888208 0.373888
1.470452 -5.453519 -1.097915
1.790398 -6.644731 0.602072
1.872057 -6.952624 -1.140407
1.792877 -6.663189 0.847236
2.052534 -7.633505 -0.970568
1.839198 -6.844863 1.122574
2.305872 -8.581664 -0.777429
1.830797 -6.818346 1.372298
2.522276 -9.400131 -0.510066
1.616048 -6.026966 1.440587
2.518444 -9.398959 -0.169847
1.822811 -6.807580 1.888344
2.500076 -9.389377 0.169602
1.456153 -5.472626 -1.307415
2.500940 -9.405830 0.510066
1.451406 -5.458619 -1.097915
2.497298 -9.398737 0.850814
1.925338 -7.251227 -1.188276
2.489465 -9.382451 1.191882
2.042155 -7.702025 -0.978367
2.485152 -9.379404 1.536812
2.263146 -8.541513 -0.773071
1.819549 -6.872142 1.381839
2.480762 -9.376056 -0.508287
1.814675 -6.863414 1.638993
2.479490 -9.384493 -0.169428
1.807915 -6.847522 1.897661
2.463222 -9.382574 0.169323
1.437042 -5.477675 -1.307415
2.458976 -9.379727 0.508182
1.432343 -5.463652 -1.097915
2.461951 -9.397761 0.849943
1.982058 -7.571304 -1.239587
2.455192 -9.385322 1.191151
2.036344 -7.789770 -0.988604
2.453396 -9.391844 1.537438
2.169868 -8.306470 -0.751108
2.450595 -9.387823 1.885956
2.443482 -9.367264 -0.507345
2.428733 -9.317383 2.222966
2.445204 -9.387285 -0.169323
1.792275 -6.885573 1.906461
2.426449 -9.375627 0.169044
2.427220 -9.392121 0.508392
1.407368 -5.445809 -1.093336
1.676878 -6.493355 0.586732
1.959072 -7.591566 -1.241777
2.419937 -9.384225 1.189932
2.069574 -8.031350 -1.018340
2.414685 -9.377395 1.533684
2.136884 -8.298558 -0.749714
2.414875 -9.384912 1.883667
2.410271 -9.373802 -0.507240
2.400074 -9.340902 2.226566
2.407947 -9.378331 -0.169009
2.389484 -9.313176 2.576285
2.392718 -9.380164 0.168974
1.618957 -6.356056 0.343743
1.391258 -5.462103 -1.095625
2.389893 -9.389619 0.847677
1.939865 -7.627074 -1.246470
2.388633 -9.398386 1.190664
2.000968 -7.878832 -0.998110
2.377565 -9.368534 1.530868
2.103494 -8.288587 -0.748145
2.378722 -9.379964 1.880995
2.375573 -9.374413 -0.506821
2.362670 -9.330332 2.222066
2.370780 -9.369231 -0.168695
2.353647 -9.308350 2.572661
2.357035 -9.376823 0.168765
2.360801 -9.398740 0.507868
1.367403 -5.447885 -1.091809
2.353711 -9.384377 0.846457
1.910348 -7.622303 -1.244593
2.350989 -9.387410 1.188226
1.990804 -7.955095 -1.006885
2.347923 -9.382116 1.531806
2.101131 -8.402186 -0.757732
2.339302 -9.361545 1.875653
2.340418 -9.372961 -0.506298
2.327256 -9.327178 2.219367
2.337761 -9.369281 -0.168555
2.315288 -9.286112 2.564379
2.320155 -9.361297 0.168346
2.322220 -9.383657 0.506612
1.350263 -5.460248 -1.093336
2.317594 -9.378996 0.845236
1.880323 -7.609418 -1.241464
2.309853 -9.354684 1.183108
1.961559 -7.950089 -1.005422
2.313267 -9.382584 1.530555
2.037475 -8.270182 -0.745182
2.303080 -9.348281 1.871455
2.302639 -9.353519 -0.504833
2.290727 -9.312137 2.213968
2.302179 -9.365734 -0.168346
2.282399 -9.292260 2.563861
2.286041 -9.363510 0.168241
1.572816 -6.451947 0.348034
1.334010 -5.472325 -1.094862
2.285064 -9.380822 0.844713
1.856552 -7.627453 -1.243341
2.273901 -9.349187 1.181401
1.936141 -7.966532 -1.006641
2.274441 -9.365646 1.526488
2.027905 -8.350466 -0.751805
2.269971 -9.354355 1.871073
2.267621 -9.351794 -0.504309
2.254996 -9.306817 2.210819
2.268060 -9.367882 -0.168241
1.525858 -6.307143 1.738746
2.251472 -9.363656 0.168102
2.246397 -9.356915 0.504309
1.318566 -5.492220 -1.097915
2.246727 -9.365491 0.842622
1.831298 -7.639649 -1.244280
2.243564 -9.366720 1.182620
1.947133 -8.135410 -1.027115
2.234385 -9.342789 1.521482
2.000136 -8.363305 -0.752328
2.235023 -9.352674 1.869165
2.233572 -9.353825 -0.503995
2.219329 -9.301364 2.207669
2.228390 -9.346564 -0.167718
2.215681 -9.300452 2.561791
2.217852 -9.367566 0.168032
2.213262 -9.362757 0.504205
1.325582 -5.607604 -1.120049
1.615402 -6.838964 0.614797
1.802349 -7.636383 -1.242715
2.209488 -9.368699 1.181889
1.898690 -8.057141 -1.016390
2.204474 -9.362068 1.523359
1.934789 -8.223185 -0.739081
2.203712 -9.366152 1.870310
2.198623 -9.351844 -0.503472
2.183728 -9.295774 2.204520
2.193923 -9.346498 -0.167578
2.177909 -9.285559 2.555579
2.176062 -9.336300 0.167334
1.562204 -6.713170 0.361223
2.174241 -9.358040 0.840530
1.561713 -6.727016 -1.093790
2.171385 -9.353150 1.178964
1.843190 -7.945762 -1.001522
2.164645 -9.338917 1.518353
1.893935 -8.177481 -0.734374
2.167154 -9.364603 1.868402
2.162982 -9.354001 -0.503158
1.475796 -6.387286 1.513471
2.161735 -9.356048 -0.167613
2.140702 -9.272399 2.549885
2.143615 -9.352011 0.167473
1.547678 -6.757519 0.363316
2.137566 -9.348093 0.838961
0.528874 -2.314753 -0.376069
2.134438 -9.349434 1.177502
2.130276 -9.338713 1.517102
2.129268 -9.341812 -0.838264
2.126170 -9.335740 1.861151
2.126771 -9.345915 -0.502321
1.459108 -6.417101 1.519319
2.125516 -9.347938 -0.167334
2.108323 -9.279815 2.549885
1.610641 -7.135362 0.127682
1.542962 -6.846661 0.367817
1.699506 -7.553597 0.677374
0.514257 -2.285659 -0.371063
2.100374 -9.342904 1.175796
0.517290 -2.302891 -0.289805
2.096799 -9.342236 1.516476
2.094465 -9.339468 -0.837392
2.096488 -9.348487 1.862296
2.091838 -9.335376 -0.501379
1.465069 -6.543611 1.548113
2.092436 -9.353349 -0.167299
2.073388 -9.275806 2.546779
1.592227 -7.170223 0.128205
1.516459 -6.840305 0.367189
2.070439 -9.346865 0.837567
0.504995 -2.281654 -0.370124
2.064321 -9.334673 1.173846
0.538372 -2.436490 -0.306380
1.366181 -6.187991 1.003684
0.501696 -2.272388 -0.203596
2.059191 -9.334659 1.858098
2.058807 -9.340671 -0.501274
2.041152 -9.268265 2.191023
1.552673 -7.056088 -0.126111
2.040997 -9.282987 2.546779
2.038240 -9.332561 0.166740
2.037609 -9.345318 0.501274
2.034407 -9.338462 0.836172
0.495347 -2.275682 -0.368872
2.032145 -9.343760 1.174089
0.577919 -2.659494 -0.334166
2.023983 -9.321899 1.510844
0.490379 -2.258549 -0.202201
1.407670 -6.488793 1.290632
2.009612 -9.279142 2.191923
2.019473 -9.332548 -0.166670
2.003275 -9.265508 2.540050
2.003973 -9.331800 0.166601
2.001207 -9.334798 0.500332
1.998042 -9.327971 0.834603
0.484093 -2.261944 -0.366370
1.997026 -9.339150 1.172627
0.561581 -2.628493 -0.330022
1.989782 -9.321181 1.509593
0.496634 -2.326495 -0.208128
1.989468 -9.327686 1.853900
0.480799 -2.256173 -0.120896
1.974775 -9.274664 2.189224
1.983972 -9.325849 -0.166426
1.969714 -9.266776 2.538497
1.968494 -9.325042 0.166356
1.967787 -9.337817 0.500122
1.964647 -9.330991 0.834255
0.473348 -2.250089 -0.364179
1.959924 -9.324695 1.169946
0.520172 -2.476963 -0.310767
1.955204 -9.318403 1.508028
0.510195 -2.431561 -0.217366
1.951660 -9.309594 1.848939
0.470055 -2.244153 -0.120163
1.341629 -6.410835 1.512121
1.947723 -9.315102 -0.166112
1.936565 -9.269813 2.537462
1.420875 -6.849104 0.122097
1.931130 -9.325071 0.499076
1.933276 -9.343644 0.834778
0.449894 -2.176283 -0.351978
1.327872 -6.429001 0.806044
0.521954 -2.529311 -0.317104
1.282840 -6.221940 1.006187
0.512969 -2.487965 -0.222247
1.916378 -9.302891 1.846268
0.457789 -2.224262 -0.119012
1.902520 -9.251957 2.180676
1.923244 -9.361019 -0.166810
1.902642 -9.268946 2.535392
1.404148 -6.889291 0.122725
1.897771 -9.327842 0.498866
0.436791 -2.150738 -0.347597
1.288843 -6.351888 0.795807
0.510361 -2.517499 -0.315398
1.181903 -5.835296 0.942987
0.476991 -2.355001 -0.210220
1.297465 -6.411602 1.271551
0.445273 -2.202354 -0.117756
1.407193 -6.966351 1.640793
0.457706 -2.267922 -0.040385
1.866457 -9.256594 2.530215
1.865633 -9.319654 0.165903
1.861678 -9.316783 0.497924
1.264575 -6.334331 0.565118
0.430440 -2.158062 -0.348536
1.262783 -6.336880 0.793369
0.501570 -2.519265 -0.315398
1.191586 -5.990504 0.967391
0.434173 -2.182737 -0.194706
1.851769 -9.317967 1.846650
0.438360 -2.207814 -0.117965
1.833713 -9.243988 2.175727
0.445898 -2.249891 -0.040036
