# This PCD file was generated using the MATLAB® pcwrite function
# from Computer Vision Toolbox®.
# .PCD v.7 - Point Cloud Data file format
VERSION .7
FIELDS x y z
SIZE 4 4 4
TYPE F F F
COUNT 1 1 1
WIDTH 1729
HEIGHT 1
VIEWPOINT 0 0 0 1 0 0 0
POINTS 1729
DATA ascii
2.439313 7.727114 -1.283388
3.422496 10.834979 1.395160
2.485133 7.862687 -1.012491
2.482671 7.850142 1.304038
2.431359 7.687893 -0.705439
2.436224 7.698590 1.569595
2.438788 7.702022 -0.423398
2.445008 7.716997 1.868893
2.440829 7.699127 -0.140981
2.453363 7.733976 2.174080
1.664739 5.225771 -1.469575
2.452919 7.695284 0.140981
1.902602 5.965234 -1.445535
7.799286 24.438435 1.344406
2.229397 6.985634 -1.425343
4.825637 15.111613 1.387868
2.468678 7.726079 -1.284640
3.419181 10.694393 1.378586
2.516191 7.865309 -1.013953
2.513072 7.850835 1.305602
2.461218 7.688846 -0.706310
2.467867 7.704997 1.572648
2.465657 7.693462 -0.423398
2.475503 7.719549 1.871593
2.472579 7.705793 -0.141260
2.485067 7.740081 2.178221
1.682379 5.218089 -1.469057
2.484066 7.699996 0.141225
1.920418 5.949284 -1.443286
7.904194 24.471876 1.347756
2.250752 6.968469 -1.423435
4.831795 14.950591 1.374620
2.502316 7.738090 -1.288082
3.425938 10.587958 1.366399
2.541187 7.848923 -1.012978
2.545329 7.857049 1.308105
2.495409 7.702953 -0.708402
2.497171 7.703805 1.574174
2.494964 7.692409 -0.423817
2.500628 7.705300 1.870243
2.503162 7.708528 -0.141469
2.516251 7.744219 2.181845
1.699985 5.210347 -1.468539
2.514026 7.700785 0.141399
1.942990 5.948101 -1.444636
8.020040 24.551847 1.353617
2.270795 6.947506 -1.420764
4.839352 14.797292 1.362070
2.533614 7.742448 -1.290272
3.427669 10.468401 1.352506
2.569800 7.843780 -1.013466
2.568293 7.839179 1.306541
2.526629 7.707448 -0.709622
2.526497 7.702503 1.575701
2.523664 7.689347 -0.424131
2.531159 7.707633 1.872942
2.529337 7.702085 -0.141504
2.546741 7.750516 2.185986
1.716950 5.200713 -1.467504
2.547701 7.717091 0.141853
1.959647 5.932374 -1.442386
8.142054 24.633690 1.359688
2.295648 6.941401 -1.421145
4.857179 14.678166 1.352657
2.561756 7.741507 -1.291523
3.436785 10.379713 1.342513
2.603291 7.857826 -1.016390
2.600616 7.845166 1.309044
2.551638 7.692908 -0.709099
2.555736 7.705263 1.577991
2.554184 7.696100 -0.424968
2.562231 7.715842 1.876992
2.556840 7.695106 -0.141539
2.572559 7.737914 2.184950
1.732351 5.189494 -1.465951
2.573358 7.704357 0.141783
1.980342 5.925497 -1.442386
8.307783 24.843786 1.372877
2.317407 6.930027 -1.420382
4.921003 14.707324 1.356841
2.587507 7.728772 -1.290897
3.467314 10.350714 1.340319
2.633230 7.856220 -1.017365
2.633012 7.851023 1.311547
2.580300 7.693849 -0.709971
2.583236 7.698156 1.578372
2.585485 7.700390 -0.425701
2.592874 7.717934 1.879691
2.584954 7.689926 -0.141609
2.603251 7.739872 2.188056
1.756019 5.199887 -1.470610
2.599594 7.693433 0.141748
1.998518 5.911164 -1.440587
8.461022 25.011396 1.383763
2.339068 6.914456 -1.418856
6.045468 17.860573 1.649684
2.618274 7.730917 -1.292775
3.507886 10.351707 1.342025
2.665734 7.862020 -1.019315
2.662938 7.849267 1.312798
2.609700 7.692343 -0.710668
2.615142 7.703964 1.581425
2.616843 7.704557 -0.426433
2.627949 7.732822 1.885540
2.619508 7.703574 -0.142028
2.635232 7.745368 2.192197
1.776656 5.201039 -1.472680
2.634192 7.707019 0.142167
2.015989 5.894932 -1.438337
8.585775 25.091314 1.389834
2.360011 6.896962 -1.416948
6.065178 17.714956 1.638179
2.649087 7.732942 -1.294652
3.547858 10.350667 1.343488
2.690584 7.845156 -1.018340
2.696735 7.858608 1.315927
2.645591 7.709569 -0.713108
2.645204 7.704074 1.583333
2.639829 7.684042 -0.425805
2.651760 7.714388 1.883290
2.648333 7.700057 -0.142132
2.666651 7.748909 2.195821
1.795433 5.196631 -1.473198
2.664347 7.707226 0.142342
2.037826 5.891542 -1.439237
8.655025 25.008341 1.386903
2.380221 6.877550 -1.414658
6.068308 17.524231 1.622491
2.678649 7.731115 -1.295903
4.791415 13.821179 1.796111
2.721858 7.846968 -1.019803
2.724149 7.849147 1.315927
2.675751 7.709699 -0.713980
2.675947 7.705921 1.585623
2.672533 7.691760 -0.426747
2.681230 7.712447 1.885090
2.675854 7.692654 -0.142167
2.697492 7.750502 2.198927
1.818021 5.203099 -1.476822
2.695852 7.711092 0.142586
2.058378 5.884393 -1.439237
8.853119 25.294674 1.404488
2.399675 6.856228 -1.411987
6.066221 17.322424 1.605757
2.712154 7.740360 -1.299032
3.491971 9.960351 1.295959
2.757116 7.859899 -1.022728
2.752841 7.843317 1.316553
2.699350 7.690911 -0.713108
2.704132 7.700237 1.586386
2.705986 7.701228 -0.427794
2.716539 7.726940 1.890939
2.708664 7.700243 -0.142481
2.726453 7.746507 2.200480
1.836817 5.198542 -1.477339
2.726087 7.711062 0.142761
2.076305 5.869824 -1.437437
8.865389 25.048979 1.392555
2.425557 6.853362 -1.413131
6.073449 17.150890 1.591812
2.741130 7.736433 -1.299971
3.495541 9.860166 1.284503
2.792500 7.872677 -1.025653
2.784165 7.844831 1.318430
2.730842 7.694586 -0.714328
2.731650 7.692602 1.586768
2.738203 7.706790 -0.428632
2.748063 7.730264 1.894088
2.739545 7.702046 -0.142691
2.756717 7.746041 2.203068
1.857553 5.199375 -1.479410
2.755678 7.709032 0.142900
2.094158 5.855200 -1.435638
8.853185 24.739569 1.377064
2.449466 6.844853 -1.413131
6.076859 16.972023 1.577170
2.770119 7.732395 -1.300909
3.491761 9.741387 1.270610
2.822644 7.870357 -1.026627
2.816867 7.849939 1.320933
2.762394 7.698134 -0.715549
2.765121 7.701496 1.590584
2.769138 7.708464 -0.429260
2.778983 7.731629 1.896787
2.771153 7.705608 -0.142935
2.788319 7.749094 2.206691
1.880282 5.205579 -1.483033
2.788690 7.716291 0.143214
2.113260 5.844189 -1.434738
8.864725 24.501926 1.365550
2.469332 6.825186 -1.410842
6.084530 16.808327 1.563923
2.802477 7.737536 -1.303412
3.495978 9.647024 1.259885
2.851454 7.864187 -1.027115
2.846948 7.847485 1.322184
2.793327 7.699682 -0.716594
2.798011 7.708408 1.594018
2.796031 7.698750 -0.429260
2.807953 7.727376 1.898137
2.804861 7.714683 -0.143284
2.817992 7.746577 2.208762
1.900430 5.204428 -1.484586
2.819727 7.717779 0.143424
2.133646 5.836777 -1.434738
9.247653 25.297771 1.411606
2.485725 6.796242 -1.406644
6.089762 16.641041 1.550326
2.834901 7.742548 -1.305915
3.502320 9.560204 1.250136
2.882989 7.865367 -1.028577
2.873638 7.839855 1.322497
2.824301 7.701108 -0.717640
2.828285 7.707809 1.595927
2.828396 7.703941 -0.430097
2.835580 7.719357 1.898587
2.830431 7.705338 -0.143284
2.850328 7.755323 2.213938
1.917247 5.194138 -1.483551
2.848762 7.717767 0.143598
2.151639 5.826014 -1.433838
9.252836 25.040516 1.399045
2.510116 6.789365 -1.407026
6.088356 16.458984 1.535336
2.866041 7.747925 -1.308418
3.511957 9.488962 1.242336
2.914569 7.870656 -1.030527
2.907158 7.846449 1.325313
2.851861 7.693070 -0.717815
2.862021 7.720477 1.600506
2.860871 7.713246 -0.431144
2.865229 7.720873 1.901286
2.859400 7.701035 -0.143389
2.876038 7.741704 2.212903
1.936484 5.193182 -1.485104
2.876386 7.709649 0.143633
2.173326 5.822118 -1.434738
9.253519 24.776066 1.386066
2.528491 6.769971 -1.404736
6.094088 16.308058 1.523134
2.891688 7.734173 -1.307792
3.534619 9.448759 1.238680
2.947590 7.875308 -1.032477
2.937302 7.843653 1.326564
2.878752 7.687304 -0.718163
2.892399 7.719632 1.602414
2.890581 7.710694 -0.431562
2.895586 7.719947 1.903536
2.893293 7.709728 -0.143738
2.904401 7.735235 2.213938
1.955283 5.188198 -1.485621
2.906810 7.708916 0.143808
2.186756 5.796264 -1.430239
9.258136 24.526857 1.373924
2.554882 6.768449 -1.406262
6.093257 16.133844 1.508840
2.922856 7.735120 -1.309669
4.817149 12.741503 1.672535
2.980683 7.879825 -1.034427
2.968158 7.842590 1.328129
2.913325 7.697706 -0.720081
2.918628 7.707654 1.602033
2.921727 7.711763 -0.432190
2.930804 7.731659 1.908935
2.925146 7.712672 -0.143982
2.943038 7.755754 2.222738
1.983009 5.206615 -1.492868
2.937968 7.709936 0.144017
2.208366 5.792237 -1.431139
9.256856 24.266726 1.361154
2.574996 6.750318 -1.404354
6.105488 15.997073 1.498033
2.955478 7.739633 -1.312172
4.820508 12.617057 1.658398
3.002498 7.854539 -1.032477
2.998341 7.839561 1.329380
2.943026 7.694933 -0.720778
2.955339 7.723089 1.607375
2.947912 7.699654 -0.432086
2.956382 7.717742 1.908035
2.959208 7.721085 -0.144331
2.973549 7.754453 2.225326
2.002558 5.203268 -1.493904
2.969176 7.710829 0.144227
2.228572 5.784492 -1.431139
9.263920 24.032999 1.349849
2.594305 6.730298 -1.402065
6.103933 15.826947 1.484088
2.988878 7.745854 -1.314988
4.823050 12.492744 1.644261
3.037048 7.862529 -1.034915
3.027114 7.832732 1.330006
2.978489 7.706913 -0.722870
2.987943 7.727375 1.610428
2.981255 7.706081 -0.433028
2.986120 7.714644 1.909835
2.983974 7.705114 -0.144227
3.006181 7.758437 2.229467
2.019309 5.192645 -1.492868
3.002598 7.717191 0.144541
2.245922 5.769414 -1.429339
9.272374 23.806959 1.338963
2.617072 6.719370 -1.401683
6.109954 15.679306 1.472235
3.018049 7.740896 -1.315927
4.827676 12.375965 1.631099
3.070251 7.866673 -1.036864
3.058746 7.833158 1.331883
3.003922 7.692758 -0.722521
3.018472 7.726041 1.612336
3.011774 7.704927 -0.433551
3.020127 7.722322 1.914333
3.016683 7.709550 -0.144506
3.030430 7.740700 2.227397
2.040954 5.194555 -1.495457
3.026594 7.699218 0.144401
2.267472 5.765167 -1.430239
9.270578 23.558859 1.326821
2.641228 6.712022 -1.402065
6.110633 15.520700 1.459336
3.046498 7.733990 -1.316553
4.832995 12.263003 1.618425
3.102060 7.866989 -1.038327
3.090418 7.833459 1.333760
3.038067 7.700760 -0.724264
3.043983 7.711803 1.611573
3.047453 7.716660 -0.434807
3.051360 7.722609 1.917033
3.050195 7.715708 -0.144820
3.063114 7.744447 2.231538
2.061926 5.194581 -1.497527
3.060096 7.705333 0.144715
2.281105 5.740919 -1.426190
9.278981 23.340755 1.316354
2.658116 6.686342 -1.398630
6.122068 15.391894 1.449226
3.078587 7.736156 -1.318743
4.828780 12.128024 1.602826
3.132443 7.863489 -1.039302
3.123593 7.837304 1.336263
3.074517 7.714169 -0.726530
3.074518 7.710250 1.613481
3.074373 7.705975 -0.434807
3.085521 7.730010 1.921532
3.078590 7.708728 -0.144890
3.092998 7.740881 2.233608
2.080764 5.189146 -1.498045
3.092184 7.707596 0.144960
2.299681 5.729303 -1.425290
9.274055 23.093231 1.304212
2.683633 6.682487 -1.399775
6.120788 15.233626 1.436327
3.112206 7.741858 -1.321558
4.832564 12.015326 1.590151
3.158388 7.848823 -1.038814
3.155360 7.837348 1.338141
3.107380 7.718175 -0.727925
3.108013 7.715861 1.616915
3.104984 7.704460 -0.435331
3.111029 7.715576 1.920632
3.110719 7.710916 -0.145134
3.126506 7.746162 2.238267
2.105391 5.197966 -1.502703
3.128084 7.718994 0.145379
2.321131 5.724853 -1.426190
9.274044 22.873556 1.293536
2.698823 6.653068 -1.395577
6.128974 15.101398 1.425868
3.147388 7.751079 -1.325000
4.844587 11.924820 1.580402
3.184397 7.838307 -1.038814
3.182822 7.830500 1.338766
3.135806 7.710971 -0.728273
3.140846 7.719514 1.619969
3.135625 7.702822 -0.435854
3.143213 7.721461 1.924681
3.135516 7.698706 -0.145099
3.156549 7.746488 2.241373
2.119693 5.183803 -1.500633
3.155177 7.712280 0.145448
2.338623 5.713519 -1.425290
9.280223 22.672628 1.283906
2.722361 6.647715 -1.396340
6.133693 14.970373 1.415409
3.176819 7.749740 -1.326564
3.677393 8.966413 1.189932
3.217907 7.846070 -1.041252
3.207270 7.816249 1.338141
3.162875 7.704216 -0.728622
3.173888 7.727215 1.623785
3.167223 7.707161 -0.436691
3.176947 7.730823 1.929630
3.165593 7.699362 -0.145309
3.185896 7.744908 2.243961
2.140556 5.185674 -1.503221
3.184553 7.711016 0.145623
2.359046 5.709333 -1.426190
9.275381 22.437059 1.272392
2.742139 6.633208 -1.395195
6.180260 14.942584 1.414712
3.204009 7.742813 -1.327190
4.849154 11.712684 1.556515
3.248316 7.842124 -1.042227
3.246632 7.834203 1.343146
3.189163 7.695529 -0.728796
3.199494 7.716648 1.623785
3.198123 7.709529 -0.437424
3.206903 7.726885 1.931430
3.197813 7.701195 -0.145553
3.213655 7.735525 2.244479
2.163106 5.188868 -1.506327
3.216063 7.710928 0.145832
2.371458 5.683079 -1.421691
9.282860 22.234980 1.262762
2.767547 6.629030 -1.396340
7.508642 17.976444 1.704418
3.236351 7.744339 -1.329380
4.844833 11.587628 1.542135
3.284858 7.852716 -1.045152
3.275486 7.826467 1.343772
3.225238 7.706403 -0.730888
3.231720 7.718108 1.626456
3.228096 7.705689 -0.437843
3.242894 7.737212 1.936829
3.230864 7.704738 -0.145832
3.245863 7.736732 2.248102
2.184202 5.188408 -1.508397
3.250724 7.718083 0.146181
2.388256 5.667583 -1.419891
9.279720 22.011045 1.251876
2.784567 6.604857 -1.393287
7.510952 17.806931 1.690821
3.268743 7.745734 -1.331570
4.848960 11.484694 1.530679
3.315341 7.848516 -1.046127
3.308939 7.829540 1.346275
3.258326 7.709779 -0.732283
3.263228 7.717631 1.628746
3.262758 7.712768 -0.438889
3.271403 7.729433 1.937728
3.264755 7.709987 -0.146146
3.284909 7.753814 2.256385
2.204569 5.186086 -1.509950
3.287039 7.728771 0.146600
2.408021 5.659213 -1.419891
9.282965 21.805773 1.242037
2.802994 6.584259 -1.390998
7.519979 17.655954 1.678968
3.301176 7.747000 -1.333760
4.853211 11.383698 1.519467
3.345834 7.844197 -1.047101
3.334694 7.814311 1.345649
3.291469 7.713020 -0.733677
3.303255 7.736887 1.635233
3.294370 7.712351 -0.439517
3.302188 7.726929 1.939978
3.294008 7.704059 -0.146251
3.314236 7.747628 2.257937
2.224943 5.183685 -1.511503
3.319519 7.730112 0.146845
2.429301 5.654354 -1.420791
9.281110 21.602377 1.232198
2.825958 6.574435 -1.390998
7.517016 17.479511 1.664675
3.332103 7.744501 -1.335325
4.855247 11.279166 1.507768
3.384187 7.857997 -1.050514
3.363717 7.810467 1.346901
3.318374 7.701483 -0.733677
3.333352 7.732520 1.636760
3.326806 7.713643 -0.440250
3.335318 7.729668 1.943577
3.325082 7.705946 -0.146495
3.342210 7.741915 2.259490
2.245327 5.181205 -1.513056
3.345928 7.720897 0.146879
2.446489 5.642690 -1.419891
9.302408 21.445253 1.225080
2.847326 6.560929 -1.390234
7.519272 17.317926 1.651776
3.359342 7.737031 -1.335950
4.857816 11.182896 1.497043
3.413389 7.854014 -1.051489
3.398051 7.814980 1.349717
3.348415 7.697162 -0.734374
3.366019 7.737629 1.640194
3.361133 7.722713 -0.441401
3.369492 7.738218 1.948526
3.363144 7.719958 -0.146984
3.370756 7.733744 2.260525
2.268690 5.187891 -1.517197
3.377670 7.720162 0.147089
2.460700 5.621619 -1.416742
9.303505 21.244333 1.215450
2.865131 6.542458 -1.388326
7.525483 17.176104 1.640620
3.392672 7.739734 -1.338454
4.858555 11.078608 1.485344
3.456738 7.878406 -1.056364
3.429278 7.812116 1.351281
3.380330 7.700609 -0.735769
3.396957 7.734819 1.642102
3.388072 7.710933 -0.441401
3.398834 7.731761 1.949876
3.393290 7.715494 -0.147124
3.407844 7.744919 2.267255
2.289128 5.185241 -1.518750
3.411868 7.724788 0.147403
2.476368 5.604084 -1.414492
3.533967 7.993672 0.458044
2.889540 6.536007 -1.389090
7.530586 17.025827 1.628767
3.427660 7.745908 -1.341582
4.857020 10.970821 1.473157
3.485824 7.869923 -1.056851
3.458129 7.803708 1.351907
3.414456 7.705156 -0.737338
3.432691 7.742656 1.646300
3.419015 7.708189 -0.441925
3.428176 7.725194 1.951226
3.431563 7.729188 -0.147612
3.441915 7.748867 2.271914
2.314289 5.193100 -1.523409
3.442885 7.721963 0.147578
2.496711 5.597185 -1.414942
3.569986 7.999526 0.459091
2.908335 6.516918 -1.387182
7.529867 16.864807 1.615867
3.461931 7.750128 -1.344398
4.865315 10.886744 1.464139
3.518137 7.868579 -1.058313
3.487766 7.797000 1.352845
3.451092 7.715016 -0.739429
3.468517 7.750339 1.650498
3.454881 7.716259 -0.443076
3.463086 7.730965 1.955724
3.453614 7.706214 -0.147403
3.474477 7.749143 2.275537
2.330024 5.179705 -1.521856
3.476382 7.724486 0.147857
2.513832 5.583106 -1.413592
3.604453 8.001583 0.459928
2.929455 6.503145 -1.386418
7.534657 16.718538 1.604363
3.493832 7.748801 -1.346275
4.864926 10.784647 1.452683
3.552117 7.870725 -1.060263
3.520650 7.797381 1.355036
3.480460 7.708371 -0.739952
3.498784 7.745340 1.652024
3.486732 7.715071 -0.443704
3.498078 7.736588 1.960224
3.488736 7.712331 -0.147752
3.502304 7.738727 2.276055
2.348888 5.173300 -1.522374
3.504154 7.714124 0.147892
2.534919 5.577844 -1.414492
3.634009 7.992592 0.460138
2.951321 6.491095 -1.386037
7.540176 16.576063 1.593207
3.526589 7.749144 -1.348465
3.862803 8.484004 1.144597
3.586150 7.872731 -1.062213
3.549487 7.788639 1.355661
3.515610 7.714303 -0.741695
3.529052 7.740228 1.653551
3.519442 7.715573 -0.444437
3.530728 7.736739 1.963373
3.525601 7.721936 -0.148171
3.537320 7.744026 2.281231
2.377396 5.187900 -1.529103
3.536896 7.714570 0.148136
2.547061 5.553020 -1.410443
3.698541 8.059728 0.464743
2.972325 6.477183 -1.385273
3.880464 8.452267 0.813686
3.552791 7.734991 -1.348152
3.872503 8.427178 1.138747
3.618587 7.870986 -1.063676
3.586556 7.797738 1.359416
3.550009 7.718277 -0.743264
3.560975 7.738562 1.655841
3.549696 7.710496 -0.444856
3.565048 7.740298 1.967422
3.558391 7.722296 -0.148415
3.569994 7.743912 2.284855
2.407038 5.199769 -1.535315
3.574053 7.717264 0.148450
2.565905 5.537896 -1.409093
2.994698 6.460378 -1.384128
3.816491 8.229446 0.793640
3.579969 7.715918 -1.347214
3.715945 8.005317 1.083662
3.647109 7.853433 -1.063188
3.618443 7.791705 1.360667
3.588011 7.722658 -0.745007
3.598939 7.742633 1.659657
3.586012 7.711299 -0.445693
3.596384 7.730086 1.968322
3.591730 7.720081 -0.148625
3.608134 7.751793 2.291066
2.425175 5.191335 -1.535315
3.607244 7.721673 0.148764
2.590033 5.541713 -1.412243
3.742585 8.004107 0.463069
3.010577 6.435658 -1.381076
3.743003 7.997725 0.772548
3.602189 7.696846 -1.345962
3.823278 8.165539 1.107061
3.676502 7.848485 -1.064163
3.644778 7.777238 1.360354
3.632710 7.747969 -0.748668
3.637095 7.757321 1.665381
3.621743 7.721062 -0.446949
3.625312 7.725173 1.970121
3.614409 7.698446 -0.148450
3.637637 7.744396 2.292619
2.445667 5.190256 -1.537385
3.643550 7.728934 0.149148
2.605206 5.523825 -1.409993
3.805743 8.069327 0.467569
3.030222 6.422091 -1.380312
3.884322 8.228503 0.796081
3.625662 7.677080 -1.344711
3.878897 8.209578 1.114861
3.717444 7.864322 -1.068063
3.670547 7.765110 1.360354
3.728231 7.883572 -0.762961
3.666672 7.749901 1.666526
3.651231 7.713792 -0.447263
3.660599 7.730084 1.974620
3.651046 7.709911 -0.148904
3.670740 7.748003 2.297278
2.466260 5.186921 -1.538938
3.669162 7.716808 0.149148
2.624346 5.516916 -1.410443
3.909410 8.214701 0.476781
3.051779 6.409701 -1.379931
3.891604 8.169925 0.791723
3.644303 7.650749 -1.342208
3.880479 8.142909 1.107549
3.758882 7.884203 -1.072450
3.707838 7.773645 1.364109
3.672494 7.696090 -0.746053
3.697423 7.748331 1.668815
3.683677 7.716060 -0.448101
3.694609 7.735487 1.979119
3.685698 7.713357 -0.149218
3.702761 7.745602 2.300384
2.490964 5.194392 -1.543597
3.704728 7.721982 0.149497
2.636840 5.493667 -1.406844
3.912990 8.148789 0.473745
3.067917 6.388927 -1.377641
3.894519 8.106688 0.786842
3.662428 7.620177 -1.339079
3.846941 8.000505 1.089999
3.791546 7.881766 -1.073913
3.740088 7.771336 1.365986
3.707978 7.701177 -0.747796
3.735518 7.758374 1.673777
3.713191 7.708551 -0.448415
3.731739 7.743610 1.984518
3.722147 7.720261 -0.149602
3.734814 7.743069 2.303490
2.511668 5.188705 -1.544632
3.741240 7.728805 0.149881
2.652604 5.477414 -1.405044
3.910063 8.070374 0.469977
3.090458 6.375873 -1.377259
3.905078 8.052920 0.783007
3.690335 7.606702 -1.339079
3.710217 7.647686 1.043689
3.826834 7.884557 -1.076106
3.773234 7.770671 1.368176
3.744416 7.707898 -0.749714
3.769938 7.756990 1.676448
3.745784 7.703872 -0.448938
3.760098 7.729879 1.984518
3.756948 7.723404 -0.149916
3.771116 7.749093 2.309184
2.536548 5.193793 -1.548773
3.779204 7.734801 0.150265
2.672661 5.467655 -1.405044
3.910141 7.999257 0.466627
3.107519 6.354465 -1.374970
3.788693 7.743942 0.754246
3.714258 7.588452 -1.338141
3.890125 7.944248 1.086100
3.864442 7.888304 -1.078544
3.797731 7.752130 1.367237
3.779189 7.710883 -0.751283
3.808226 7.766699 1.681409
3.784970 7.715853 -0.450403
3.793924 7.730703 1.988117
3.789169 7.721014 -0.150126
3.810061 7.760160 2.316431
2.557223 5.190106 -1.550326
3.809247 7.731198 0.150440
2.692502 5.462257 -1.405944
3.915075 7.938985 0.463906
3.132286 6.348861 -1.376115
3.839510 7.778909 0.758952
3.739404 7.576092 -1.338141
3.893598 7.885025 1.079762
3.894974 7.884346 -1.079762
3.836144 7.761849 1.371305
3.808733 7.703001 -0.751805
3.844405 7.775146 1.685988
3.820275 7.722951 -0.451555
3.829913 7.739038 1.993516
3.824085 7.723869 -0.150440
3.850847 7.774511 2.324713
2.573561 5.179867 -1.549809
3.840662 7.726806 0.150614
2.709816 5.449336 -1.405044
3.814208 7.670225 0.448938
3.153324 6.338439 -1.376115
3.903457 7.842834 0.766448
3.762303 7.555921 -1.336889
3.901623 7.832296 1.074400
3.933095 7.892022 -1.082687
3.864504 7.754389 1.372243
3.843145 7.708160 -0.753549
3.870644 7.759923 1.685607
3.854342 7.723867 -0.452392
3.862126 7.736084 1.996216
3.858608 7.729037 -0.150789
3.867114 7.742686 2.319019
2.600284 5.188122 -1.554985
3.862683 7.706876 0.150475
2.720886 5.426383 -1.401445
3.914391 7.803254 0.457521
3.171029 6.318618 -1.374206
3.910250 7.788205 0.762438
3.784681 7.538105 -1.335950
3.899061 7.762551 1.066601
3.968160 7.896672 -1.085125
3.901310 7.760265 1.375685
3.882560 7.719618 -0.755989
3.905175 7.764585 1.689423
3.880835 7.712827 -0.452497
3.899151 7.745861 2.002064
3.894556 7.733382 -0.151138
3.901070 7.742943 2.323160
2.620959 5.186368 -1.557055
3.875123 7.664793 0.149916
2.741569 5.420331 -1.402345
3.928082 7.762811 0.455951
3.186645 6.297558 -1.371917
3.925255 7.753865 0.760347
3.809185 7.521325 -1.335325
3.918061 7.732955 1.064407
3.993904 7.879232 -1.084637
3.935521 7.760695 1.378188
3.917150 7.724469 -0.757732
3.940251 7.766663 1.692858
3.924911 7.733070 -0.454485
3.933222 7.746105 2.005664
3.936020 7.748265 -0.151696
3.939454 7.751667 2.329889
2.644310 5.187515 -1.560161
3.941826 7.729603 0.151452
2.756932 5.403784 -1.400545
3.944262 7.727704 0.454695
3.205040 6.279401 -1.370390
3.952295 7.740117 0.760347
3.833621 7.504463 -1.334699
3.954066 7.736907 1.066844
4.019574 7.861709 -1.084150
3.966187 7.753943 1.379439
3.993994 7.808307 -0.767319
3.971811 7.761598 1.694765
3.951875 7.719326 -0.454485
3.962016 7.735796 2.006563
3.957573 7.723799 -0.151487
3.973533 7.751623 2.334030
2.660636 5.174816 -1.559126
3.976103 7.730021 0.151731
2.772207 5.387198 -1.398746
3.979438 7.729871 0.455637
3.223344 6.261193 -1.368864
3.983853 7.735129 0.761218
3.856168 7.484015 -1.333447
3.990143 7.740703 1.069282
4.059732 7.872330 -1.087562
4.002288 7.757606 1.382568
4.012093 7.776610 -0.765576
4.010584 7.770367 1.699727
3.986130 7.719681 -0.455323
4.001518 7.746157 2.012862
3.984508 7.709939 -0.151487
4.003231 7.742853 2.335583
2.676906 5.162066 -1.558091
4.003060 7.716096 0.151731
2.797281 5.389596 -1.401895
4.018363 7.738976 0.456998
3.244277 6.248161 -1.368482
4.019094 7.737090 0.762787
3.880449 7.467001 -1.332822
4.025382 7.742578 1.071475
4.092681 7.868679 -1.089025
4.040279 7.764619 1.386322
4.065879 7.813816 -0.770631
4.046751 7.773734 1.703543
4.020431 7.719892 -0.456160
4.034831 7.744243 2.016011
4.023415 7.719035 -0.151941
4.040062 7.747674 2.341277
2.692219 5.147557 -1.556538
4.041096 7.723337 0.152150
2.805233 5.359079 -1.396496
4.051833 7.737289 0.457730
3.267884 6.240278 -1.369245
4.056250 7.742425 0.764704
3.900073 7.441162 -1.330632
4.058831 7.740789 1.073182
4.123813 7.861374 -1.089999
4.070114 7.755714 1.387261
4.121833 7.854266 -0.776035
4.080245 7.771731 1.706214
4.050141 7.711113 -0.456474
4.069092 7.743911 2.019611
4.058703 7.720876 -0.152255
4.077871 7.754043 2.347489
2.717383 5.151797 -1.560679
4.076432 7.725099 0.152464
2.816643 5.335469 -1.392897
4.085348 7.735460 0.458463
3.288732 6.227097 -1.368864
4.091630 7.744073 0.766273
3.926022 7.427504 -1.330632
4.091397 7.737102 1.074644
4.160515 7.864478 -1.092437
4.105477 7.757175 1.390077
4.172522 7.883855 -0.780393
4.121130 7.783466 1.711938
4.082645 7.707518 -0.457102
4.100659 7.738271 2.021860
4.094998 7.724329 -0.152604
4.113966 7.756826 2.352665
2.726276 5.125226 -1.555503
4.115581 7.733774 0.152918
2.837999 5.330764 -1.394247
4.120365 7.739500 0.459510
3.299375 6.194785 -1.364284
4.128000 7.747330 0.768016
3.950998 7.412010 -1.330319
4.130525 7.745543 1.077813
4.202886 7.877932 -1.096337
4.133036 7.747004 1.390703
4.209400 7.886818 -0.782136
4.155674 7.782887 1.714991
4.122694 7.717885 -0.458568
4.133159 7.734221 2.024559
4.121535 7.712469 -0.152639
4.146040 7.755068 2.356289
2.747803 5.122486 -1.557573
4.151604 7.739467 0.153302
2.859346 5.328192 -1.396046
4.153967 7.737388 0.460242
3.321907 6.184960 -1.364666
4.158792 7.739892 0.768714
3.973684 7.395388 -1.329693
4.164644 7.747540 1.080006
4.240272 7.884930 -1.099262
4.165670 7.742967 1.392580
4.224631 7.849267 -0.779870
4.196350 7.796722 1.721097
4.152054 7.711205 -0.458986
4.172645 7.746207 2.031308
4.158869 7.717398 -0.153023
4.194169 7.779660 2.368194
2.759261 5.103151 -1.554467
4.184305 7.735480 0.153511
2.883491 5.328463 -1.398746
4.190457 7.740406 0.461289
3.338659 6.167005 -1.363140
4.190132 7.736569 0.769760
3.992885 7.369315 -1.327503
4.203013 7.753899 1.082931
4.277235 7.887529 -1.101699
4.209627 7.759633 1.398211
4.221591 7.778440 -0.774292
4.229157 7.792381 1.723387
4.193243 7.722992 -0.460556
4.223842 7.776120 2.043005
4.197238 7.723919 -0.153442
4.224070 7.770063 2.369747
2.784423 5.104875 -1.558091
4.218940 7.734872 0.153791
2.897408 5.309811 -1.396496
4.227023 7.743261 0.462336
3.357477 6.147833 -1.361613
4.233742 7.749136 0.772548
4.024607 7.363297 -1.329067
4.234816 7.747889 1.084150
4.316167 7.893453 -1.104624
4.255650 7.779551 1.404469
4.221933 7.714718 -0.769411
4.259573 7.780273 1.724150
4.224398 7.712827 -0.460871
4.245761 7.748622 2.039856
4.233781 7.726758 -0.153791
4.252093 7.756965 2.370265
2.799432 5.090046 -1.556538
4.265579 7.752645 0.154454
2.916848 5.299157 -1.396496
4.261154 7.738214 0.462964
3.378915 6.136077 -1.361613
4.274227 7.758740 0.774989
4.036936 7.324984 -1.324687
4.269897 7.744483 1.085856
4.343154 7.874104 -1.104136
4.284133 7.763902 1.404469
4.258461 7.717379 -0.771154
4.292400 7.775668 1.726440
4.266746 7.726007 -0.462545
4.279378 7.745695 2.043005
4.287226 7.756692 -0.154698
4.293585 7.764997 2.377512
2.819992 5.085312 -1.558091
4.301343 7.753446 0.154768
2.934384 5.287238 -1.396046
4.296867 7.739007 0.463906
3.392691 6.110513 -1.358560
4.306119 7.752483 0.775860
4.068239 7.321207 -1.326564
4.309441 7.752087 1.089025
4.365788 7.850221 -1.102918
4.309289 7.745446 1.403843
4.314436 7.754698 -0.776383
4.331927 7.782939 1.731401
4.317977 7.754691 -0.465162
4.319668 7.754542 2.049304
4.316220 7.745174 -0.154768
4.326306 7.760087 2.380618
2.828299 5.058575 -1.552914
4.333265 7.747108 0.154942
2.951869 5.275263 -1.395596
4.338487 7.750103 0.465476
3.408245 6.088355 -1.356270
4.339971 7.749572 0.777081
4.088941 7.298346 -1.325000
4.349090 7.759510 1.092193
4.425204 7.892071 -1.110961
4.351764 7.757921 1.408849
4.376572 7.802146 -0.782659
4.367713 7.783180 1.734835
4.346000 7.741313 -0.465267
4.352438 7.749610 2.052004
4.347147 7.737035 -0.154908
4.355263 7.748305 2.381653
2.844044 5.045305 -1.551879
4.363223 7.737164 0.155047
2.970267 5.264926 -1.395596
4.378277 7.757522 0.466837
3.434303 6.084969 -1.358178
4.377766 7.753463 0.778998
4.108564 7.273707 -1.323123
4.386894 7.763290 1.094874
4.462490 7.893861 -1.113398
4.381733 7.747842 1.409788
4.378277 7.741731 -0.778126
4.403559 7.783264 1.738270
4.380861 7.740003 -0.466104
4.390983 7.754721 2.057402
4.383000 7.737471 -0.155222
4.393711 7.753225 2.387865
2.859806 5.034166 -1.551361
4.400715 7.743515 0.155466
2.977113 5.236413 -1.390647
4.410892 7.755112 0.467569
3.451552 6.068426 -1.357034
4.414293 7.757949 0.780915
4.126798 7.249743 -1.321246
4.415563 7.753874 1.095605
4.492574 7.885917 -1.114373
4.419137 7.753865 1.413542
4.411816 7.741018 -0.779521
4.434209 7.777144 1.740178
4.412443 7.735841 -0.466732
4.424399 7.753659 2.061002
4.418550 7.740260 -0.155571
4.426102 7.750357 2.391488
2.879278 5.027507 -1.552397
4.439649 7.748926 0.155885
2.994406 5.224298 -1.390198
4.440911 7.744869 0.467883
3.469780 6.051234 -1.355889
4.451263 7.759776 0.782659
4.156997 7.243859 -1.322810
4.452480 7.755632 1.098043
4.520076 7.870186 -1.114373
4.450116 7.745243 1.414793
4.450724 7.746301 -0.781613
4.476977 7.788856 1.746284
4.445395 7.730779 -0.467360
4.457270 7.748301 2.063701
4.452518 7.736924 -0.155815
4.464697 7.754948 2.397700
2.895845 5.015752 -1.551879
4.476666 7.750700 0.156234
3.008724 5.207065 -1.388398
4.477564 7.749122 0.469035
3.484006 6.027186 -1.353217
4.489296 7.763162 0.784576
4.174342 7.215627 -1.320307
4.491459 7.760659 1.100968
4.557469 7.871538 -1.116811
4.485675 7.747537 1.417922
4.490716 7.753132 -0.783879
4.517920 7.796961 1.751627
4.480369 7.729036 -0.468197
4.490154 7.742811 2.066401
4.483169 7.730765 -0.155990
4.502990 7.761824 2.404429
2.905561 4.992257 -1.547738
4.514418 7.756552 0.156653
3.030875 5.205480 -1.390647
4.521677 7.762782 0.470814
3.502057 6.009900 -1.352073
4.521379 7.756053 0.785448
4.194266 7.194919 -1.319056
4.529173 7.766298 1.103893
4.603549 7.890677 -1.121686
4.521648 7.747189 1.420738
4.521773 7.744290 -0.784576
4.548703 7.790412 1.753535
4.518062 7.734833 -0.469454
4.527602 7.748069 2.071799
4.517193 7.727152 -0.156234
4.541761 7.766068 2.410641
2.926008 4.989260 -1.549809
4.546526 7.749367 0.156827
3.052975 5.201590 -1.392447
4.554809 7.757288 0.471442
3.520972 5.996561 -1.351691
4.557167 7.758195 0.787191
4.213353 7.170014 -1.317178
4.566313 7.767555 1.106330
4.641129 7.891669 -1.124123
4.557681 7.746680 1.423554
4.558541 7.748143 -0.786493
4.586822 7.793099 1.757733
4.555166 7.736227 -0.470500
4.566491 7.752366 2.077198
4.558350 7.735457 -0.156723
4.580614 7.770138 2.416852
2.941441 4.975689 -1.548773
4.578641 7.742055 0.157002
3.058213 5.169099 -1.386598
4.594069 7.761966 0.472698
3.540884 5.982544 -1.351309
4.650205 7.853675 0.798521
4.239360 7.156964 -1.317491
4.725967 7.975286 1.138260
4.662577 7.865175 -1.122661
4.598799 7.754511 1.427934
4.592672 7.744180 -0.787714
4.621007 7.788861 1.760404
4.588261 7.730584 -0.471128
4.603471 7.753135 2.081697
4.601661 7.747007 -0.157281
4.611658 7.760744 2.418923
2.960768 4.968711 -1.549809
4.623044 7.755228 0.157595
3.077237 5.160065 -1.387048
4.757234 7.974003 0.486620
3.561747 5.970146 -1.351309
4.781740 8.011902 0.816301
4.263306 7.140424 -1.317178
6.171770 10.332729 1.477788
4.699166 7.864188 -1.124854
4.635977 7.755366 1.431063
4.633990 7.752042 -0.790154
4.655222 7.784476 1.763075
4.625470 7.731660 -0.472175
4.632510 7.740363 2.082597
4.647168 7.761778 -0.157909
4.646660 7.757859 2.423064
2.974117 4.951721 -1.547738
4.657294 7.751042 0.157840
3.103261 5.162654 -1.390647
4.812828 8.003565 0.489446
3.575481 5.945901 -1.348638
8.945606 14.870356 1.518253
4.285148 7.120423 -1.316240
6.181177 10.266906 1.471451
4.725562 7.846038 -1.124610
4.667099 7.745903 1.432314
4.676447 7.761417 -0.792769
4.696554 7.791720 1.768418
4.670993 7.746255 -0.474059
4.679635 7.757516 2.091595
4.676298 7.748935 -0.157979
4.689685 7.768053 2.431346
2.989383 4.938003 -1.546703
4.694679 7.751843 0.158189
3.130352 5.166790 -1.394697
4.855231 8.010626 0.490911
3.598252 5.936741 -1.349401
8.945807 14.753858 1.509537
4.311003 7.107110 -1.316553
6.209772 10.233387 1.469744
4.776612 7.868524 -1.130216
4.704361 7.746449 1.435443
4.709715 7.755264 -0.793815
4.733920 7.792056 1.772234
4.703189 7.738438 -0.474583
4.716808 7.757786 2.096094
4.706439 7.737689 -0.158084
4.722799 7.761536 2.434452
3.000564 4.917644 -1.543597
4.725879 7.742234 0.158328
3.159539 5.174127 -1.399645
4.894615 8.012380 0.492063
3.612811 5.914093 -1.347112
8.974400 14.685136 1.505703
4.327541 7.078537 -1.314050
6.262025 10.238746 1.473644
4.813375 7.867041 -1.132410
4.745809 7.753569 1.439823
4.745076 7.752373 -0.795209
4.765190 7.782183 1.773761
4.749997 7.754332 -0.476571
4.752007 7.754565 2.099693
4.745959 7.741673 -0.158503
4.757942 7.758180 2.438593
3.016701 4.905494 -1.543079
4.763356 7.742722 0.158677
3.181666 5.169706 -1.401445
4.939310 8.022455 0.493737
3.631376 5.898101 -1.346348
9.652534 15.671574 1.610290
4.346004 7.053298 -1.312172
7.565400 12.273368 1.770274
4.849144 7.863707 -1.134360
4.783214 7.753769 1.442952
4.780475 7.749329 -0.796603
4.805731 7.787220 1.778722
4.782283 7.746200 -0.477095
4.791329 7.757830 2.105092
4.784517 7.743770 -0.158887
4.796169 7.759599 2.444287
3.029732 4.888368 -1.541009
4.802997 7.746442 0.159096
3.203802 5.165192 -1.403245
4.969388 8.008561 0.493947
3.658151 5.895399 -1.348638
9.650432 15.546376 1.600877
4.367474 7.033048 -1.311234
7.572583 12.189552 1.761987
4.889137 7.866967 -1.137285
4.818597 7.750445 1.445455
4.818018 7.749514 -0.798347
4.851550 7.800404 1.785591
4.811402 7.732852 -0.477304
4.820441 7.744366 2.105992
4.821034 7.742298 -0.159201
4.833438 7.759208 2.449464
3.052919 4.887592 -1.544114
4.840607 7.746587 0.159445
3.232141 5.170502 -1.407744
5.006842 8.006408 0.494889
3.668297 5.865949 -1.344822
9.662376 15.445028 1.593904
4.393044 7.019436 -1.311547
7.583476 12.112573 1.754675
4.926053 7.864992 -1.139478
4.854015 7.746968 1.447958
4.857736 7.752907 -0.800438
4.882915 7.790078 1.787117
4.858527 7.748158 -0.479293
4.858838 7.745650 2.110941
4.854403 7.735589 -0.159410
4.871794 7.760285 2.455158
3.064816 4.868731 -1.541526
4.883596 7.755028 0.159969
3.256404 5.169080 -1.410443
5.051799 8.015915 0.496564
3.686659 5.849785 -1.344059
9.665217 15.330316 1.585537
4.419629 7.007399 -1.312172
7.575928 12.007121 1.743219
4.974663 7.881325 -1.144353
4.893682 7.750021 1.451712
4.891150 7.746012 -0.801484
4.925807 7.797883 1.792842
4.890873 7.739597 -0.479816
4.902505 7.754999 2.118139
4.894204 7.738876 -0.159829
4.905052 7.753026 2.458263
3.073513 4.844953 -1.537385
4.917068 7.748063 0.160178
3.286962 5.177423 -1.415842
5.096553 8.027781 0.498343
3.706002 5.835225 -1.343677
9.660978 15.205670 1.576124
4.433468 6.975256 -1.309044
7.583707 11.926999 1.735420
5.012800 7.880661 -1.146791
4.928895 7.748753 1.454528
4.921370 7.733933 -0.802007
4.959320 7.790578 1.795131
4.936100 7.751116 -0.481596
4.941065 7.755916 2.123088
4.931661 7.741154 -0.160213
4.944227 7.757899 2.464993
3.094570 4.840704 -1.539456
4.950275 7.743507 0.160423
3.299912 5.159929 -1.414042
5.133150 8.023405 0.499180
3.723175 5.817291 -1.342532
9.673178 15.108091 1.569501
4.452312 6.953863 -1.307792
7.573964 11.824893 1.724208
5.054973 7.889065 -1.150447
4.974038 7.759771 1.459847
4.964463 7.741868 -0.804622
4.997843 7.793923 1.799711
4.966092 7.741427 -0.482014
4.977280 7.755889 2.127587
4.972691 7.745771 -0.160667
4.983807 7.760099 2.471204
3.114788 4.836914 -1.541526
4.992435 7.749717 0.160911
3.326348 5.161483 -1.417642
5.168703 8.017187 0.499913
3.742444 5.804914 -1.342532
9.682194 15.012303 1.562877
4.474415 6.934960 -1.307166
7.576443 11.738338 1.715433
5.096480 7.893049 -1.153615
5.007523 7.752318 1.461724
5.002002 7.743772 -0.806539
5.033545 7.789620 1.802764
5.007182 7.745848 -0.483375
5.010671 7.748288 2.130286
5.014907 7.751870 -0.161156
5.028710 7.770225 2.480004
3.123239 4.813047 -1.537385
5.033609 7.754048 0.161365
3.353898 5.164549 -1.421691
5.207536 8.015846 0.500960
3.754127 5.778645 -1.339479
9.730184 14.971739 1.562180
4.498598 6.919297 -1.307166
7.587064 11.665228 1.708608
5.135904 7.893517 -1.156296
5.041021 7.744723 1.463601
5.038787 7.741292 -0.808108
5.077848 7.798325 1.808869
5.046180 7.746733 -0.484526
5.052584 7.753606 2.136585
5.053950 7.752744 -0.161539
5.066353 7.768807 2.485181
3.141079 4.803732 -1.537903
5.070500 7.751491 0.161679
3.381508 5.167487 -1.425740
5.249708 8.019341 0.502321
3.772126 5.762218 -1.338716
9.812953 14.984350 1.567060
4.518392 6.896944 -1.305915
7.590744 11.582220 1.700321
5.185197 7.908743 -1.161171
5.084273 7.751857 1.468294
5.062499 7.718658 -0.807585
5.113652 7.793684 1.811922
5.084148 7.745770 -0.485573
5.086034 7.745697 2.139284
5.086469 7.743413 -0.161714
5.097682 7.757534 2.487251
3.148263 4.778219 -1.533244
5.104128 7.743762 0.161889
3.402742 5.160533 -1.427089
5.287569 8.015972 0.503263
3.791137 5.747377 -1.338334
9.876168 14.966637 1.568803
4.529378 6.861348 -1.302161
7.591750 11.496018 1.691547
5.230278 7.917097 -1.165071
5.122194 7.750540 1.471423
5.108088 7.729196 -0.810548
5.147324 7.785612 1.814212
5.123272 7.746301 -0.486724
5.131324 7.755524 2.146933
5.130026 7.750623 -0.162238
5.137527 7.759022 2.493463
3.173470 4.780077 -1.537385
5.144406 7.745886 0.162307
3.423972 5.153492 -1.428439
5.331804 8.025011 0.504937
3.812262 5.735744 -1.338716
4.554397 6.847139 -1.302473
7.591141 11.408300 1.682528
5.274383 7.923576 -1.168727
5.156623 7.746669 1.473926
5.153808 7.739511 -0.813512
5.188618 7.788839 1.819173
5.155821 7.736679 -0.487248
5.174576 7.761887 2.153681
5.169008 7.753535 -0.162656
5.176093 7.761228 2.499674
3.177246 4.749702 -1.531174
5.182292 7.747068 0.162691
3.447544 5.151828 -1.431139
5.365338 8.014650 0.505461
3.826799 5.714244 -1.336808
4.575980 6.830357 -1.302161
7.590248 11.325352 1.673998
5.298421 7.902743 -1.168240
5.196839 7.748307 1.477680
5.193002 7.739674 -0.815429
5.226449 7.789525 1.823371
5.191468 7.734463 -0.488190
5.202462 7.747920 2.154581
5.208305 7.753705 -0.163040
5.218240 7.765560 2.506922
3.200537 4.750354 -1.534797
5.226066 7.753807 0.163215
3.478581 5.159151 -1.436537
5.405286 8.016685 0.506717
3.840237 5.693386 -1.334900
4.592057 6.802881 -1.299971
7.594188 11.246141 1.666198
5.347082 7.915458 -1.172871
5.232451 7.745767 1.480496
5.228682 7.737267 -0.816998
5.271202 7.797255 1.829477
5.234098 7.739458 -0.489655
5.244762 7.752310 2.160880
5.240714 7.746327 -0.163250
5.261286 7.773812 2.515203
3.212758 4.732760 -1.532727
5.267476 7.759594 0.163704
3.502238 5.157260 -1.439237
5.451197 8.024200 0.508392
3.856776 5.675076 -1.333755
4.610147 6.781083 -1.298719
7.591254 11.161802 1.657423
5.382236 7.910811 -1.174821
5.278354 7.755214 1.485815
5.263509 7.730495 -0.818218
5.311397 7.800827 1.834438
5.278846 7.750121 -0.491435
5.283607 7.754201 2.166279
5.276735 7.741204 -0.163529
5.297095 7.768168 2.519345
3.228993 4.719358 -1.532209
5.299489 7.742613 0.163773
3.533026 5.159853 -1.443736
5.490725 8.019000 0.509334
3.881989 5.667380 -1.335281
4.629451 6.753554 -1.296842
7.603741 11.088370 1.650842
5.424668 7.910676 -1.177745
5.320150 7.755364 1.489569
5.304206 7.729223 -0.820136
5.350198 7.793325 1.837491
5.322132 7.749552 -0.492691
5.327435 7.757274 2.172577
5.327718 7.754777 -0.164227
5.334287 7.761437 2.523486
3.246819 4.711805 -1.533244
5.341026 7.748046 0.164262
3.554541 5.154527 -1.445535
5.539961 8.033633 0.511427
3.896304 5.648010 -1.333755
9.671097 14.013824 1.489666
4.652943 6.739792 -1.297155
7.596478 10.999390 1.641336
5.462154 7.908975 -1.180183
5.361560 7.760431 1.493949
5.344533 7.732900 -0.822402
5.381597 7.783613 1.839399
5.355756 7.743358 -0.493423
5.369761 7.763606 2.179326
5.360229 7.746935 -0.164437
5.378689 7.770708 2.532286
3.258017 4.694666 -1.531174
5.379233 7.748362 0.164646
3.582732 5.158716 -1.450034
5.577085 8.027369 0.512264
3.910527 5.628612 -1.332228
9.667481 13.909694 1.481996
4.666246 6.711348 -1.294652
7.602305 10.930139 1.634755
5.490857 7.891495 -1.180427
5.399904 7.757880 1.497078
5.387222 7.739661 -0.825016
5.436545 7.807615 1.849321
5.396244 7.746861 -0.494784
5.405743 7.757604 2.182925
5.405537 7.754423 -0.164995
5.417932 7.769320 2.537980
3.275493 4.684847 -1.531691
5.418857 7.747561 0.165030
3.611886 5.162148 -1.454533
5.611946 8.017669 0.512892
3.921146 5.602059 -1.329176
9.674839 13.817106 1.475721
4.694174 6.701495 -1.295903
7.600540 10.846638 1.626225
5.525209 7.882032 -1.181889
5.436023 7.751924 1.499581
5.425644 7.737123 -0.826759
5.469402 7.796628 1.851229
5.441611 7.754134 -0.496459
5.440629 7.749849 2.186074
5.439466 7.745326 -0.165204
5.459458 7.770908 2.544709
3.286265 4.665488 -1.529103
5.461992 7.751485 0.165519
3.642235 5.167028 -1.459482
5.665223 8.033939 0.515195
3.933890 5.578710 -1.326886
9.672474 13.711616 1.468051
4.719818 6.688295 -1.296529
7.606302 10.774632 1.619400
5.579025 7.899993 -1.187495
5.474446 7.749037 1.502710
5.462963 7.732783 -0.828328
5.511316 7.798330 1.856190
5.480173 7.751401 -0.497506
5.482271 7.751499 2.191923
5.480331 7.745880 -0.165623
5.495477 7.764420 2.548850
3.298055 4.647687 -1.527032
5.493648 7.738893 0.165658
3.679432 5.181293 -1.467131
5.707110 8.033654 0.516451
3.945379 5.553741 -1.324215
9.669499 13.606310 1.460382
4.733981 6.658897 -1.294026
7.609349 10.699485 1.612088
5.630734 7.914435 -1.192613
5.519790 7.755628 1.507716
5.501477 7.729897 -0.830071
5.549888 7.795039 1.860006
5.518786 7.748491 -0.498552
5.522867 7.751358 2.197322
5.523584 7.749501 -0.166112
5.533763 7.760918 2.554026
3.316507 4.639290 -1.528068
5.538078 7.744066 0.166182
3.694093 5.163664 -1.465781
5.756039 8.042920 0.518335
3.971596 5.549515 -1.326504
9.670547 13.507669 1.453409
4.749143 6.631092 -1.291836
7.610808 10.622835 1.604532
5.679145 7.923774 -1.197001
5.562942 7.758790 1.512096
5.545839 7.734936 -0.832686
5.587361 7.789978 1.863441
5.555117 7.742162 -0.499390
5.570343 7.760530 2.205420
5.562263 7.746418 -0.166461
5.573219 7.758811 2.559721
3.334938 4.630821 -1.529103
5.582609 7.749026 0.166705
3.715514 5.155479 -1.467131
5.793421 8.035740 0.519173
3.985201 5.527656 -1.324596
9.678010 13.418892 1.447483
4.768795 6.609666 -1.290897
7.615316 10.551133 1.597707
5.704443 7.900684 -1.196513
5.606185 7.761741 1.516476
5.591473 7.741372 -0.835475
5.643267 7.810209 1.872981
5.598487 7.745385 -0.500855
5.604252 7.750512 2.208120
5.600991 7.743156 -0.166810
5.618388 7.764353 2.568003
3.348815 4.616023 -1.528068
5.626066 7.752151 0.167194
3.741501 5.153518 -1.470280
5.830828 8.028396 0.520010
3.996397 5.502591 -1.321925
9.699024 13.349568 1.443648
4.791837 6.592981 -1.290897
7.615910 10.474715 1.590151
5.736656 7.887146 -1.197488
5.640217 7.751710 1.518353
5.631354 7.739529 -0.837392
5.684357 7.809510 1.877560
5.639596 7.745173 -0.502111
5.651927 7.759254 2.216218
5.642116 7.742952 -0.167229
5.665942 7.772792 2.577320
3.358069 4.594946 -1.524962
5.671973 7.758295 0.167753
3.775574 5.162447 -1.476579
9.752905 13.330533 0.865637
4.010946 5.482269 -1.320398
9.759682 13.334927 1.445740
4.805488 6.563462 -1.288394
7.614895 10.396816 1.582352
5.777057 7.884689 -1.200169
5.681256 7.751092 1.522107
5.667760 7.732679 -0.838787
5.720873 7.802285 1.880614
5.684314 7.749598 -0.503681
5.689352 7.753619 2.220267
5.684494 7.744165 -0.167683
5.703325 7.766985 2.581979
3.371796 4.580086 -1.523927
5.708508 7.751328 0.168032
3.799350 5.157082 -1.478828
9.773306 13.261039 0.863334
4.033551 5.472976 -1.321543
9.832184 13.336054 1.449574
4.818987 6.533930 -1.285891
5.942243 8.053977 1.228931
5.815156 7.878848 -1.202363
5.729396 7.759820 1.527739
5.707734 7.730480 -0.840704
5.755069 7.791744 1.882903
5.729136 7.753802 -0.505251
5.740709 7.766621 2.229715
5.730512 7.750002 -0.168241
5.745339 7.767219 2.588708
3.380860 4.558977 -1.520821
5.749830 7.750625 0.168451
3.818488 5.145353 -1.479278
9.855256 13.274951 0.866474
4.053802 5.460439 -1.321925
9.909564 13.343236 1.454106
4.839409 6.513899 -1.285266
5.977427 8.042744 1.230393
5.866313 7.890360 -1.207238
5.772952 7.761966 1.532119
5.754896 7.737689 -0.843668
5.795125 7.788932 1.887101
5.759747 7.738561 -0.505565
5.781745 7.765296 2.235114
5.770671 7.747591 -0.168625
5.786269 7.765704 2.594920
3.399063 4.550245 -1.521856
5.791213 7.749731 0.168869
3.843428 5.141357 -1.481978
9.951838 13.312584 0.871080
4.074010 5.447830 -1.322306
4.856201 6.489058 -1.283701
6.025692 8.048843 1.234537
5.900958 7.879370 -1.208700
5.804582 7.750682 1.533684
5.799791 7.741469 -0.846282
5.841120 7.793792 1.893207
5.804694 7.742380 -0.507135
5.818172 7.757536 2.238713
5.817926 7.757210 -0.169253
5.825904 7.765015 2.601131
3.424219 4.550701 -1.525997
5.836115 7.756051 0.169428
3.876865 5.150380 -1.488276
6.057576 8.044520 0.527756
4.077647 5.413189 -1.317345
4.877695 6.472917 -1.283701
6.075047 8.058939 1.239168
5.942590 7.880364 -1.211869
5.851827 7.757180 1.539002
5.836378 7.733902 -0.847677
5.882302 7.794755 1.898168
5.843572 7.740624 -0.508287
5.860308 7.759969 2.245012
5.853409 7.748022 -0.169498
5.876264 7.775460 2.611484
3.418292 4.511603 -1.516680
5.881274 7.759536 0.169952
3.895993 5.138371 -1.488726
6.119417 8.067882 0.530687
4.096763 5.401200 -1.317727
4.893089 6.446414 -1.281824
6.119950 8.059815 1.242580
5.995279 7.892767 -1.216987
5.889620 7.750866 1.541818
5.886099 7.746233 -0.851163
5.935614 7.808558 1.906564
5.892319 7.748794 -0.510171
5.903872 7.761184 2.251310
5.892527 7.743456 -0.169847
5.903371 7.754900 2.611484
3.435193 4.501179 -1.517197
5.916817 7.750086 0.170196
3.915090 5.126288 -1.489176
6.166945 8.071863 0.532361
4.112018 5.382185 -1.316582
4.902365 6.412031 -1.278383
6.160109 8.054170 1.245017
6.037267 7.890711 -1.219912
5.938252 7.758493 1.547450
5.924004 7.739877 -0.852732
5.969998 7.797143 1.908853
5.937547 7.751964 -0.511741
5.953449 7.769917 2.259858
5.942636 7.752994 -0.170510
5.951563 7.761841 2.620802
3.449703 4.487631 -1.516680
5.962121 7.753161 0.170719
3.925833 5.103322 -1.486477
6.236492 8.104107 0.535920
4.140355 5.380249 -1.319635
4.919898 6.388618 -1.277131
6.200294 8.048348 1.247455
6.053870 7.855437 -1.217719
5.978567 7.754926 1.550892
5.964368 7.736507 -0.854649
6.013958 7.798024 1.914196
5.973112 7.742259 -0.512474
5.988872 7.759885 2.263008
5.984322 7.751202 -0.170929
6.002239 7.771596 2.631155
3.472445 4.484725 -1.519786
6.008739 7.757598 0.171278
3.938847 5.083426 -1.484677
6.257404 8.072816 0.535292
4.147084 5.350246 -1.315819
9.705953 12.517354 1.385776
4.945799 6.376089 -1.278070
6.240522 8.042338 1.249892
6.082473 7.835824 -1.217962
6.024984 7.758974 1.555897
6.007221 7.736099 -0.856915
6.058005 7.798689 1.919539
6.020936 7.748169 -0.514253
6.037449 7.766629 2.271106
6.029758 7.753942 -0.171452
6.048312 7.774993 2.639437
3.486889 4.471055 -1.519268
6.054230 7.760228 0.171801
3.961365 5.075790 -1.486477
4.162109 5.331096 -1.314674
9.715246 12.439432 1.380896
4.964379 6.354115 -1.277131
6.278335 8.033019 1.251842
6.075548 7.770761 -1.211138
6.057979 7.748290 1.557775
6.059968 7.748039 -0.860576
6.097288 7.792959 1.923355
6.065178 7.749126 -0.515719
6.081344 7.766986 2.277405
6.069001 7.751222 -0.171836
6.089546 7.774666 2.646166
3.494123 4.448221 -1.515644
6.093520 7.757405 0.172185
3.978174 5.062627 -1.486477
4.178267 5.313447 -1.313911
9.706875 12.339673 1.373574
4.981758 6.332961 -1.276192
6.324583 8.037114 1.255742
6.130754 7.788003 -1.216987
6.106990 7.755030 1.563406
6.098071 7.740925 -0.862145
6.152256 7.809707 1.932514
6.110620 7.754071 -0.517393
6.122748 7.766673 2.283253
6.108402 7.745693 -0.172185
6.127415 7.767014 2.650825
3.512449 4.441156 -1.517197
6.130490 7.748632 0.172465
3.994611 5.047182 -1.486027
4.200738 5.305720 -1.315437
9.700738 12.248062 1.366951
4.991565 6.300051 -1.273064
6.379728 8.049212 1.261104
6.172703 7.785220 -1.219912
6.149857 7.756404 1.567786
6.142278 7.744077 -0.864759
6.181922 7.791259 1.933277
6.147585 7.745207 -0.518231
6.171633 7.772726 2.291352
6.155191 7.752018 -0.172779
6.171162 7.769341 2.658589
3.526725 4.427358 -1.516680
6.171097 7.747033 0.172884
4.004041 5.024762 -1.483327
4.222906 5.295628 -1.316582
9.703671 12.164287 1.361373
5.011199 6.281918 -1.272751
6.421241 8.046632 1.264029
6.193532 7.758504 -1.218937
6.204011 7.768851 1.574670
6.184196 7.741266 -0.866851
6.223653 7.790658 1.938238
6.195678 7.752864 -0.520115
6.213195 7.772003 2.297200
6.194704 7.746100 -0.173128
6.222380 7.777924 2.668942
3.541388 4.415637 -1.516680
6.223131 7.756638 0.173582
4.021557 5.010754 -1.483327
4.245359 5.287720 -1.318109
9.736467 12.122723 1.360327
5.035573 6.267466 -1.273377
6.460481 8.038095 1.266223
6.223062 7.739932 -1.219425
6.242115 7.763630 1.577798
6.231064 7.747109 -0.869814
6.280348 7.805594 1.947397
6.238981 7.751418 -0.521476
6.253733 7.766962 2.302149
6.247950 7.759780 -0.173896
6.262681 7.775299 2.675154
3.565279 4.413767 -1.520303
6.271440 7.763958 0.174210
4.044274 5.004970 -1.485577
4.252682 5.259128 -1.314674
9.758679 12.063875 1.357538
5.048873 6.241518 -1.271500
6.510825 8.045948 1.270854
6.238704 7.706908 -1.217475
6.287827 7.764820 1.582491
6.276875 7.748537 -0.872429
6.324729 7.807612 1.953121
6.286030 7.757063 -0.523255
6.294179 7.764349 2.307548
6.285069 7.750353 -0.174175
6.314124 7.783398 2.685507
3.566798 4.382691 -1.514091
6.318878 7.761532 0.174699
4.054849 4.978826 -1.482427
26.882893 32.996960 2.230559
4.269448 5.240463 -1.313911
5.070307 6.219024 -1.270874
6.556729 8.039348 1.273779
6.260720 7.673670 -1.216012
