# This PCD file was generated using the MATLAB® pcwrite function
# from Computer Vision Toolbox®.
# .PCD v.7 - Point Cloud Data file format
VERSION .7
FIELDS x y z
SIZE 4 4 4
TYPE F F F
COUNT 1 1 1
WIDTH 1568
HEIGHT 1
VIEWPOINT 0 0 0 1 0 0 0
POINTS 1568
DATA ascii
-13.752463 -7.330797 3.029284
-21.516747 -11.464752 -1.277730
-13.765129 -7.331384 3.600567
-6.097377 -3.235211 -1.849521
-7.159044 -3.795320 -1.870693
-8.614699 -4.565098 -1.895115
-14.130918 -7.485096 1.399024
-10.928520 -5.786355 -1.958560
-13.871223 -7.341333 1.926998
-14.102367 -7.460520 -1.958928
-13.858269 -7.328290 2.482928
-13.868225 -7.330454 3.049128
-13.869905 -7.325150 3.621262
-13.972640 -7.373175 4.233244
-6.103504 -3.211209 -1.847968
-7.182598 -3.775749 -1.873392
-8.627106 -4.533175 -1.894352
-14.266320 -7.493164 1.409831
-10.971390 -5.760107 -1.962627
-13.984652 -7.338995 1.939185
-14.151638 -7.426628 -1.962340
-13.987453 -7.337352 2.501700
-13.977194 -7.325750 3.067446
-13.956261 -7.311674 3.637458
-6.115832 -3.191845 -1.848486
-7.200263 -3.754613 -1.874742
-8.636868 -4.501819 -1.893207
-14.192141 -7.394259 1.400070
-10.986925 -5.721872 -1.962001
-14.058214 -7.318244 1.946010
-14.302965 -7.445653 -1.979890
-14.036242 -7.303693 2.506080
-14.480114 -7.531448 -1.427960
-14.067603 -7.313773 3.081947
-14.512822 -7.542026 -0.857158
-14.063432 -7.308487 3.659054
-14.560238 -7.563436 -0.286394
-6.143538 -3.180429 -1.853662
-14.591637 -7.550666 0.286778
-7.210944 -3.729820 -1.874292
-8.618615 -4.456021 -1.885956
-14.259065 -7.369110 1.404253
-11.021633 -5.693566 -1.964817
-14.145904 -7.304372 1.954785
-14.424123 -7.444846 -1.993051
-14.184536 -7.318050 2.527981
-14.455434 -7.457811 -1.423079
-14.172045 -7.308475 3.099502
-14.502249 -7.475556 -0.855065
-14.168545 -7.300410 3.679749
-14.536771 -7.486931 -0.285417
-6.159759 -3.161610 -1.855215
-14.525384 -7.452222 0.284963
-7.227387 -3.706405 -1.875192
-14.602709 -7.485451 0.859985
-8.630622 -4.424118 -1.885193
-14.401730 -7.379255 1.415758
-11.094188 -5.682073 -1.974203
-14.266731 -7.303798 1.967946
-14.457093 -7.398068 -1.994026
-14.252203 -7.290082 2.535490
-14.476056 -7.404584 -1.422556
-14.260398 -7.291134 3.113240
-14.494464 -7.407618 -0.853076
-14.225179 -7.266866 3.687848
-14.532543 -7.420683 -0.284823
-6.175922 -3.142718 -1.856768
-14.547746 -7.399661 0.284893
-7.255916 -3.689101 -1.879241
-14.589577 -7.414526 0.857682
-8.628510 -4.385069 -1.881377
-14.484241 -7.357817 1.421336
-11.194977 -5.684450 -1.988595
-14.370026 -7.293483 1.978671
-14.539476 -7.376301 -2.001826
-14.337465 -7.270664 2.546128
-14.537355 -7.372031 -1.426042
-14.373319 -7.285693 3.132321
-14.520231 -7.356981 -0.853076
-14.354768 -7.269993 3.714842
-14.533380 -7.357265 -0.284335
-6.186855 -3.121141 -1.856768
-14.573487 -7.348834 0.284893
-7.279190 -3.669013 -1.881940
-14.592180 -7.351873 0.856321
-8.631491 -4.348742 -1.878706
-14.591694 -7.348435 1.429354
-11.216515 -5.646224 -1.988908
-14.462781 -7.277187 1.987933
-14.678636 -7.382584 -2.017425
-14.468650 -7.273808 2.564900
-14.612843 -7.346297 -1.430923
-14.465322 -7.268977 3.146822
-14.635064 -7.351071 -0.858310
-14.442754 -7.251319 3.731038
-14.614375 -7.334297 -0.285417
-6.195984 -3.098662 -1.856250
-14.659865 -7.328314 0.286080
-7.305897 -3.650551 -1.885540
-14.637409 -7.310709 0.857472
-8.634323 -4.312445 -1.876034
-14.699254 -7.338388 1.437372
-11.266202 -5.622034 -1.994227
-14.552045 -7.258556 1.996707
-14.736296 -7.347244 -2.021812
-14.568207 -7.260269 2.578040
-14.722206 -7.337017 -1.439116
-14.550356 -7.248202 3.159797
-14.732151 -7.335549 -0.862497
-14.572654 -7.252962 3.758032
-14.720456 -7.323316 -0.286987
-6.210223 -3.078732 -1.857285
-14.751651 -7.309953 0.287371
-7.325581 -3.628486 -1.887339
-14.750546 -7.302988 0.862601
-8.624694 -4.270082 -1.870692
-14.785495 -7.317083 1.443299
-11.299924 -5.589681 -1.996730
-14.673386 -7.255223 2.009869
-14.847273 -7.337981 -2.033512
-14.657218 -7.240868 2.589303
-14.817392 -7.319996 -1.445914
-14.681190 -7.249518 3.182694
-14.813185 -7.311487 -0.865742
-14.650310 -7.227915 3.771529
-14.833811 -7.315225 -0.288698
-6.238272 -3.065554 -1.862462
-14.863232 -7.300733 0.289047
-7.338202 -3.602893 -1.887339
-14.845874 -7.285776 0.866684
-8.646595 -4.243412 -1.872218
-14.868185 -7.293506 1.448877
-11.356613 -5.568465 -2.003300
-14.766356 -7.237161 2.019131
-14.944102 -7.321042 -2.043262
-14.788854 -7.241782 2.608076
-14.939481 -7.315541 -1.455326
-14.766358 -7.227576 3.195669
-14.928318 -7.303620 -0.870975
-14.776989 -7.226383 3.797623
-14.941895 -7.303800 -0.290303
-6.252408 -3.045452 -1.863497
-14.964137 -7.285570 0.290513
-7.363000 -3.583225 -1.890489
-14.952037 -7.273224 0.871394
-8.640169 -4.202898 -1.867638
-14.907889 -7.248531 1.450272
-11.395525 -5.538287 -2.006742
-14.841523 -7.209859 2.025956
-15.048138 -7.306984 -2.053986
-14.867353 -7.215994 2.617462
-15.036621 -7.298150 -1.462299
-14.879817 -7.218835 3.214750
-15.034593 -7.290682 -0.875685
-14.851224 -7.198560 3.810221
-15.042882 -7.288217 -0.291769
-6.263000 -3.023608 -1.863497
-15.081326 -7.277617 0.292293
-7.385995 -3.562581 -1.893188
-15.055226 -7.261779 0.875999
-8.658325 -4.174417 -1.868402
-14.972583 -7.215480 1.454106
-11.464619 -5.522478 -2.015502
-15.002533 -7.223457 2.044480
-15.148681 -7.290568 -2.064223
-14.944601 -7.192351 2.626848
-15.137415 -7.281893 -1.469620
-14.986314 -7.205985 3.232305
-15.155357 -7.284011 -0.881233
-14.992193 -7.202370 3.839915
-15.140872 -7.273797 -0.293200
-6.278744 -3.004230 -1.865050
-15.173923 -7.260363 0.293619
-7.420623 -3.548999 -1.899037
-15.163372 -7.248806 0.880814
-8.658670 -4.137399 -1.865349
-15.109149 -7.216407 1.464914
-11.489998 -5.487834 -2.016753
-15.090896 -7.204455 2.053255
-15.237266 -7.271072 -2.072998
-15.083722 -7.194567 2.646871
-15.249066 -7.270165 -1.477987
-15.120000 -7.208632 3.255965
-15.253349 -7.268945 -0.885524
-15.082849 -7.184459 3.857011
-15.254639 -7.263022 -0.294911
-6.302635 -2.990017 -1.869191
-15.280483 -7.245908 0.295190
-7.427683 -3.520570 -1.897687
-15.279372 -7.242110 0.886153
-8.638634 -4.092692 -1.858098
-15.194220 -7.195256 1.470840
-11.507298 -5.446848 -2.016440
-15.166193 -7.175508 2.060080
-15.341518 -7.255178 -2.083722
-15.182502 -7.179977 2.660012
-15.357751 -7.259576 -1.486180
-15.208975 -7.186007 3.269703
-15.352679 -7.250622 -0.889816
-15.202999 -7.176689 3.881306
-15.365439 -7.253370 -0.296586
-6.320027 -2.971286 -1.871262
-15.396720 -7.238585 0.296970
-7.435790 -3.494262 -1.896787
-15.380483 -7.224397 0.890549
-8.652867 -4.062512 -1.858098
-15.327463 -7.192960 1.481299
-11.544970 -5.417890 -2.019882
-15.301330 -7.177442 2.075191
-15.412221 -7.226177 -2.090060
-15.332679 -7.185615 2.681913
-15.484037 -7.253257 -1.495941
-15.318057 -7.175506 3.288021
-15.465268 -7.241169 -0.894945
-15.272605 -7.147711 3.893003
-15.473984 -7.238670 -0.298192
-6.334892 -2.948627 -1.872297
-15.507243 -7.214675 0.298541
-7.470960 -3.474247 -1.902186
-15.489606 -7.203186 0.895259
-8.689766 -4.039188 -1.862677
-15.427244 -7.167633 1.488271
-11.580956 -5.378160 -2.022385
-15.416446 -7.156079 2.086891
-15.292206 -7.098409 -2.070073
-15.421081 -7.154955 2.692550
-15.584072 -7.227278 -1.502914
-15.432234 -7.153590 3.306339
-15.584821 -7.221012 -0.900179
-15.398953 -7.134893 3.918198
-15.586946 -7.218698 -0.299832
-6.339373 -2.925175 -1.870744
-15.629138 -7.208441 0.300426
-7.489520 -3.452716 -1.903986
-15.598656 -7.191080 0.900179
-8.754823 -4.034177 -1.873744
-15.552270 -7.163115 1.498033
-11.618466 -5.348814 -2.025827
-15.515832 -7.139769 2.097128
-15.405828 -7.089149 -2.082260
-15.516512 -7.136796 2.705065
-15.696655 -7.216339 -1.511455
-15.530797 -7.136804 3.322366
-15.695801 -7.209306 -0.905203
-15.532325 -7.134219 3.946092
-15.696216 -7.206180 -0.301473
-6.356066 -2.907351 -1.872815
-15.727521 -7.190663 0.301857
-7.508017 -3.431101 -1.905785
-15.707232 -7.174759 0.904993
-8.877084 -4.054880 -1.897023
-15.637559 -7.139636 1.503959
-11.612777 -5.299593 -2.021759
-15.626116 -7.127821 2.108827
-15.636390 -7.129211 -2.110046
-15.631201 -7.123551 2.720708
-15.796088 -7.195365 -1.518602
-15.677656 -7.141418 3.348698
-15.812324 -7.199429 -0.910541
-15.806823 -7.190264 -0.303113
-6.375477 -2.888022 -1.875403
-15.839955 -7.175329 0.303532
-7.527050 -3.408087 -1.907585
-15.835896 -7.166825 0.910960
-8.967013 -4.056301 -1.913051
-15.783442 -7.136450 1.515464
-11.707726 -5.291163 -2.034900
-15.730494 -7.109203 2.119552
-15.755252 -7.117081 -2.122720
-15.735188 -7.104712 2.734475
-15.926438 -7.187718 -1.528712
-15.753836 -7.106508 3.359383
-15.916896 -7.176726 -0.915042
-15.919336 -7.174483 -0.304789
-6.392570 -2.868912 -1.877473
-15.953729 -7.156507 0.305208
-7.550158 -3.385261 -1.910284
-15.948293 -7.150730 0.915984
-9.024116 -4.044245 -1.922210
-15.888263 -7.117149 1.523134
-11.682854 -5.230892 -2.027391
-15.861536 -7.098531 2.133689
-15.831969 -7.081983 -2.129545
-15.896935 -7.111043 2.758253
-16.033281 -7.168672 -1.536556
-15.893258 -7.102742 3.383807
-16.033030 -7.161850 -0.920276
-16.041059 -7.162075 -0.306639
-6.418433 -2.853644 -1.882132
-16.087008 -7.152306 0.307302
-7.564905 -3.361788 -1.911184
-16.051645 -7.129875 0.920485
-9.043562 -4.015110 -1.923355
-16.011349 -7.105290 1.532547
-11.732636 -5.206543 -2.033022
-15.982976 -7.089356 2.146851
-15.848107 -7.026225 -2.128570
-15.972228 -7.077922 2.767013
-16.171150 -7.162692 -1.547363
-15.977756 -7.077032 3.396782
-16.153484 -7.151495 -0.925823
-16.161058 -7.148103 -0.308454
-6.424325 -2.830786 -1.881097
-16.196056 -7.133188 0.308908
-7.594429 -3.343213 -1.915683
-16.182467 -7.120455 0.926556
-9.058623 -3.985889 -1.923736
-16.089537 -7.076218 1.537776
-11.801374 -5.187816 -2.041783
-16.120306 -7.083032 2.161963
-15.828916 -6.951708 -2.122720
-16.083660 -7.060233 2.782031
-16.265385 -7.136619 -1.553987
-16.128212 -7.076433 3.423495
-16.282608 -7.140788 -0.931789
-16.281157 -7.133377 -0.310269
-6.432886 -2.806450 -1.880579
-16.305170 -7.113391 0.310513
-7.609626 -3.318239 -1.916583
-16.300600 -7.104626 0.931894
-9.062371 -3.947958 -1.921447
-16.272463 -7.085601 1.552767
-11.834800 -5.150833 -2.044286
-16.210455 -7.055239 2.170737
-15.776632 -6.863153 -2.112484
-16.242262 -7.062336 2.805183
-16.408970 -7.131418 -1.565317
-16.247673 -7.057951 3.443339
-16.402105 -7.121629 -0.937128
-16.408684 -7.121082 -0.312224
-6.458603 -2.790874 -1.885238
-16.432100 -7.097191 0.312433
-7.619947 -3.289555 -1.916133
-16.442654 -7.098345 0.938593
-9.112150 -3.931854 -1.929079
-16.351982 -7.052427 1.557996
-11.878103 -5.120438 -2.048666
-16.352882 -7.046046 2.186336
-16.166323 -6.962317 -2.161231
-16.343016 -7.038413 2.818324
-16.519773 -7.111125 -1.573510
-16.387632 -7.050848 3.467763
-16.518602 -7.103783 -0.942361
-16.521622 -7.101669 -0.313899
-6.462978 -2.766032 -1.883685
-16.558495 -7.086721 0.314388
-7.636189 -3.266567 -1.917483
-16.540789 -7.072313 0.942780
-9.154704 -3.912367 -1.935185
-16.475441 -7.037572 1.567409
-11.918633 -5.091107 -2.052733
-16.496649 -7.043227 2.202423
-16.306173 -6.958535 -2.176831
-16.498306 -7.037127 2.840850
-16.661797 -7.103420 -1.584666
-16.475939 -7.024183 3.481501
-16.641291 -7.091246 -0.948014
-16.643827 -7.085464 -0.315749
-6.489900 -2.752128 -1.888861
-16.682554 -7.071019 0.316273
-7.661899 -3.245973 -1.921082
-16.667139 -7.061054 0.948642
-9.156780 -3.877394 -1.932895
-16.612446 -7.031045 1.578216
-11.945429 -5.053320 -2.054298
-16.572330 -7.007242 2.209248
-16.286478 -6.883029 -2.170981
-16.568859 -7.002370 2.848985
-16.780697 -7.088446 -1.593730
-16.619726 -7.017028 3.506688
-16.783707 -7.082816 -0.954713
-16.775940 -7.076088 -0.317808
-6.497687 -2.728708 -1.888344
-16.811003 -7.059791 0.318262
-7.676216 -3.222056 -1.921982
-16.794821 -7.046105 0.954503
-9.184744 -3.851483 -1.935948
-16.754488 -7.022303 1.589372
-11.983983 -5.022843 -2.058052
-16.756598 -7.019753 2.230697
-16.393442 -6.864251 -2.182193
-16.717113 -6.996350 2.870260
-16.906435 -7.072112 -1.603317
-16.715353 -6.992181 3.521952
-16.908451 -7.069494 -0.960470
-16.907558 -7.062184 -0.319833
-6.504916 -2.706403 -1.887826
-16.942636 -7.045600 0.320287
-7.707209 -3.203470 -1.926931
-16.929981 -7.033408 0.960784
-9.208344 -3.825523 -1.938238
-16.808964 -6.979693 1.592335
-12.008740 -4.984008 -2.059304
-16.832340 -6.982512 2.237521
-16.479649 -6.832836 -2.190480
-16.839975 -6.978791 2.887155
-17.018139 -7.052625 -1.611684
-16.870251 -6.987888 3.549429
-17.041901 -7.055504 -0.966645
-17.020805 -7.039812 -0.321508
-6.530399 -2.690303 -1.892485
-17.059580 -7.024489 0.322032
-7.757991 -3.192864 -1.936829
-17.052324 -7.014537 0.966331
-9.279740 -3.817256 -1.950450
-16.973272 -6.978556 1.605583
-12.026065 -4.942060 -2.059304
-16.952095 -6.962932 2.250196
-16.349148 -6.711943 -2.170006
-16.984850 -6.969458 2.907804
-17.147720 -7.036289 -1.621620
-16.974464 -6.961736 3.566220
-17.156979 -7.033092 -0.971774
-17.172363 -7.035899 4.284418
-17.156309 -7.025825 -0.323603
-6.550483 -2.671870 -1.895591
-17.195097 -7.010191 0.324126
-7.835862 -3.192971 -1.953475
-17.187691 -7.000173 0.972612
-9.343920 -3.805575 -1.961135
-17.119322 -6.968848 1.617088
-12.043243 -4.900050 -2.059304
-17.097660 -6.953070 2.266283
-16.357761 -6.648855 -2.168056
-17.107901 -6.950277 2.924699
-17.273077 -7.013869 -1.631032
-17.115080 -6.949713 3.590644
-11.934834 -4.843808 -0.675029
-17.284506 -7.007971 -0.325557
-6.562023 -2.648566 -1.896108
-17.339996 -6.998776 0.326395
-7.906598 -3.189657 -1.968322
-17.312046 -6.980469 0.978264
-9.365089 -3.774237 -1.962661
-17.251938 -6.949228 1.627198
-11.998817 -4.830796 -2.048666
-17.239679 -6.940798 2.281882
-16.340357 -6.575408 -2.162694
-17.260347 -6.942114 2.946600
-17.430555 -7.007042 -1.643583
-17.224234 -6.920606 3.608198
-17.429274 -6.999457 -0.984335
-17.420206 -6.992290 -0.327651
-6.562260 -2.622059 -1.893520
-17.480669 -6.981156 0.328559
-7.932714 -3.166439 -1.971921
-17.446964 -6.960631 0.984439
-9.376384 -3.740797 -1.962280
-17.416740 -6.945055 1.640445
-12.044968 -4.800584 -2.053672
-17.419914 -6.939269 2.302356
-16.567219 -6.596250 -2.189505
-17.401304 -6.924819 2.966311
-17.562279 -6.988879 -1.653693
-17.372335 -6.909780 3.634148
-17.566813 -6.983586 -0.990720
-17.560947 -6.974152 -0.329816
-6.580353 -2.602690 -1.896108
-17.596056 -6.956118 0.330269
-7.970906 -3.149468 -1.978670
-17.591902 -6.947377 0.991243
-9.391209 -3.708767 -1.962661
-17.526127 -6.917866 1.648464
-12.081865 -4.766481 -2.057113
-17.492041 -6.897356 2.308693
-16.582756 -6.535468 -2.188530
-17.517267 -6.900233 2.981954
-17.694084 -6.969883 -1.663803
-17.542490 -6.906638 3.664678
-17.726755 -6.975612 -0.998361
-17.704290 -6.959637 -0.332049
-6.601991 -2.584634 -1.899732
-17.737549 -6.940559 0.332468
-7.974590 -3.118788 -1.976870
-17.730167 -6.934103 0.997733
-9.433354 -3.687399 -1.968767
-17.680075 -6.907394 1.660666
-12.096588 -4.723562 -2.056801
-17.678747 -6.899768 2.330142
-16.690540 -6.510724 -2.199742
-17.646791 -6.883743 3.000101
-17.846388 -6.958019 -1.675831
-17.652468 -6.878864 3.682614
-17.844053 -6.949929 -1.003594
-17.853991 -6.950216 -0.334423
-6.612774 -2.562271 -1.900250
-17.874208 -6.925772 0.334598
-8.003062 -3.099364 -1.981369
-17.869747 -6.916871 1.004223
-9.477295 -3.666489 -1.975255
-17.811859 -6.887317 1.670776
-12.064283 -4.664900 -2.048666
-17.790407 -6.875453 2.341841
-16.786108 -6.483955 -2.209491
-17.784966 -6.866215 3.019498
-17.985815 -6.940151 -1.686638
-17.807058 -6.871174 3.710090
-18.006763 -6.944619 -1.011445
-18.005028 -6.936737 -0.336797
-6.635664 -2.545864 -1.904391
-12.113916 -4.645249 0.226462
-8.004733 -3.067921 -1.979119
-18.005688 -6.897317 1.010503
-9.483902 -3.632935 -1.974110
-17.912750 -6.858132 1.678097
-12.098943 -4.629818 -2.051795
-17.932962 -6.858695 2.357441
-16.905060 -6.462178 -2.222166
-17.904778 -6.840752 3.035768
-18.136499 -6.925657 -1.698491
-17.948317 -6.853798 3.734514
-18.150316 -6.927304 -1.018144
-18.159929 -6.923712 -0.339240
-6.630501 -2.516043 -1.900250
-18.178261 -6.898013 0.339379
-8.042725 -3.050326 -1.985868
-18.137972 -6.875488 1.016574
-9.513677 -3.604410 -1.977545
-18.124092 -6.862988 1.695528
-12.086269 -4.574258 -2.046789
-18.079327 -6.842434 2.373528
-16.949793 -6.411556 -2.225091
-18.080065 -6.835494 3.061423
-18.270527 -6.903858 -1.708775
-18.109228 -6.839297 3.762754
-18.282093 -6.900937 -1.024110
-18.277536 -6.895568 -0.340985
-6.641052 -2.493562 -1.900767
-12.259179 -4.600601 0.228557
-8.070272 -3.026987 -1.989917
-18.305183 -6.862241 1.024529
-9.551937 -3.580827 -1.982887
-18.218834 -6.826249 1.702152
-12.092915 -4.528574 -2.045224
-18.208399 -6.815087 2.387177
-17.043829 -6.375823 -2.234353
-18.241915 -6.820373 3.084575
-18.418886 -6.882875 -1.720280
-18.206553 -6.803530 3.778018
-18.431427 -6.883902 -1.031123
-18.426338 -6.874669 -0.343289
-6.664635 -2.474585 -1.904908
-18.476484 -6.860336 0.344022
-8.084444 -3.000154 -1.990817
-18.456364 -6.845536 1.031646
-9.596292 -3.557394 -1.989375
-18.359568 -6.802340 1.712959
-12.137217 -4.494513 -2.049917
-18.354939 -6.796987 2.403264
-16.890985 -6.251517 -2.211441
-18.402710 -6.807370 3.107728
-18.581085 -6.869671 -1.733179
-18.389740 -6.795276 3.810837
-18.589560 -6.865424 -1.038555
-18.570286 -6.854628 -0.345523
-6.678244 -2.454470 -1.906461
-11.772931 -4.324596 0.218923
-8.118648 -2.980649 -1.996666
-18.598953 -6.828347 1.038345
-18.546635 -6.801789 1.728298
-8.843253 -3.241424 -1.491759
-18.538851 -6.791599 2.424225
-8.889749 -3.254945 -1.162390
-18.521643 -6.781623 3.123997
-18.702930 -6.844306 -1.742418
-18.780935 -6.869130 3.887161
-18.715395 -6.841455 -1.044312
-12.830407 -4.687650 -0.238435
-6.695849 -2.434444 -1.909049
-11.854861 -4.310133 0.220180
-8.135815 -2.956372 -1.998465
-18.746576 -6.808381 1.045254
-8.808290 -3.197252 -1.821463
-18.648926 -6.765549 1.735619
-8.824243 -3.201302 -1.486753
-18.650850 -6.762564 2.435925
-8.837038 -3.202452 -1.154103
-18.660353 -6.758641 3.143395
-8.842543 -3.200958 -0.822750
-8.844056 -3.199757 -0.492900
-8.859723 -3.201931 -0.164437
-6.702067 -2.411572 -1.908532
-8.866624 -3.188686 0.164471
-8.164423 -2.934546 -2.002964
-8.935317 -3.211629 0.497610
-8.826234 -3.170682 -1.822989
-8.984032 -3.225598 0.835126
-8.824207 -3.166477 -1.484876
-9.028860 -3.238136 1.177745
-8.855639 -3.174267 -1.155078
-8.839980 -3.166913 -0.821530
-8.855172 -3.168866 -0.492900
-6.706804 -2.386867 -1.907496
-8.179618 -2.909415 -2.004314
-8.908836 -3.167039 0.495517
-8.859447 -3.147740 -1.827569
-8.920135 -3.167550 0.828154
-8.875612 -3.151739 -1.491759
-8.946009 -3.174979 1.165558
-8.854891 -3.140899 -1.153615
-8.938702 -3.168873 1.502084
-8.856614 -3.138032 -0.822053
-8.945465 -3.169514 1.844741
-8.880693 -3.144817 -0.493737
-8.970446 -3.174841 2.196872
-9.046799 -3.198309 2.571108
-6.721971 -2.367182 -1.909567
-8.204430 -2.886017 -2.007913
-8.919836 -3.135924 0.495517
-9.682920 -3.404200 -1.995099
-8.930591 -3.137952 0.828154
-12.252568 -4.302796 -2.056801
-8.942053 -3.138471 1.163609
-17.291401 -6.065530 -2.249952
-8.945981 -3.136345 1.501458
-8.980332 -3.146626 -0.832512
-8.967591 -3.142162 1.847031
-14.346849 -5.024197 -0.796658
-8.979634 -3.142865 2.196422
-8.970374 -3.136110 2.546262
-6.747023 -2.348242 -1.914226
-8.234699 -2.864405 -2.012862
-8.960913 -3.115260 0.497192
-9.710169 -3.373840 -1.998152
-9.017317 -3.131344 0.835126
-12.158153 -4.219646 -2.038341
-9.009214 -3.126766 1.170921
-17.357477 -6.020746 -2.255802
-9.005401 -3.121923 1.509593
-8.990179 -3.113129 1.849321
-12.375825 -4.283093 -0.686334
-8.989251 -3.109295 2.195972
-8.963503 -3.100388 -0.165554
-8.984918 -3.106040 2.547297
-6.755178 -2.324677 -1.914226
-8.261729 -2.839904 -2.016911
-9.714460 -3.337375 -1.996625
-19.475342 -6.686893 1.801509
-12.238203 -4.199621 -2.049292
-12.178955 -4.176918 1.580889
-17.409475 -5.967386 -2.259702
-19.454531 -6.668363 3.257279
-14.835715 -5.082294 -1.372006
-9.027250 -3.087199 -0.166531
-6.761424 -2.300461 -1.913708
-9.049126 -3.078813 0.166845
-8.284017 -2.816882 -2.020061
-15.173709 -5.156691 0.839887
-9.766947 -3.317335 -2.005021
-11.634994 -3.949548 1.074979
-12.313790 -4.179968 -2.059616
-12.151383 -4.122474 1.575527
-17.429167 -5.909625 -2.259702
-19.589945 -6.638453 3.276051
-14.674092 -4.969761 -1.355446
-6.763522 -2.276177 -1.912155
-8.314118 -2.794780 -2.025009
-11.647411 -3.913001 0.643942
-9.790920 -3.289304 -2.007692
-11.685802 -3.923626 1.078465
-12.378870 -4.153926 -2.068064
-19.859598 -6.660354 2.571931
-17.483570 -5.860101 -2.264089
-19.792810 -6.630264 3.306086
-14.920976 -4.998280 -1.376712
-6.795256 -2.260482 -1.918885
-8.334919 -2.769428 -2.027709
-12.540503 -4.164380 0.692509
-9.815386 -3.259439 -2.010364
-11.752375 -3.900383 1.083346
-12.475791 -4.138057 -2.081830
-12.127109 -4.020051 1.568702
-17.515224 -5.802781 -2.265551
-19.947102 -6.604602 3.327987
-13.031333 -4.304656 -0.239552
-6.812282 -2.239763 -1.921473
-15.116420 -4.967104 0.277738
-8.342683 -2.739709 -2.027259
-11.716195 -3.845290 0.646244
-9.834167 -3.227603 -2.011890
-20.133631 -6.604032 1.853803
-12.507053 -4.100021 -2.084646
-12.224071 -4.004888 1.579427
-17.531599 -5.740375 -2.265064
-20.146513 -6.592683 3.357397
-14.663895 -4.798568 -1.349868
-15.755039 -5.149544 -0.868672
-11.255577 -3.674541 -0.206671
-6.831082 -2.219553 -1.924579
-15.055688 -4.888985 0.276307
-8.361463 -2.713580 -2.029508
-12.630065 -4.096447 0.695859
-9.832299 -3.189018 -2.009219
-20.346092 -6.595148 1.871234
-12.588943 -4.078251 -2.095909
-20.321081 -6.579203 2.622628
-17.521313 -5.669365 -2.261164
-20.282175 -6.558781 3.376169
-20.845478 -6.740940 -1.916729
-14.739002 -4.760570 -0.811731
-15.264872 -4.924539 -0.279971
-20.271116 -6.535676 5.706960
-6.842467 -2.196876 -1.925614
-11.211197 -3.597367 0.205520
-8.387587 -2.689730 -2.033557
-11.647655 -3.732927 0.641011
-9.878893 -3.166061 -2.016470
-11.781189 -3.773456 1.082300
-12.586168 -4.028865 -2.093093
-20.468710 -6.548149 2.638715
-17.506962 -5.597287 -2.256777
-20.466766 -6.539653 3.403076
-15.283477 -4.883460 -1.403730
-12.323865 -3.933045 -0.677960
-11.235229 -3.581300 -0.205834
-20.474194 -6.522337 5.757689
-6.936640 -2.200433 -1.949943
-15.383007 -4.876822 0.281682
-8.406213 -2.663378 -2.035807
-11.192210 -3.543929 0.615262
-9.921703 -3.141633 -2.022957
-11.790489 -3.731106 1.081951
-12.577554 -3.977758 -2.089339
-12.163127 -3.844357 1.566265
-17.515034 -5.532555 -2.255314
-20.674078 -6.526448 3.433737
-20.907230 -6.600050 -1.918124
-12.990983 -4.091058 -0.237737
-7.029078 -2.202781 -1.973754
-11.293287 -3.536937 0.206567
-8.419178 -2.635183 -2.036707
-11.323984 -3.544381 0.621856
-9.955093 -3.114016 -2.027536
-11.902328 -3.720840 1.091016
-12.640386 -3.949146 -2.097474
-20.832266 -6.504487 2.679663
-17.647940 -5.506860 -2.269939
-20.831379 -6.500220 3.456264
-11.826938 -3.688211 -1.083869
-12.167959 -3.789898 -0.667912
-11.675581 -3.634304 -0.213443
-20.888891 -6.498169 5.861734
-7.105007 -2.199366 -1.992907
-21.135181 -6.542429 0.386187
-8.429732 -2.607826 -2.037157
-11.242786 -3.475926 0.616727
-9.982784 -3.084461 -2.030971
-11.823866 -3.651054 1.082649
-12.668511 -3.911869 -2.099977
-21.024433 -6.488054 2.701600
-17.760950 -5.477558 -2.282126
-21.038940 -6.484484 3.486925
-12.231985 -3.767727 -1.119777
-12.195730 -3.754227 -0.668749
-11.577335 -3.559442 -0.211418
-7.204627 -2.204052 -2.018789
-21.345299 -6.525910 0.389608
-8.449965 -2.581803 -2.039856
-11.850832 -3.618642 0.649385
-9.974181 -3.045608 -2.027155
-11.740626 -3.582748 1.073933
-12.640520 -3.854950 -2.093093
-21.244434 -6.474808 2.726949
-17.928082 -5.460641 -2.301137
-21.155933 -6.439771 3.502568
-12.212660 -3.715147 -1.116814
-15.839478 -4.815421 -0.867626
-12.200076 -3.704341 -0.222553
-7.305127 -2.205549 -2.044671
-12.010615 -3.626220 0.218993
-8.455194 -2.551165 -2.038956
-11.974299 -3.610693 0.655456
-10.009714 -3.016394 -2.032116
-11.726969 -3.531651 1.071493
-12.730228 -3.831363 -2.105608
-21.396166 -6.439514 2.743523
-15.454863 -4.648448 -1.981596
-21.405294 -6.434120 3.540112
-12.050003 -3.619759 -1.100777
-11.651704 -3.493462 -0.212326
-7.403497 -2.207079 -2.070035
-12.025743 -3.582742 0.219028
-8.492504 -2.528499 -2.045705
-11.757123 -3.500484 0.642895
-10.076634 -2.998232 -2.043564
-12.407638 -3.689446 1.132502
-12.724588 -3.781278 -2.102479
-12.761194 -3.789733 1.634512
-15.448961 -4.584990 -1.978671
-21.601851 -6.411062 3.568896
-12.093126 -3.586741 -1.103566
-12.405444 -3.674659 -0.678065
-11.437568 -3.385793 -0.208207
-7.501966 -2.207949 -2.095399
-11.341201 -3.337898 0.206357
-8.500842 -2.500323 -2.045705
-11.121598 -3.269047 0.607516
-10.103992 -2.968019 -2.046999
-11.892806 -3.491224 1.084392
-12.742743 -3.740730 -2.103418
-12.007956 -3.522751 1.536529
-15.505990 -4.546020 -1.984033
-21.771959 -6.378946 3.593300
-11.683395 -3.418677 -0.637975
-14.758389 -4.312862 -0.268383
-7.564897 -2.199238 -2.110928
-11.249087 -3.268162 0.204472
-8.494546 -2.466286 -2.042106
-11.102250 -3.221300 0.605841
-10.143946 -2.943250 -2.053105
-12.246846 -3.551086 1.115593
-12.837308 -3.719867 -2.116871
-12.001111 -3.475292 1.534091
-18.166567 -5.257254 -2.322099
-22.002831 -6.363276 3.627716
-15.120258 -4.372818 -1.377061
-11.704852 -3.380647 -0.638499
-12.329384 -3.556362 -0.223984
-21.948534 -6.326818 6.120553
-7.585526 -2.176549 -2.114552
-11.346929 -3.253679 0.206043
-8.508724 -2.438231 -2.043455
-12.710934 -3.640004 0.692928
-10.167370 -2.911609 -2.055776
-12.209365 -3.494062 1.111061
-12.855913 -3.676663 -2.117810
-11.967360 -3.420287 1.528242
-18.207712 -5.200350 -2.325024
-12.397642 -3.538581 -1.127970
-11.741550 -3.346885 -0.639859
-11.637799 -3.312917 -0.211209
-7.609807 -2.154793 -2.119210
-11.521769 -3.260332 0.209010
-8.445926 -2.388366 -2.026359
-13.115649 -3.706410 0.714281
-10.186918 -2.878767 -2.057684
-11.703791 -3.305221 1.063997
-12.859162 -3.629086 -2.116246
-18.283072 -5.152916 -2.332336
-12.279509 -3.458556 -1.116116
-12.479923 -3.510300 -0.679425
-11.499127 -3.230095 -0.208486
-7.617283 -2.128216 -2.119210
-15.373586 -4.292386 0.278610
-8.375376 -2.336871 -2.007463
-12.812991 -3.572630 0.697115
-10.202578 -2.844772 -2.058829
-12.244976 -3.411951 1.112107
-12.485448 -3.476605 -2.052733
-11.214500 -3.120598 1.429284
-18.323898 -5.095450 -2.335261
-12.387488 -3.442341 -1.124832
-15.956247 -4.428063 -0.867835
-11.467937 -3.178186 -0.207719
-7.624665 -2.101615 -2.119210
-12.064780 -3.323196 0.218434
-8.375966 -2.305552 -2.005664
-12.291955 -3.381155 0.668121
-10.240839 -2.816954 -2.064553
-11.964799 -3.288918 1.085612
-12.442268 -3.417828 -2.043660
-12.239892 -3.359942 1.558465
-12.571664 -3.448653 -1.600632
-12.461201 -3.416013 2.046476
-12.462840 -3.416462 -1.130584
-12.454041 -3.409376 -0.676704
-15.209480 -4.157990 -0.275224
-7.639410 -2.077015 -2.121281
-12.415942 -3.373335 0.224578
-8.406530 -2.282429 -2.011062
-12.076230 -3.276515 0.655770
-10.275242 -2.787872 -2.069515
-11.572386 -3.137641 1.049006
-12.490347 -3.384192 -2.049605
-12.561953 -3.401241 1.597951
-12.646860 -3.421858 -1.608675
-12.274731 -3.318875 2.013937
-12.482382 -3.375021 -1.131281
-12.454296 -3.362759 -0.676076
-12.457148 -3.358864 -0.225206
-7.652213 -2.051836 -2.122834
-12.520356 -3.354820 0.226253
-8.410682 -2.252063 -2.010163
-12.591163 -3.369083 0.683089
-10.294394 -2.754525 -2.071423
-11.983619 -3.204279 1.085263
-13.068887 -3.492023 -2.142527
-12.355109 -3.298987 1.570165
-18.403105 -4.910446 -2.338673
-12.568727 -3.351330 2.060242
-12.576868 -3.353501 -1.138777
-12.359808 -3.291000 -0.670319
-12.443674 -3.308680 -0.224752
-7.659328 -2.025112 -2.122834
-12.497190 -3.301901 0.225625
-8.422259 -2.223685 -2.011062
-10.349504 -2.730594 -2.080581
-12.214358 -3.220333 1.105135
-13.088637 -3.448395 -2.143778
-11.535331 -3.036998 1.464626
-18.493082 -4.865374 -2.347935
-12.481006 -3.281318 2.043973
-18.606234 -4.891671 -1.683152
-11.733728 -3.080477 -0.635777
-14.911747 -3.909241 -0.269081
-7.651396 -1.994466 -2.118693
-12.729244 -3.315720 0.229604
-8.492205 -2.210471 -2.025909
-10.402676 -2.705817 -2.089359
-12.244808 -3.182689 1.106878
-13.098683 -3.402186 -2.143465
-12.685267 -3.292448 1.609163
-18.571444 -4.816739 -2.355735
-12.415897 -3.217904 2.031458
-12.248957 -3.174637 -1.107052
-12.038309 -3.115562 -0.651687
-23.811638 -6.158106 5.678215
-11.579741 -2.992571 -0.208766
-7.691989 -1.976398 -2.128010
-12.558673 -3.224523 0.226323
-8.607464 -2.208420 -2.051554
-11.677757 -2.993994 0.631800
-10.432975 -2.674852 -2.093556
-11.738588 -3.007410 1.060162
-11.516401 -2.948341 -1.882845
-12.450519 -3.185172 1.577964
-18.645842 -4.766628 -2.363047
-12.350496 -3.154991 2.018943
-12.254172 -3.130384 -1.106529
-15.836474 -4.039608 -0.856530
-23.927408 -6.099023 5.700709
-12.031940 -3.064668 -0.216724
-7.704460 -1.950961 -2.129563
-11.933993 -3.019764 0.214874
-8.732255 -2.207978 -2.079448
-11.661027 -2.946366 0.630334
-10.466993 -2.644672 -2.098517
-11.834014 -2.987874 1.067832
-11.551521 -2.914405 -1.886913
-11.568424 -2.916525 1.464870
-18.662365 -4.701516 -2.363047
-12.621957 -3.177444 2.061494
-12.481421 -3.142066 -1.126052
-11.561957 -2.906309 -0.624787
-12.226822 -3.068895 -0.220040
-7.707474 -1.923119 -2.128528
-8.879838 -2.212348 -2.112740
-11.698375 -2.912398 0.631800
-10.514262 -2.617604 -2.106150
-11.995181 -2.984064 1.081428
-11.720738 -2.913619 -1.912881
-12.376125 -3.074245 1.565777
-18.670956 -4.634430 -2.362072
-12.510265 -3.102931 2.041470
-15.740211 -3.898225 -0.849831
-15.962662 -3.947404 -0.287022
-7.710389 -1.895280 -2.127493
-12.696618 -3.118591 0.228208
-9.031342 -2.216641 -2.146933
-12.051810 -2.955747 0.650327
-10.567192 -2.591640 -2.114927
-11.854585 -2.905184 1.067832
-11.880495 -2.909339 -1.937285
-12.479335 -3.053674 1.577477
-18.725584 -4.578658 -2.366947
-12.283073 -3.001108 2.002674
-12.654016 -3.091740 -1.139648
-11.698387 -2.853923 -0.631067
-15.789827 -3.846226 -0.283671
-7.731978 -1.871990 -2.131634
-12.064087 -2.918612 0.216654
-9.148887 -2.211658 -2.173027
-12.487226 -3.016363 0.673250
-10.587625 -2.557503 -2.117217
-12.046708 -2.907732 1.084217
-13.357697 -3.221697 -2.176316
-12.366408 -2.980328 1.561878
-18.756893 -4.516988 -2.368896
-12.416389 -2.987788 2.022698
-25.372080 -6.105350 -2.283132
-12.102105 -2.909927 2.419458
-15.790346 -3.793845 -0.851087
-12.322456 -2.956086 -0.221192
-7.738465 -1.844991 -2.131634
-11.578160 -2.758308 0.207753
-9.262714 -2.204980 -2.198222
-12.225144 -2.910184 0.658596
-10.638506 -2.530527 -2.125612
-12.870909 -3.059164 1.157428
-13.403458 -3.183266 -2.181948
-12.330380 -2.926145 1.556028
-18.860615 -4.475846 -2.380108
-12.445451 -2.951155 2.025827
-25.645271 -6.076464 -2.305792
-12.245920 -2.899329 2.446172
-16.479870 -3.898713 -0.887513
-12.927685 -3.055975 -0.231873
-7.750184 -1.820644 -2.133187
-11.567776 -2.715328 0.207404
-9.285152 -2.177812 -2.201821
-12.417509 -2.912498 0.668435
-10.669777 -2.500610 -2.130192
-11.945948 -2.797499 1.073410
-13.413940 -3.138801 -2.181948
-12.446329 -2.910096 1.569433
-18.960403 -4.433162 -2.390833
-12.270504 -2.866728 1.995791
-25.921391 -6.051174 -2.328801
-12.167518 -2.838189 2.428617
-17.939880 -4.181346 -0.965389
-12.517073 -2.915116 -0.224333
-7.746768 -1.792755 -2.130599
-14.791389 -3.420301 0.264997
-9.311311 -2.151400 -2.206320
-12.030602 -2.777484 0.647082
-10.687575 -2.467422 -2.132100
-11.920214 -2.749808 1.070273
-13.405025 -3.089867 -2.178819
-12.585520 -2.898657 1.585764
-12.557006 -2.889783 -1.582108
-12.284288 -2.824760 1.996417
-26.260809 -6.033829 -2.357388
-12.173037 -2.796945 2.427854
-11.971693 -2.748483 -0.643732
-11.345988 -2.600664 -0.203181
-7.743867 -1.762206 -2.128010
-12.985981 -2.955110 0.232466
-9.332066 -2.121906 -2.209469
-10.685061 -2.425626 -2.129810
-11.957416 -2.712270 1.072713
-13.477908 -3.054686 -2.188831
-11.743725 -2.661644 1.478519
-12.632844 -2.860840 -1.590395
-12.428938 -2.812383 2.018318
-26.522684 -5.996607 -2.379003
-12.197942 -2.753401 -0.655351
-15.634822 -3.526329 -0.279762
-7.766939 -1.738965 -2.132669
-12.547889 -2.807085 0.224438
-9.341682 -2.088113 -2.209919
-12.404929 -2.770557 0.666132
-10.632149 -2.374619 -2.117598
-11.962920 -2.669646 1.072364
-13.424864 -2.993433 -2.178507
-11.722400 -2.611676 1.474619
-12.837012 -2.857653 -1.614769
-26.881859 -5.979259 -2.409333
-12.438050 -2.764284 2.476701
-26.912605 -5.976241 -1.444787
-18.486280 -4.098311 -0.330514
-7.761642 -1.709348 -2.129563
-12.198264 -2.684194 0.218015
-9.347010 -2.055076 -2.209469
-13.083629 -2.874228 0.702035
-10.636538 -2.336648 -2.116835
-11.886539 -2.609076 1.064695
-13.495046 -2.959675 -2.188205
-12.049455 -2.640427 1.514592
-19.106504 -4.183362 -2.401557
-27.186735 -5.947554 -2.434783
-12.397757 -2.709949 2.466779
-12.683220 -2.770028 -0.680368
-18.613792 -4.058465 -0.332538
-7.763784 -1.681426 -2.128528
-12.399096 -2.683047 0.221436
-9.363652 -2.024493 -2.211719
-11.966697 -2.587291 0.641639
-10.633116 -2.297018 -2.114545
-12.483731 -2.694520 1.117337
-13.590258 -2.930870 -2.201972
-12.477757 -2.688669 1.567240
-15.977174 -3.439800 -2.006701
-27.518984 -5.919658 -2.462672
-12.341881 -2.652630 2.453804
-12.503395 -2.685065 -0.670214
-11.956020 -2.565332 -0.213443
-7.773386 -1.655121 -2.129563
-12.699347 -2.703965 0.226637
-9.379843 -1.995460 -2.213968
-12.323399 -2.619418 0.660270
-10.648750 -2.261521 -2.116072
-13.661737 -2.898911 -2.211983
-15.996262 -3.388443 -2.007676
-15.999721 -3.383337 -1.430749
-12.930684 -2.734352 2.569052
-16.033554 -3.387573 -0.858833
-12.117521 -2.555771 -0.216166
-7.767487 -1.626958 -2.126457
-12.072588 -2.526495 0.215293
-9.386752 -1.962703 -2.213968
-12.875971 -2.689932 0.689369
-10.702313 -2.235831 -2.125231
-13.780066 -2.873785 -2.229504
-11.454130 -2.386636 1.436596
-13.485425 -2.807431 -1.691303
-16.089460 -3.343686 -1.437721
-16.111771 -3.345390 -0.862392
-12.404416 -2.571092 -0.221122
-7.769614 -1.597700 -2.125422
-11.999069 -2.467421 0.213827
-9.410726 -1.933457 -2.218017
-12.687678 -2.604408 0.678797
-10.864294 -2.228142 -2.155760
-16.215847 -3.322739 1.448180
-13.852433 -2.835940 -2.239516
-16.195929 -3.315712 2.029856
-13.681849 -2.798526 -1.714702
-28.699978 -5.859950 -2.562727
-20.578110 -4.194149 -1.100625
-16.197073 -3.298279 -0.288523
-7.778930 -1.571334 -2.126457
-13.384074 -2.701134 0.238330
-9.412017 -1.897796 -2.216668
-11.911592 -2.401799 0.636824
-11.102956 -2.236733 -2.201554
-11.938077 -2.402803 1.065392
-13.966825 -2.808598 -2.256411
-12.019745 -2.414876 1.505330
-13.561612 -2.722189 -1.698371
-16.266720 -3.265178 2.627786
-29.099237 -5.835728 -2.596544
-20.259697 -4.055645 -1.082831
-7.788157 -1.544922 -2.127493
-12.176842 -2.415498 0.216689
-9.420172 -1.866953 -2.217118
-12.354852 -2.446327 0.660061
-11.357216 -2.246730 -2.250401
-12.040212 -2.379660 1.073759
-13.664062 -2.700602 -2.206039
-12.611934 -2.490369 1.578452
-19.243793 -3.796416 -2.408382
-29.549498 -5.818810 -2.634892
-20.077066 -3.949884 -1.072364
-12.360019 -2.427178 -0.219865
-7.798926 -1.520196 -2.129046
-12.024249 -2.341633 0.213827
-9.430456 -1.834805 -2.218017
-12.433474 -2.419078 0.663829
-11.557322 -2.246516 -2.288563
-13.621046 -2.642733 -2.197592
-12.386692 -2.401000 1.549203
-19.276419 -3.732993 -2.410820
-29.979416 -5.800257 -2.671498
-30.052753 -5.803572 -1.604097
-30.011889 -5.790240 -0.533520
-7.790904 -1.490422 -2.125422
-12.083014 -2.311515 0.214734
-9.444144 -1.804986 -2.219817
-12.543858 -2.395138 0.669272
-11.661517 -2.224553 -2.307644
-13.643317 -2.600137 -2.199782
-12.644194 -2.407435 1.580402
-19.327692 -3.676468 -2.415694
-30.387047 -5.769163 -2.706012
-19.824842 -3.760280 -1.057500
-12.403762 -2.348201 -0.220354
-7.803653 -1.464645 -2.127493
-12.114990 -2.271638 0.215153
-9.454529 -1.771075 -2.220717
-13.420275 -2.511539 0.715537
-11.703946 -2.190336 -2.314513
-14.307142 -2.672340 -2.305219
-12.887100 -2.404775 1.609650
-19.372261 -3.611424 -2.419594
-30.841833 -5.744040 -2.744709
-12.168482 -2.257492 -0.216026
-7.801119 -1.435997 -2.125422
-13.310742 -2.447780 0.236236
-9.449153 -1.735950 -2.218017
-11.719245 -2.150886 -2.316040
-12.804812 -2.347812 1.138951
-14.355243 -2.629503 -2.311476
-12.883701 -2.357632 1.608188
-19.427710 -3.551633 -2.424956
-20.277855 -3.703399 -1.803427
-31.880278 -5.810874 -1.698302
-12.695683 -2.309486 -0.225241
-7.806084 -1.408757 -2.125422
-13.327078 -2.402724 0.236375
-9.453238 -1.702610 -2.217567
-11.749869 -2.114134 -2.320619
-12.922743 -2.322842 1.148713
-14.387667 -2.583568 -2.315230
-12.915298 -2.316847 1.611113
-19.510334 -3.496402 -2.433731
-20.341650 -3.641721 -1.807959
-31.931824 -5.705175 -1.699977
-12.617048 -2.249711 -0.223705
-7.810954 -1.381500 -2.125422
-20.885275 -3.690157 0.370200
-9.451446 -1.668247 -2.215768
-11.749442 -2.071745 -2.319093
-12.891529 -2.270806 1.145226
-14.419942 -2.537437 -2.318985
-12.950680 -2.276562 1.614525
-18.822466 -3.305364 -2.346473
-20.036327 -3.514918 -1.779720
-19.348772 -3.387346 -1.029448
-13.184263 -2.303393 -0.233618
-7.827148 -1.356205 -2.128528
-9.453372 -1.634578 -2.214868
-11.752733 -2.030051 -2.318329
-12.987729 -2.241037 1.153070
-14.428712 -2.487083 -2.318985
-18.845625 -3.241660 -2.347935
-20.288036 -3.486120 -1.800986
-29.506275 -5.059507 -1.568927
-20.630344 -3.533820 -0.365349
-7.835644 -1.329521 -2.129563
-12.337753 -2.093421 0.218434
-9.476031 -1.606156 -2.218917
-11.898097 -2.014549 0.632428
-11.771362 -1.990978 -2.320619
-14.386238 -2.430665 -2.310850
-18.981550 -3.200269 -2.363534
-20.311869 -3.417268 -1.802032
-20.269537 -3.406508 -1.077179
-20.469004 -3.432685 -0.362277
-7.828576 -1.301628 -2.126457
-12.352876 -2.051654 0.218574
-9.464278 -1.570196 -2.214868
-11.801144 -1.955783 -2.325199
-14.375146 -2.377213 -2.307722
-19.086620 -3.149504 -2.375234
-20.300081 -3.342460 -1.799940
-19.366863 -3.185328 -1.028611
-12.611347 -2.069709 -0.223077
-7.837108 -1.273548 -2.127493
-12.308642 -2.000182 0.217666
-9.462008 -1.535900 -2.213068
-20.665379 -3.350767 1.097171
-11.823736 -1.915027 -2.328252
-14.395463 -2.326400 -2.309599
-19.054382 -3.075900 -2.369871
-20.240814 -3.260173 -1.793665
-20.344666 -3.269616 -1.079900
-20.381903 -3.271951 -0.360322
-7.852953 -1.248001 -2.130599
-13.066380 -2.074186 0.230930
-9.471422 -1.501822 -2.213968
-12.234158 -1.939892 0.649175
-11.849739 -1.876814 -2.332067
-14.426909 -2.279840 -2.313353
-19.026310 -2.999857 -2.364997
-19.779718 -3.115108 -1.751830
-30.288288 -4.759270 -1.606819
-20.428759 -3.206366 -0.360951
-7.826719 -1.215836 -2.122316
-11.962677 -1.858333 0.211314
-9.485979 -1.471900 -2.216218
-11.856217 -1.835439 -2.332067
-14.692077 -2.271831 -2.354652
-19.542320 -3.014834 -2.427881
-19.719582 -3.035134 -1.745555
-19.475256 -2.987091 -0.343917
-7.838347 -1.191036 -2.124387
-12.854810 -1.950994 0.226951
-9.494913 -1.439362 -2.217118
-20.699335 -3.134174 1.097171
-11.870004 -1.797287 -2.333594
-15.047592 -2.273047 -2.410342
-19.591984 -2.952521 -2.432756
-29.580513 -4.452510 -2.617113
-19.689915 -2.956737 -1.043474
-20.403181 -3.056557 -0.360113
-7.846279 -1.164236 -2.125422
-13.007921 -1.927804 0.229534
-9.476748 -1.402783 -2.211719
-11.887858 -1.757568 -2.335884
-15.458007 -2.279881 -2.474793
-19.507900 -2.870243 -2.421057
-29.820593 -4.382249 -2.636984
-19.893778 -2.916373 -1.053732
-19.792429 -2.894464 -0.349153
-7.857942 -1.137948 -2.127493
-13.026445 -1.884106 0.229743
-9.487371 -1.370533 -2.213068
-12.153303 -1.753484 0.643523
-11.886147 -1.714939 -2.334357
-15.673126 -2.255741 -2.507958
-19.985458 -2.869266 -2.479066
-29.464933 -4.224970 -2.604213
-20.156910 -2.883110 -1.067130
-19.679676 -2.807845 -0.346989
-7.873344 -1.112132 -2.130599
-20.711725 -2.921904 0.365104
-9.503676 -1.339038 -2.215768
-11.864845 -1.669608 -2.329015
-15.782626 -2.215296 -2.524227
-20.262714 -2.836923 -2.512215
-28.729687 -4.017246 -2.537975
-20.550604 -2.866260 -1.087437
-20.069635 -2.792032 -0.353690
-7.854212 -1.081480 -2.124387
-20.341438 -2.797282 0.358403
-9.498639 -1.304530 -2.213518
-20.542713 -2.821308 1.086704
-11.862822 -1.627114 -2.327488
-15.813747 -2.163403 -2.527981
-20.477049 -2.794086 -2.537564
-21.723480 -2.960299 -1.918124
-20.497154 -2.785899 -1.084087
-21.358849 -2.899221 -0.376239
-7.857939 -1.054057 -2.124387
-20.144480 -2.702163 0.354773
-9.514502 -1.274576 -2.216218
-11.868429 -1.585695 -2.327488
-15.836499 -2.113040 -2.530484
-20.749880 -2.761254 -2.570225
-22.164246 -2.941596 -1.956123
-20.652796 -2.737331 -1.091833
-21.360907 -2.823598 -0.376099
-7.876715 -1.029997 -2.128528
-20.260864 -2.645810 0.356657
-9.515028 -1.240855 -2.215318
-11.858047 -1.544300 -2.324435
-15.886875 -2.063348 -2.537367
-20.975945 -2.716855 -2.597036
-22.324049 -2.887509 -1.969371
-20.911812 -2.697416 -1.105021
-20.549524 -2.643393 -0.361649
-7.876431 -1.002008 -2.127493
-21.011900 -2.669328 0.369712
-9.501903 -1.205426 -2.211269
-11.882842 -1.505366 -2.328252
-15.901821 -2.008867 -2.538619
-21.229521 -2.674388 -2.627259
-32.301064 -4.063392 -2.848249
-20.921101 -2.624408 -1.105021
-21.237234 -2.656531 -0.373586
-7.883714 -0.974984 -2.128528
-9.519591 -1.173918 -2.214418
-11.860744 -1.460521 -2.322909
-15.900892 -1.952383 -2.537367
-21.345127 -2.613293 -2.640421
-32.473267 -3.969956 -2.862194
-21.001507 -2.560059 -1.108790
-21.067720 -2.560673 -0.370445
-7.875562 -0.946076 -2.125422
-9.525565 -1.140915 -2.214868
-11.869669 -1.419576 -2.323672
-15.931150 -1.899677 -2.541122
-21.436913 -2.548607 -2.650659
-32.455269 -3.852829 -2.859406
-21.137253 -2.501758 -1.115489
-20.079599 -2.369475 -0.352923
-7.874978 -0.918132 -2.124387
-9.539169 -1.108782 -2.217118
-11.874552 -1.378134 -2.323672
-15.914135 -1.841330 -2.537367
-21.489059 -2.478771 -2.656021
-36.704235 -4.227356 -3.232432
-29.090683 -3.340188 -1.534595
-21.247995 -2.432173 -0.373307
-7.878136 -0.890637 -2.124387
-9.539107 -1.075041 -2.216218
-11.887094 -1.337554 -2.325199
-15.908688 -1.784447 -2.535490
-21.513365 -2.405509 -2.657971
-31.562614 -3.523585 -2.778525
-31.662823 -3.523583 -1.669622
-20.032055 -2.222175 -0.351806
-7.892718 -0.864393 -2.127493
-9.525368 -1.039835 -2.212169
-20.748493 -2.261337 1.093822
-11.887787 -1.295626 -2.324435
-15.914819 -1.728904 -2.535490
-21.584784 -2.337237 -2.665770
-27.585295 -2.982105 -2.427462
-20.147055 -2.163772 -0.353690
-7.882240 -0.835412 -2.123869
-9.523125 -1.005962 -2.210819
-11.888332 -1.253710 -2.323672
-15.908972 -1.672101 -2.533613
-22.153509 -2.320616 -2.734992
-27.609407 -2.887252 -2.428682
-7.898277 -0.812029 -2.127493
-9.532054 -0.976637 -2.212169
-11.900025 -1.217154 -2.325199
-15.933797 -1.624119 -2.536742
-18.372774 -1.866239 -2.267501
-29.781475 -3.014590 -2.618856
-29.371918 -2.967955 -1.547156
-7.897356 -0.782694 -2.126457
-9.545102 -0.944317 -2.214418
-11.892683 -1.172377 -2.322909
-15.884596 -1.560297 -2.527981
-18.157907 -1.780402 -2.240202
-29.311035 -2.853314 -1.543388
-7.900040 -0.755122 -2.126457
-9.548499 -0.909326 -2.214418
-11.912339 -1.132343 -2.325962
-15.897813 -1.505588 -2.529233
-18.120832 -1.709731 -2.234840
-18.455532 -1.738061 -1.621794
-19.242966 -1.805442 -1.012910
-21.221901 -1.987377 -0.372050
-7.910322 -0.728250 -2.128528
-9.559223 -0.878370 -2.216218
-11.912309 -1.090396 -2.325199
-15.906653 -1.453220 -2.529859
-18.144196 -1.651250 -2.237034
-18.453548 -1.672913 -1.621097
-19.240891 -1.740900 -1.012491
-31.003593 -2.794277 -0.543363
-7.916543 -0.702355 -2.129563
-9.556408 -0.844482 -2.214868
-11.915859 -1.050887 -2.325199
-15.927371 -1.399069 -2.532362
-18.137983 -1.586866 -2.235572
-18.417595 -1.604856 -1.617436
-30.674477 -2.656696 -0.537429
-7.907515 -0.672353 -2.126457
-9.567063 -0.811778 -2.216668
-11.915717 -1.006875 -2.324435
-15.916645 -1.339353 -2.529859
-17.967358 -1.508763 -2.213879
-18.379402 -1.536899 -1.613601
-7.905962 -0.644432 -2.125422
-9.577744 -0.777338 -2.218467
-11.930902 -0.966226 -2.326725
-15.944851 -1.285694 -2.533613
-18.110584 -1.450782 -1.589546
-30.791946 -2.450422 -0.539175
-7.919611 -0.619114 -2.128528
-54.757320 -4.271044 0.958696
-9.560842 -0.744060 -2.213968
-11.930125 -0.926352 -2.325962
-15.925393 -1.230985 -2.529859
-18.073580 -1.387514 -1.585886
-7.913916 -0.592272 -2.126457
-54.743267 -4.087353 0.958207
-9.567142 -0.712642 -2.214868
-11.929371 -0.884412 -2.325199
-15.941206 -1.179045 -2.531736
-18.060429 -1.323107 -1.584317
-7.939157 -0.564909 -2.132669
-9.567747 -0.677432 -2.214418
-11.940366 -0.841234 -2.326725
-15.925716 -1.119221 -2.528607
-18.046082 -1.261905 -2.221191
-18.134722 -1.261747 -1.590418
-30.815918 -2.127839 -0.539175
-7.921899 -0.534504 -2.127493
-9.577943 -0.642882 -2.216218
-11.943229 -0.799549 -2.326725
-15.969131 -1.063467 -2.534864
-18.185066 -1.207850 -2.237765
-55.207325 -3.657200 8.763146
-18.123110 -1.197381 -1.589023
-38.042568 -2.493442 -0.665460
-7.915917 -0.507736 -2.125422
-9.583913 -0.611367 -2.217118
-11.926222 -0.758692 -2.322909
-15.941028 -1.008514 -2.529859
-18.200857 -1.148289 -2.239228
-55.258579 -3.476585 8.769404
-18.087214 -1.134781 -1.585537
-7.925269 -0.481956 -2.127493
-9.574216 -0.578876 -2.214418
-11.952189 -0.720557 -2.327488
-15.960059 -0.956591 -2.532362
-18.208715 -1.084989 -2.239715
-55.270378 -3.283674 8.769404
-18.090878 -1.074799 -1.585537
-38.613621 -2.267018 -0.675164
-7.926903 -0.454287 -2.127493
-9.572287 -0.545230 -2.213518
-11.950710 -0.678611 -2.326725
-15.994856 -0.902654 -2.537367
-18.034016 -1.011417 -2.217778
-18.118389 -1.012973 -1.587629
-7.940016 -0.427236 -2.130599
-9.589700 -0.512646 -2.217118
-11.949086 -0.636682 -2.325962
-15.978184 -0.845772 -2.534239
-17.934355 -0.943040 -2.205104
-18.097939 -0.948474 -1.585537
-7.937600 -0.399323 -2.129563
-9.579669 -0.480259 -2.214418
-11.943392 -0.594577 -2.324435
-15.988791 -0.793172 -2.535490
-17.945314 -0.883952 -2.206079
-18.089199 -0.884711 -1.584491
-7.931161 -0.372636 -2.127493
-9.602699 -0.447812 -2.219367
-11.960988 -0.555697 -2.327488
-15.971732 -0.736446 -2.532362
-18.067270 -0.826754 -2.220703
-18.092176 -0.821562 -1.584491
-7.932474 -0.343566 -2.127493
-9.594470 -0.413870 -2.217118
-11.955098 -0.511518 -2.325962
-15.994058 -0.678742 -2.535490
-18.077980 -0.764013 -2.221678
-18.019289 -0.755236 -1.577868
-7.937485 -0.316026 -2.128528
-9.584239 -0.378243 -2.214418
-11.960733 -0.469938 -2.326725
-15.996329 -0.622908 -2.535490
-18.108429 -0.698825 -2.225091
-18.045708 -0.693246 -1.579959
-7.942401 -0.288459 -2.129563
-9.573816 -0.344362 -2.211719
-11.974073 -0.428608 -2.329015
-16.018148 -0.567762 -2.538619
-18.039339 -0.633103 -2.216316
-18.083860 -0.631501 -1.583097
-83.680260 -2.863709 -1.461499
-7.939497 -0.260606 -2.128528
-9.594436 -0.311576 -2.216218
-11.975496 -0.386808 -2.329015
-16.020033 -0.511848 -2.538619
-17.981916 -0.568245 -2.209004
-18.062057 -0.567626 -1.581005
-83.645775 -2.570240 -1.460732
-7.948084 -0.233117 -2.130599
-9.587674 -0.277857 -2.214418
-11.972850 -0.344890 -2.328252
-16.029619 -0.456149 -2.539870
-18.049986 -0.504184 -1.579785
-83.658241 -2.278332 -1.460801
-7.944987 -0.205274 -2.129563
-9.582741 -0.244239 -2.213068
-11.989680 -0.303492 -2.331304
-16.015316 -0.399798 -2.537367
-18.065580 -0.441515 -1.581005
-83.645699 -1.985820 -1.460452
-7.953380 -0.177710 -2.131634
-9.593277 -0.211004 -2.215318
-11.978890 -0.261381 -2.329015
-16.004765 -0.343640 -2.535490
-17.986881 -0.379913 -2.209004
-18.114819 -0.379448 -1.585189
-83.634117 -1.693483 -1.460138
-7.961679 -0.150092 -2.133704
-9.601749 -0.177657 -2.217118
-11.975804 -0.219493 -2.328252
-16.037468 -0.288335 -2.540496
-18.109167 -0.319263 -2.223872
-18.357073 -0.320425 -1.606280
-83.649277 -1.416299 -1.460313
-7.946701 -0.122064 -2.129563
-9.590594 -0.145640 -2.214418
-11.968645 -0.177574 -2.326725
-16.018583 -0.234865 -2.537367
-18.118067 -0.259322 -2.224847
-18.356089 -0.256316 -1.606106
-83.633713 -1.124029 -1.459964
-7.947062 -0.095710 -2.129563
-9.594941 -0.112205 -2.215318
-11.988799 -0.138109 -2.330541
-16.011404 -0.178856 -2.536116
-18.116879 -0.196055 -2.224603
-83.648972 -0.846801 -1.460173
-7.947347 -0.067969 -2.129563
-9.595261 -0.080388 -2.215318
-11.985283 -0.096228 -2.329778
-16.027714 -0.125883 -2.538619
-18.139263 -0.136139 -2.227284
-18.624380 -0.133275 -1.629464
-83.667427 -0.554911 -1.460452
-7.951393 -0.041634 -2.130599
-9.595483 -0.046894 -2.215318
-11.993388 -0.056519 -2.331304
-16.028055 -0.069934 -2.538619
-18.133671 -0.072796 -2.226553
-18.433464 -0.067566 -1.612730
