# This PCD file was generated using the MATLAB® pcwrite function
# from Computer Vision Toolbox®.
# .PCD v.7 - Point Cloud Data file format
VERSION .7
FIELDS x y z
SIZE 4 4 4
TYPE F F F
COUNT 1 1 1
WIDTH 1667
HEIGHT 1
VIEWPOINT 0 0 0 1 0 0 0
POINTS 1667
DATA ascii
-5.843622 7.610054 -0.502844
-5.860557 7.634866 2.222066
-18.811518 24.515642 -0.539384
-5.868265 7.650435 2.583532
-4.024116 5.259517 -1.774463
-12.939306 16.917784 0.371771
-4.753410 6.217200 -1.806807
-8.699489 11.382570 0.750812
-5.789136 7.574612 -1.853137
-7.401402 9.687634 1.066612
-5.793446 7.585737 -1.511783
-5.823019 7.627218 1.178233
-5.863838 7.683465 -1.186764
-5.817030 7.624891 1.518979
-5.797038 7.598686 -0.836172
-5.820485 7.632188 1.865731
-5.802493 7.611343 -0.501588
-5.818517 7.635126 2.216218
-18.665232 24.501627 -0.537639
-5.840356 7.669334 2.583014
-4.001056 5.267379 -1.772393
-12.945472 17.048853 0.373656
-4.726967 6.227544 -1.805007
-8.699540 11.465376 0.754266
-5.753165 7.582263 -1.850084
-7.403659 9.761035 1.071841
-5.751414 7.585452 -1.507716
-5.781968 7.628514 1.175308
-5.832185 7.697560 -1.185789
-5.773680 7.623105 1.514599
-5.754838 7.598228 -0.833906
-5.773664 7.625849 1.859243
-5.766244 7.618813 -0.500750
-5.776543 7.635188 2.210369
-18.531347 24.502832 -0.536243
-5.793742 7.663478 2.574214
-3.981483 5.279769 -1.771875
-12.942460 17.168983 0.375297
-4.706372 6.245564 -1.805457
-8.708351 11.556368 0.758348
-5.717214 7.589753 -1.847031
-7.400705 9.828199 1.076373
-5.702331 7.575495 -1.501771
-5.746952 7.637547 1.173602
-5.739652 7.630618 -1.172383
-5.732934 7.621686 1.510531
-5.715111 7.600752 -0.831989
-5.729317 7.622415 1.853519
-5.721616 7.614944 -0.499180
-5.735813 7.636606 2.204970
-18.409163 24.509781 -0.535056
-5.754379 7.664110 2.568003
-3.960715 5.290542 -1.770840
-12.946577 17.293446 0.377077
-4.672792 6.243973 -1.800508
-8.711025 11.644271 0.762116
-5.680106 7.595512 -1.843597
-7.393788 9.890677 1.080383
-5.665349 7.578543 -1.498642
-5.693072 7.618401 1.167752
-5.663233 7.581223 -1.161902
-5.693292 7.624243 1.507090
-5.677816 7.606287 -0.830420
-5.695786 7.630360 1.850847
-5.677227 7.608260 -0.497506
-5.705796 7.649339 2.203171
-18.280458 24.516188 -0.533799
-5.710271 7.660917 2.560238
-3.944300 5.305198 -1.771358
-12.950540 17.425203 0.378962
-4.649805 6.258684 -1.800058
-8.706054 11.722709 0.765256
-5.647862 7.604851 -1.841307
-7.398955 9.966332 1.085961
-5.622380 7.576063 -1.494262
-5.654618 7.622283 1.165315
-5.701768 7.688643 -1.175308
-5.654881 7.628200 1.503961
-5.632392 7.597863 -0.827457
-5.645740 7.618648 1.843215
-5.636366 7.608774 -0.496250
-5.652388 7.633187 2.192823
-18.154324 24.525196 -0.532613
-5.667409 7.659060 2.552991
-3.920022 5.311162 -1.768769
-12.957302 17.562027 0.380951
-4.626773 6.273306 -1.799608
-8.703010 11.804468 0.768606
-5.602642 7.599234 -1.835201
-7.407854 10.051444 1.092410
-5.584186 7.579738 -1.491134
-5.613853 7.622792 1.162390
-5.679601 7.714896 -1.176283
-5.604801 7.616074 1.497704
-5.592844 7.599827 -0.825539
-5.609806 7.625655 1.840162
-5.600305 7.615531 -0.495412
-5.611856 7.634031 2.187424
-18.099396 24.630310 -0.533520
-5.621195 7.652331 2.544191
-3.888898 5.307672 -1.763075
-12.957368 17.691038 0.382766
-4.604846 6.289420 -1.799608
-8.700390 11.883223 0.771851
-5.551730 7.585476 -1.827187
-7.399782 10.114223 1.096419
-5.551861 7.591214 -1.489569
-5.569634 7.618305 1.158734
-5.640925 7.718646 -1.173846
-5.569026 7.620264 1.494888
-5.545128 7.590344 -0.822402
-5.571573 7.629338 1.836346
-5.558379 7.614061 -0.494051
-5.575985 7.640979 2.183825
-18.069477 24.761274 -0.535056
-5.578712 7.647517 2.536427
-3.865803 5.314964 -1.761005
-12.962152 17.821232 0.384651
-4.579381 6.298351 -1.797809
-8.708177 11.981374 0.776247
-5.517138 7.593693 -1.824516
-7.394876 10.181904 1.100951
-5.510406 7.587204 -1.485189
-5.533846 7.622275 1.156540
-5.567491 7.671440 -1.163852
-5.526154 7.617270 1.490508
-5.506904 7.593524 -0.820658
-5.534718 7.631877 1.832530
-5.521375 7.616283 -0.493005
-5.535752 7.638913 2.177976
-19.062210 26.314075 -0.567168
-5.534985 7.643476 2.528662
-3.845895 5.324622 -1.759970
-12.958389 17.947437 0.386396
-4.552804 6.307978 -1.796009
-8.715384 12.079723 0.780643
-5.475850 7.589653 -1.819173
-7.406521 10.269395 1.107749
-5.467714 7.583962 -1.480809
-5.489794 7.617390 1.152884
-5.515152 7.655393 -1.158490
-5.492602 7.626898 1.488631
-5.473377 7.603000 -0.819613
-5.487395 7.622472 1.825661
-5.476091 7.609571 -0.491330
-5.494258 7.637626 2.172127
-19.012276 26.438898 -0.568425
-5.501507 7.653337 2.525556
-3.821851 5.332402 -1.757899
-12.958571 18.080328 0.388281
-4.526219 6.317494 -1.794210
-5.644882 7.881778 0.508078
-5.441136 7.600096 -1.816883
-6.049285 8.452665 0.909383
-5.427239 7.586277 -1.477367
-5.450467 7.618746 1.150203
-5.483779 7.668138 -1.157515
-5.461352 7.639595 1.487379
-5.431747 7.600985 -0.817347
-5.454857 7.636143 1.824134
-5.434234 7.610087 -0.490074
-5.450379 7.635506 2.165829
-5.443023 7.625201 -0.163529
-5.462417 7.655195 2.519862
-3.805455 5.348858 -1.758934
-12.953637 18.214075 0.390131
-4.505291 6.337219 -1.795109
-5.599756 7.879624 0.506612
-5.394101 7.590238 -1.810014
-6.017433 8.470483 0.909034
-5.389286 7.589072 -1.474239
-5.416759 7.630579 1.148984
-5.416576 7.633144 -1.149228
-5.415027 7.633783 1.482373
-5.399415 7.611775 -0.816475
-5.417947 7.640725 1.820700
-5.396089 7.612715 -0.489027
-5.405664 7.629045 2.158630
-5.394231 7.615726 -0.162901
-5.415343 7.648362 2.511063
-3.780073 5.352642 -1.755828
-12.953411 18.349026 0.392051
-4.482020 6.351313 -1.794659
-5.556100 7.876273 0.505147
-5.363048 7.602603 -1.808488
-5.962571 8.455613 0.905200
-5.349107 7.588462 -1.470484
-5.371797 7.623477 1.145085
-5.389901 7.652004 -1.149228
-5.375839 7.634871 1.478932
-5.347579 7.594735 -0.812640
-5.377684 7.640324 1.816120
-5.355693 7.611902 -0.487771
-5.370034 7.635116 2.155031
-5.360715 7.624693 -0.162691
-5.374173 7.646671 2.504333
-3.759147 5.362641 -1.754793
-12.953540 18.485840 0.394006
-4.454234 6.358938 -1.792410
-5.523989 7.889076 0.504728
-5.324089 7.603589 -1.804290
-5.926161 8.466581 0.904154
-5.302203 7.577953 -1.464852
-5.332636 7.624289 1.142403
-5.351780 7.654504 -1.146791
-5.343499 7.645492 1.477367
-5.315330 7.605189 -0.811769
-5.334115 7.634910 1.810396
-5.322226 7.620727 -0.487143
-5.333308 7.639434 2.150982
-5.315756 7.617124 -0.162133
-5.334183 7.646371 2.498122
-3.745923 5.383658 -1.757381
-12.959732 18.632727 0.396170
-4.425333 6.364849 -1.789711
-5.482741 7.888629 0.503472
-5.296396 7.620514 -1.803908
-5.890888 8.479033 0.903282
-5.266702 7.583436 -1.462350
-5.294672 7.626549 1.139966
-5.336348 7.689446 -1.149228
-5.306643 7.649492 1.474551
-5.271715 7.599143 -0.809154
-5.296245 7.637349 1.806580
-5.272836 7.606428 -0.485050
-5.296621 7.643588 2.146933
-5.282303 7.625768 -0.161923
-5.294263 7.645885 2.491910
-3.723815 5.391932 -1.755828
-12.955965 18.766712 0.398054
-4.398660 6.373843 -1.787911
-5.437264 7.878824 0.501693
-5.256386 7.619562 -1.799329
-5.873700 8.517587 0.905200
-5.231228 7.588765 -1.459847
-5.256755 7.628638 1.137529
-5.312854 7.712930 -1.149959
-5.274525 7.657285 1.472674
-5.234984 7.602730 -0.807585
-5.257310 7.637999 1.802382
-5.232666 7.605044 -0.483794
-5.247819 7.629919 2.137935
-5.245653 7.626769 -0.161574
-5.260125 7.650662 2.487769
-3.698416 5.395338 -1.752723
-12.966016 18.915136 0.400288
-4.378602 6.390001 -1.788361
-5.404087 7.889516 0.501169
-5.213118 7.613566 -1.793605
-5.897946 8.616959 0.913566
-5.193762 7.588138 -1.456405
-5.215734 7.623094 1.134116
-5.232334 7.650219 -1.138016
-5.231039 7.651192 1.467981
-5.198298 7.606152 -0.806016
-5.225304 7.645667 1.800092
-5.193899 7.602563 -0.482538
-5.211499 7.631185 2.133436
-5.204343 7.623561 -0.161121
-5.222496 7.653021 2.482592
-3.673983 5.397990 -1.749617
-12.966281 19.057823 0.402348
-4.352983 6.400411 -1.787011
-5.363041 7.888509 0.499913
-5.180117 7.619446 -1.790933
-5.888379 8.664482 0.916530
-5.160584 7.596416 -1.454528
-5.175711 7.621545 1.131191
-5.246847 7.729208 -1.147034
-5.198755 7.661231 1.466417
-5.155148 7.596969 -0.803227
-5.185360 7.644362 1.795513
-5.158360 7.607424 -0.481700
-5.173899 7.633198 2.128937
-5.157511 7.611882 -0.160492
-5.180581 7.648813 2.475345
-3.651873 5.405980 -1.748064
-12.960105 19.192463 0.404233
-4.332795 6.418798 -1.787911
-5.319830 7.884004 0.498448
-5.140309 7.617953 -1.786354
-5.820216 8.628825 0.910603
-5.116365 7.588180 -1.449522
-5.139088 7.624752 1.128998
-5.219837 7.747474 -1.147034
-5.166461 7.671141 1.464852
-5.118580 7.600047 -0.801659
-5.140004 7.634731 1.789025
-5.125085 7.615441 -0.481072
-5.140693 7.641512 2.126237
-5.125328 7.621543 -0.160318
-5.138763 7.644403 2.468098
-3.637284 5.425112 -1.750134
-12.960945 19.338911 0.406362
-4.304940 6.425787 -1.785661
-5.281166 7.885931 0.497401
-5.101670 7.617905 -1.782156
-5.765677 8.612663 0.906768
-5.078861 7.589574 -1.446393
-5.100302 7.624493 1.126317
-5.124351 7.663337 -1.131922
-5.128677 7.672704 1.461724
-5.087592 7.611240 -0.800961
-5.092600 7.621611 1.781775
-5.075177 7.598406 -0.478874
-5.104250 7.644822 2.122188
-5.083152 7.616100 -0.159829
-5.102401 7.647830 2.463440
-3.620464 5.440993 -1.751170
-12.957590 19.480612 0.408386
-4.272775 6.426170 -1.781612
-5.240338 7.884359 0.496145
-5.063092 7.617683 -1.777958
-5.724551 8.616143 0.905025
-5.043597 7.594092 -1.443890
-5.060479 7.622406 1.123392
-5.097568 7.681179 -1.131922
-5.095313 7.680683 1.459847
-5.044474 7.604048 -0.798347
-5.049687 7.614799 1.776050
-5.038688 7.601094 -0.477932
-5.058156 7.633354 2.114090
-5.041074 7.610459 -0.159340
-5.060740 7.643045 2.456193
-3.602515 5.455209 -1.751687
-11.578530 17.539768 0.366850
-4.251389 6.442673 -1.782062
-5.206187 7.892598 0.495517
-5.023499 7.615643 -1.773379
-5.707603 8.656033 0.907117
-5.001836 7.588562 -1.439510
-5.025106 7.626762 1.121442
-5.059806 7.682347 -1.129485
-5.048916 7.668725 1.454215
-5.014610 7.616619 -0.797824
-5.020919 7.629100 1.775287
-5.001149 7.601949 -0.476885
-5.020774 7.634680 2.109591
-4.998003 7.602944 -0.158817
-5.026605 7.649361 2.452569
-3.572862 5.451592 -1.746511
-11.539155 17.613531 0.367548
-4.227804 6.455845 -1.781612
-8.718525 13.318219 0.834235
-4.983984 7.613420 -1.768800
-5.884637 8.992661 0.940236
-4.961257 7.584486 -1.435443
-4.987590 7.627640 1.119004
-5.024269 7.686671 -1.127535
-5.011309 7.669766 1.451086
-4.970555 7.607392 -0.795035
-4.983524 7.630141 1.771471
-4.968030 7.609327 -0.476257
-4.986636 7.640737 2.106442
-4.965971 7.611968 -0.158642
-4.986153 7.645826 2.445840
-3.548442 5.453696 -1.743405
-11.517748 17.708696 0.368734
-4.207436 6.471462 -1.782062
-8.718932 13.415723 0.838527
-4.956568 7.626615 -1.768036
-5.907967 9.093995 0.948777
-4.923170 7.581016 -1.431688
-4.953619 7.630819 1.117054
-4.995511 7.698292 -1.126804
-4.978324 7.674740 1.448896
-4.929038 7.598759 -0.792420
-4.938965 7.616974 1.764602
-4.935167 7.614027 -0.475525
-4.953855 7.645782 2.103292
-4.929830 7.611612 -0.158293
-4.951324 7.647723 2.441181
-3.530432 5.467671 -1.743923
-11.507918 17.829437 0.370410
-4.178483 6.476284 -1.779363
-8.721848 13.523282 0.843342
-4.921404 7.630670 -1.764983
-5.617089 8.712670 0.906943
-4.885978 7.581548 -1.428560
-4.911904 7.624701 1.113642
-4.960009 7.702333 -1.124854
-4.939744 7.673799 1.445455
-4.900328 7.612566 -0.792071
-4.905975 7.624262 1.762312
-4.896671 7.612731 -0.474373
-4.913433 7.641720 2.097444
-4.898906 7.622044 -0.158154
-4.916242 7.651958 2.437040
-3.510282 5.478336 -1.743405
-11.509243 17.968851 0.372469
-4.154799 6.489190 -1.778913
-8.716577 13.619255 0.847424
-4.889445 7.639535 -1.763075
-5.564091 8.696981 0.903282
-4.852031 7.586909 -1.426370
-4.872426 7.621731 1.110717
-4.917059 7.694508 -1.121198
-4.902292 7.674349 1.442326
-4.856563 7.602761 -0.789282
-4.870877 7.628104 1.759259
-4.853951 7.604524 -0.472803
-4.874152 7.639110 2.092045
-4.863666 7.625611 -0.157874
-4.872887 7.643009 2.428758
-3.490102 5.488925 -1.742887
-11.508668 18.106798 0.374494
-4.134213 6.506942 -1.779813
-8.711817 13.717033 0.851611
-4.843804 7.626724 -1.756206
-5.517683 8.691119 0.900667
-4.819170 7.593792 -1.424492
-4.834092 7.620254 1.108036
-4.862533 7.668036 -1.114861
-4.867014 7.678067 1.439823
-4.822529 7.607887 -0.788062
-4.836862 7.633453 1.756588
-4.824172 7.616358 -0.472489
-4.833906 7.634673 2.086196
-4.815628 7.608750 -0.157176
-4.842047 7.653440 2.426687
-3.463703 5.489638 -1.739264
-11.512595 18.253422 0.376693
-4.111476 6.521333 -1.779813
-8.717122 13.831848 0.856844
-4.814010 7.638606 -1.755061
-5.471379 8.685041 0.898053
-4.788424 7.603881 -1.423241
-4.802178 7.628682 1.106817
-4.831505 7.678243 -1.113886
-4.820199 7.663240 1.433878
-4.786394 7.609497 -0.786493
-4.800784 7.635331 1.753153
-4.786927 7.616242 -0.471442
-4.803078 7.644901 2.084397
-4.779469 7.610271 -0.156862
-4.798866 7.644119 2.418405
-3.441445 5.496782 -1.737711
-11.507159 18.386724 0.378612
-4.084551 6.529037 -1.778013
-8.706912 13.923151 0.860613
-4.778991 7.642045 -1.752008
-5.431526 8.688881 0.896484
-4.745101 7.593747 -1.418235
-4.767107 7.631927 1.104867
-4.823600 7.725369 -1.118273
-4.788191 7.671639 1.432314
-4.751365 7.612637 -0.785099
-4.760594 7.630388 1.748192
-4.747630 7.612567 -0.470186
-4.758839 7.633505 2.076748
-4.745473 7.615027 -0.156618
-4.757851 7.637867 2.411158
-3.425296 5.513684 -1.739264
-11.506207 18.528704 0.380707
-4.054540 6.531666 -1.774864
-7.518853 12.112506 0.747148
-4.744007 7.645333 -1.748955
-5.391713 8.692548 0.894915
-4.707113 7.591798 -1.414793
-4.725799 7.624898 1.101455
-4.787192 7.726974 -1.116079
-4.756480 7.677401 1.430437
-4.712173 7.608850 -0.783007
-4.711194 7.610236 1.739796
-4.703160 7.600223 -0.468407
-4.727035 7.641785 2.074499
-4.712829 7.618818 -0.156374
-4.725387 7.642100 2.407535
-3.407041 5.527252 -1.739782
-11.516047 18.682516 0.383080
-4.028770 6.538439 -1.773064
-7.480719 12.145478 0.747567
-4.705966 7.643457 -1.744758
-5.355070 8.701136 0.893869
-4.672595 7.592223 -1.411978
-4.694244 7.630383 1.099993
-4.744906 7.715751 -1.112180
-4.717240 7.673763 1.426683
-4.683499 7.621857 -0.782659
-4.682848 7.620798 1.738652
-4.672706 7.607267 -0.467883
-4.687395 7.634168 2.068200
-4.675746 7.618179 -0.156025
-4.692623 7.648669 2.404429
-3.385670 5.533576 -1.738229
-11.517542 18.831778 0.385314
-4.003890 6.549136 -1.772164
-7.451863 12.188962 0.748718
-4.668310 7.638918 -1.740178
-5.319952 8.708647 0.892823
-4.632679 7.586572 -1.407910
-4.660343 7.634862 1.098287
-4.695196 7.694988 -1.106817
-4.679418 7.669129 1.422928
-4.648859 7.622038 -0.781090
-4.650089 7.627039 1.736362
-4.635726 7.606477 -0.466837
-4.659702 7.648821 2.067750
-4.636932 7.611444 -0.155571
-4.660201 7.652636 2.400805
-3.358312 5.532150 -1.734088
-11.521438 18.979273 0.387548
-3.985182 6.567377 -1.773514
-7.431020 12.250762 0.750916
-4.631436 7.638381 -1.736362
-5.291587 8.730570 0.893172
-4.601355 7.591757 -1.406033
-4.622653 7.629902 1.095362
-4.678909 7.725796 -1.109011
-4.643414 7.670208 1.420112
-4.603659 7.607535 -0.777952
-4.614604 7.625623 1.732546
-4.608411 7.618390 -0.466627
-4.614147 7.630878 2.058752
-4.601027 7.612180 -0.155257
-4.620470 7.647362 2.394076
-3.338953 5.541601 -1.733570
-11.517024 19.122150 0.389642
-3.956203 6.571229 -1.770815
-7.426320 12.339943 0.754789
-4.603045 7.648650 -1.735217
-5.276983 8.771973 0.895612
-4.566683 7.594228 -1.403530
-4.591903 7.639185 1.094387
-4.629417 7.704648 -1.103649
-4.611528 7.677902 1.418548
-4.568150 7.605680 -0.776209
-4.579875 7.628217 1.729493
-4.573566 7.620731 -0.465790
-4.584476 7.641924 2.057402
-4.568258 7.617903 -0.155047
-4.583813 7.646876 2.388900
-3.323554 5.559854 -1.735641
-11.519950 19.278969 0.392016
-3.929243 6.578308 -1.769015
-7.430301 12.444671 0.759604
-4.570282 7.654555 -1.732927
-4.739876 7.941758 0.809154
-4.532048 7.596552 -1.401027
-4.548943 7.627887 1.090487
-4.577085 7.678132 -1.097555
-4.574585 7.676983 1.415419
-4.532392 7.606176 -0.774640
-4.541162 7.623918 1.724913
-4.534677 7.616055 -0.464534
-4.545811 7.637786 2.052004
-4.534480 7.621775 -0.154803
-4.550182 7.651206 2.385277
-3.302154 5.568099 -1.734605
-11.522949 19.437750 0.394424
-3.901291 6.583600 -1.766766
-7.425643 12.531100 0.763372
-4.535528 7.656950 -1.729874
-4.683703 7.910251 0.804273
-4.497457 7.598725 -1.398524
-4.509147 7.621511 1.087318
-4.565414 7.719690 -1.101211
-4.541059 7.678508 1.412916
-4.493649 7.601368 -0.772548
-4.507531 7.627891 1.722242
-4.498924 7.616360 -0.463592
-4.508225 7.635148 2.047055
-4.504098 7.628159 -0.154628
-4.515949 7.651279 2.380618
-3.278778 5.572932 -1.732535
-11.534475 19.605124 0.397042
-3.877463 6.593141 -1.765866
-7.424371 12.629258 0.767769
-4.495840 7.650732 -1.724913
-4.637897 7.895630 0.801136
-4.464228 7.599973 -1.396021
-4.474800 7.621017 1.085125
-4.537778 7.731365 -1.100724
-4.498233 7.667053 1.407910
-4.472125 7.625603 -0.773420
-4.477244 7.634331 1.720334
-4.461519 7.610562 -0.462336
-4.474997 7.636607 2.043455
-4.462281 7.617954 -0.154105
-4.483355 7.656995 2.377512
-3.248591 5.563755 -1.726323
-11.528468 19.752342 0.399206
-3.850494 6.599904 -1.764066
-7.431551 12.743090 0.773107
-4.459566 7.646943 -1.720716
-4.597642 7.886868 0.798695
-4.431705 7.605268 -1.394144
-4.438180 7.619436 1.082687
-4.475806 7.687116 -1.092193
-4.461507 7.665635 1.404782
-4.426770 7.605950 -0.769934
-4.439710 7.631245 1.716136
-4.431916 7.620909 -0.462022
-4.437541 7.633646 2.038507
-4.426621 7.617922 -0.153791
-4.442046 7.647539 2.369747
-3.230117 5.576733 -1.726841
-11.525583 19.906677 0.401510
-3.829387 6.616676 -1.764966
-7.431028 12.845022 0.777712
-4.426946 7.652268 -1.718426
-4.560111 7.885620 0.796952
-4.391289 7.596749 -1.389764
-4.408575 7.629726 1.081956
-4.475754 7.749103 -1.098774
-4.432745 7.677742 1.404156
-4.391225 7.605827 -0.768365
-4.401266 7.626292 1.711557
-4.395308 7.619031 -0.460975
-4.413786 7.654156 2.039856
-4.391013 7.617736 -0.153476
-4.419184 7.669693 2.371818
-3.211595 5.589648 -1.727358
-4.509508 7.851784 0.158049
-3.790741 6.602964 -1.757768
-4.525134 7.885364 0.476467
-4.394346 7.657456 -1.716136
-4.535530 7.906675 0.797475
-4.356885 7.598321 -1.387261
-4.372046 7.627845 1.079519
-4.452622 7.771569 -1.099749
-4.397084 7.677739 1.401340
-4.359701 7.612465 -0.767493
-4.357063 7.610940 1.704688
-4.352812 7.606592 -0.459300
-4.376400 7.650908 2.034907
-4.357449 7.620864 -0.153232
-4.373210 7.651529 2.361465
-3.192065 5.600824 -1.727358
-4.504837 7.907442 0.158852
-3.772493 6.624622 -1.760017
-4.496595 7.899375 0.476362
-4.357879 7.655686 -1.712320
-5.020274 8.822937 0.888117
-4.319595 7.594595 -1.383819
-4.335583 7.625803 1.077081
-4.403887 7.749097 -1.094387
-4.363428 7.681017 1.399150
-4.323262 7.610312 -0.765750
-4.331441 7.627809 1.705069
-4.319330 7.609582 -0.458568
-4.327549 7.627154 2.024559
-4.321943 7.620372 -0.152918
-4.335040 7.646582 2.355253
-3.174395 5.615297 -1.728394
-3.747427 6.634358 -1.759117
-4.307947 7.629797 0.459196
-4.319544 7.650338 -1.707741
-4.304929 7.627562 0.766273
-4.289174 7.602746 -1.382568
-4.304060 7.632245 1.075863
-4.386560 7.781713 -1.096824
-4.323011 7.672109 1.394770
-4.318186 7.663545 -0.769585
-4.288407 7.613802 1.698582
-4.293724 7.626354 -0.458672
-4.289429 7.621836 2.019161
-4.285511 7.617985 -0.152569
-4.301695 7.649879 2.351630
-3.148162 5.614548 -1.724770
-4.278428 7.633429 0.152743
-3.716627 6.633797 -1.755518
-4.275433 7.634332 0.458568
-4.283222 7.648239 -1.703924
-4.275359 7.637326 0.765750
-4.251999 7.598708 -1.379126
-4.272549 7.638560 1.074644
-4.325466 7.736335 -1.088293
-4.287533 7.671633 1.391954
-4.255446 7.614220 -0.763136
-4.256061 7.618441 1.696292
-4.250523 7.611649 -0.456893
-4.258996 7.629957 2.017361
-4.251100 7.618927 -0.152290
-4.263676 7.644601 2.345418
-3.121970 5.613685 -1.721147
-4.235237 7.618606 0.152150
-3.696290 6.651839 -1.756868
-4.243908 7.640482 0.458044
-4.252683 7.656281 -1.702398
-4.239967 7.636527 0.764182
-4.210110 7.585870 -1.374120
-4.241042 7.644749 1.073425
-4.301321 7.756596 -1.089025
-4.254022 7.674459 1.389764
-4.235601 7.641228 -0.764356
-4.220876 7.617797 1.692858
-4.218120 7.615958 -0.456265
-4.227618 7.636251 2.015111
-4.218667 7.623222 -0.152080
-4.227612 7.642535 2.340242
-3.101424 5.622856 -1.720629
-4.197998 7.614079 0.151766
-3.661759 6.644221 -1.751469
-4.209503 7.641253 0.457207
-4.214566 7.650442 -1.697819
-4.204637 7.635571 0.762613
-4.179796 7.593597 -1.372869
-4.198065 7.629939 1.069282
-4.270394 7.764604 -1.088050
-4.218644 7.673681 1.386948
-4.217543 7.671678 -0.765925
-4.188588 7.622159 1.690568
-4.176126 7.602626 -0.454590
-4.193435 7.637296 2.011512
-4.184336 7.623877 -0.151801
-4.195332 7.647084 2.337136
-3.088269 5.645511 -1.724252
-4.167556 7.621670 0.151627
-3.634803 6.650124 -1.749669
-4.170357 7.633113 0.455846
-4.185954 7.661659 -1.697055
-4.177001 7.648455 0.762438
-4.145690 7.594272 -1.370366
-4.162850 7.628863 1.067088
-4.239460 7.772493 -1.087075
-4.188993 7.683159 1.386010
-4.152586 7.616383 -0.758952
-4.158199 7.629837 1.689041
-4.143827 7.606635 -0.453962
-4.154633 7.629639 2.005664
-4.150052 7.624385 -0.151522
-4.162152 7.649803 2.333513
-3.068542 5.656258 -1.724252
-4.134254 7.623865 0.151382
-3.615284 6.669623 -1.751469
-4.136074 7.633577 0.455009
-4.146088 7.652060 -1.691713
-4.140791 7.645469 0.760695
-4.111634 7.594799 -1.367863
-4.131469 7.634619 1.065869
-4.202860 7.769783 -1.084637
-4.147117 7.669930 1.381004
-4.116500 7.613306 -0.757209
-4.127806 7.637399 1.687515
-4.111556 7.610509 -0.453334
-4.124273 7.637236 2.003864
-4.113912 7.621230 -0.151173
-4.129921 7.654083 2.330407
-3.042444 5.652793 -1.720111
-4.104210 7.628728 0.151208
-3.590379 6.676426 -1.750119
-4.106956 7.640214 0.454590
-4.113256 7.651932 -1.688660
-4.104096 7.638098 0.758604
-4.082689 7.601429 -1.366612
-4.095802 7.629038 1.063188
-4.173315 7.776682 -1.083662
-4.112324 7.666233 1.377875
-4.078047 7.602334 -0.754769
-4.093180 7.633742 1.683699
-4.080633 7.613540 -0.452706
-4.093405 7.640564 2.001165
-4.079174 7.617202 -0.150824
-4.088103 7.637080 2.321089
-3.015415 5.649745 -1.715970
-4.070028 7.628893 0.150928
-3.566133 6.687200 -1.749669
-4.072744 7.640404 0.453753
-4.082824 7.659314 -1.687133
-4.067105 7.633035 0.756686
-4.049628 7.603431 -1.364421
-4.060749 7.627519 1.060995
-4.142415 7.784193 -1.082687
-4.084609 7.678798 1.377562
-4.039319 7.593656 -0.752503
-4.051759 7.620249 1.677593
-4.046535 7.613628 -0.451869
-4.057564 7.637597 1.996666
-4.048810 7.624330 -0.150684
-4.058704 7.646183 2.319536
-2.999292 5.667066 -1.718041
-4.036829 7.630680 0.150684
-3.535483 6.685824 -1.746070
-4.038584 7.640447 0.452915
-4.050560 7.663105 -1.684844
-4.037645 7.641900 0.756163
-4.015684 7.603546 -1.361919
-4.023906 7.622335 1.058313
-4.114293 7.796848 -1.082444
-4.048566 7.675536 1.374433
-4.012789 7.607708 -0.752503
-4.024220 7.632608 1.677211
-4.008761 7.606503 -0.450613
-4.042685 7.674129 2.002514
-4.014715 7.624262 -0.150405
-4.040089 7.675689 2.324195
-2.975899 5.670659 -1.715970
-4.004593 7.634100 0.150475
-3.507597 6.689497 -1.743821
-4.001688 7.635039 0.451764
-4.017404 7.665025 -1.682172
-4.002622 7.640063 0.754594
-3.983617 7.607018 -1.360041
-4.000035 7.641613 1.059045
-4.069564 7.777745 -1.077813
-4.019000 7.684371 1.373495
-3.978820 7.607546 -0.751108
-4.004828 7.660530 1.680264
-3.976632 7.609830 -0.449985
-3.987002 7.632919 1.988117
-3.987153 7.636456 -0.150370
-3.996287 7.657206 2.314360
-2.956980 5.682725 -1.716488
-3.974231 7.640934 0.150335
-3.482428 6.698240 -1.742921
-3.964883 7.629467 0.450613
-3.979762 7.658097 -1.677593
-3.971338 7.645148 0.753723
-3.951580 7.610357 -1.358164
-3.966022 7.641434 1.057095
-4.033246 7.774283 -1.075375
-3.987607 7.689584 1.371930
-3.952242 7.621387 -0.751108
-3.961802 7.643087 1.673395
-3.953718 7.630760 -0.450403
-3.951374 7.629485 1.983618
-3.961394 7.652102 -0.150405
-3.960653 7.653953 2.309184
-2.928269 5.675844 -1.711312
-3.941118 7.642322 0.150091
-3.456346 6.705160 -1.741571
-3.935484 7.637933 0.450299
-3.945814 7.657980 -1.674540
-3.932766 7.635939 0.751457
-3.927701 7.629375 -1.359103
-3.928427 7.634048 1.054170
-4.006086 7.788313 -1.075375
-3.941771 7.666565 1.365360
-3.930167 7.643998 -0.751980
-3.923434 7.634169 1.668434
-3.923409 7.637407 -0.449985
-3.925606 7.644966 1.984068
-3.918221 7.633862 -0.149777
-3.921568 7.643666 2.301937
-2.907558 5.684311 -1.710794
-3.897122 7.622202 0.149428
-3.436468 6.724124 -1.743371
-3.904254 7.642732 0.449775
-3.916377 7.666462 -1.673395
-3.901559 7.640747 0.750585
-3.892965 7.627203 -1.356287
-3.895438 7.635339 1.052464
-3.948215 7.742123 -1.067088
-3.913193 7.676757 1.364734
-3.884461 7.620393 -0.748319
-3.887847 7.630325 1.664618
-3.878599 7.615461 -0.447891
-3.894477 7.649938 1.981819
-3.877947 7.620758 -0.149253
-3.887857 7.643533 2.297796
-2.889444 5.697873 -1.711829
-3.868685 7.632191 0.149358
-3.403288 6.716957 -1.738422
-3.874843 7.650970 0.449461
-3.885155 7.671330 -1.671487
-3.869466 7.643653 0.749539
-3.847589 7.603730 -1.349717
-3.857112 7.625862 1.049295
-3.928329 7.770031 -1.069038
-3.881028 7.679792 1.362857
-3.847055 7.612566 -0.746227
-3.847023 7.615814 1.658512
-3.843888 7.612907 -0.446949
-3.863358 7.654788 1.979569
-3.846817 7.625323 -0.149078
-3.858541 7.651884 2.296243
-2.870406 5.709649 -1.712347
-3.836631 7.634929 0.149148
-3.378944 6.727055 -1.737972
-3.836005 7.637004 0.447891
-3.853069 7.674317 -1.669197
-3.840972 7.653553 0.749191
-3.819251 7.613585 -1.349091
-3.828691 7.635729 1.048808
-3.894069 7.769498 -1.067088
-3.851112 7.683791 1.361293
-3.815995 7.617043 -0.745356
-3.820418 7.629195 1.658512
-3.811034 7.613776 -0.446216
-3.820048 7.635113 1.971021
-3.811668 7.618364 -0.148695
-3.826234 7.650813 2.292101
-2.851321 5.721363 -1.712865
-3.805941 7.636870 0.148939
-3.353144 6.731245 -1.736172
-3.806650 7.644984 0.447577
-3.814887 7.664871 -1.664236
-3.808022 7.654427 0.747971
-3.786944 7.612058 -1.346588
-3.798044 7.637721 1.047345
-3.850613 7.746815 -1.062213
-3.811960 7.672421 1.356913
-3.785836 7.623180 -0.744659
-3.791602 7.634789 1.656985
-3.782215 7.619215 -0.445798
-3.787777 7.633775 1.967422
-3.777054 7.615502 -0.148380
-3.794358 7.653737 2.288996
-2.824628 5.715200 -1.708206
-3.775716 7.642939 0.148799
-3.331351 6.746404 -1.737072
-3.775523 7.649271 0.447054
-3.780757 7.659875 -1.660420
-3.768512 7.638424 0.745182
-3.755106 7.614602 -1.344711
-3.771362 7.650931 1.047345
-3.817404 7.747746 -1.060507
-3.780792 7.676818 1.355348
-3.750855 7.616030 -0.742741
-3.757126 7.632125 1.653551
-3.750303 7.621620 -0.445170
-3.759389 7.643452 1.966522
-3.745156 7.617872 -0.148171
-3.757392 7.646131 2.282784
-2.802112 5.719820 -1.706653
-3.738462 7.634520 0.148380
-3.304356 6.750989 -1.735272
-3.745290 7.655226 0.446635
-3.751409 7.667735 -1.659275
-3.742702 7.653321 0.745356
-3.716360 7.602817 -1.340331
-3.734176 7.642645 1.044420
-3.779880 7.739620 -1.057582
-3.741842 7.665117 1.350968
-3.715508 7.611172 -0.740998
-3.724437 7.632842 1.650880
-3.721047 7.629280 -0.444856
-3.724147 7.639010 1.962023
-3.716791 7.627302 -0.148101
-3.723910 7.645307 2.278643
-2.781286 5.727828 -1.706135
-3.706549 7.636731 0.148171
-3.280768 6.762484 -1.735272
-3.709832 7.650280 0.445588
-3.718626 7.668417 -1.656604
-3.710748 7.655583 0.744310
-3.682906 7.601521 -1.337828
-3.701417 7.643128 1.042714
-3.756303 7.759913 -1.058557
-3.709039 7.665686 1.348778
-3.685445 7.616922 -0.740301
-3.688366 7.626355 1.646682
-3.677879 7.608057 -0.442867
-3.697457 7.651965 1.962023
-3.683184 7.625824 -0.147822
-3.693841 7.651299 2.276572
-2.762112 5.739243 -1.706653
-3.675537 7.640611 0.147996
-3.251233 6.761600 -1.732123
-3.674451 7.645184 0.444542
-3.691834 7.681351 -1.656604
-3.677965 7.655917 0.743090
-3.654641 7.610769 -1.337202
-3.669563 7.645263 1.041252
-3.722324 7.758659 -1.056607
-3.675426 7.664334 1.346275
-3.652805 7.617164 -0.739081
-3.657482 7.630332 1.644774
-3.649575 7.617245 -0.442658
-3.663992 7.650764 1.958424
-3.653091 7.631421 -0.147682
-3.673783 7.678087 2.280714
-2.742060 5.748850 -1.706653
-3.646260 7.647980 0.147892
-3.225097 6.767629 -1.730773
-3.640010 7.641736 0.443600
-3.650644 7.664062 -1.650116
-3.648647 7.663314 0.742567
-3.624658 7.616343 -1.335950
-3.640293 7.652648 1.040521
-3.695217 7.771606 -1.056607
-3.638473 7.655710 1.342521
-3.623626 7.624471 -0.738558
-3.626611 7.634186 1.642866
-3.619534 7.622723 -0.442239
-3.628906 7.645902 1.953925
-3.620428 7.631479 -0.147438
-3.632886 7.661191 2.271914
-2.714547 5.742667 -1.701994
-3.616126 7.653429 0.147752
-3.203117 6.782371 -1.731673
-3.615020 7.658008 0.443809
-3.617166 7.662553 -1.647063
-3.617626 7.666993 0.741695
-3.594678 7.621806 -1.334699
-3.620332 7.679673 1.042470
-3.658761 7.764704 -1.053926
-3.604995 7.654066 1.340018
-3.587653 7.617245 -0.736640
-3.600778 7.648574 1.643247
-3.586102 7.620852 -0.441401
-3.593902 7.640888 1.949426
-3.585261 7.625973 -0.147089
-3.591334 7.642353 2.262596
-2.692027 5.746859 -1.700441
-3.598718 7.685925 0.148136
-3.176116 6.786452 -1.729874
-3.612461 7.718795 0.446635
-3.588734 7.671575 -1.646300
-3.621223 7.744548 0.747971
-3.558012 7.612832 -1.330945
-3.596025 7.697659 1.043202
-3.641395 7.794777 -1.056364
-3.572905 7.651660 1.337515
-3.562726 7.633334 -0.736989
-3.558289 7.627291 1.635996
-3.564542 7.644186 -0.442030
-3.566072 7.647467 1.948076
-3.556571 7.630570 -0.146949
-3.562709 7.647215 2.260525
-2.673768 5.757508 -1.700959
-3.596783 7.748605 0.149113
-3.145394 6.779269 -1.725375
-3.611224 7.783272 0.449671
-3.558317 7.672749 -1.644010
-3.626522 7.823396 0.754420
-3.526105 7.610250 -1.328442
-3.568808 7.705939 1.042714
-3.596338 7.765382 -1.050758
-3.540875 7.649126 1.335012
-3.529864 7.628831 -0.735420
-3.525557 7.623013 1.632562
-3.522413 7.619705 -0.439936
-3.536605 7.650405 1.945827
-3.527056 7.633246 -0.146775
-3.535709 7.655480 2.259490
-2.653853 5.764587 -1.700441
-3.602834 7.829519 0.150440
-3.121268 6.786120 -1.724475
-3.608228 7.848455 0.452706
-3.529575 7.677371 -1.642484
-3.625519 7.889691 0.759649
-3.499198 7.618312 -1.327816
-3.544893 7.721339 1.043202
-3.558448 7.754433 -1.047589
-3.511680 7.656053 1.334073
-3.495407 7.620575 -0.733503
-3.493715 7.620384 1.629509
-3.493799 7.624081 -0.439517
-3.500138 7.641444 1.940428
-3.491234 7.625511 -0.146391
-3.501731 7.651966 2.254832
-2.635317 5.777332 -1.701476
-3.600367 7.896634 0.151487
-3.095135 6.791655 -1.723125
-3.609786 7.924618 0.456370
-3.492986 7.668206 -1.637905
-3.632629 7.978457 0.766971
-3.462767 7.608904 -1.324062
-3.525314 7.749928 1.045395
-3.515745 7.732473 -1.042958
-3.471042 7.637691 1.328755
-3.467138 7.629102 -0.733154
-3.463843 7.625384 1.627982
-3.464685 7.630774 -0.439203
-3.473444 7.653614 1.940428
-3.457984 7.623083 -0.146112
-3.471806 7.657105 2.252761
-2.607180 5.768891 -1.696300
-3.607358 7.985692 0.152953
-3.070608 6.800642 -1.722675
-3.613324 8.006348 0.460347
-3.459739 7.666036 -1.634852
-3.624421 8.034675 0.771154
-3.434563 7.617342 -1.323436
-3.501504 7.769425 1.046370
-3.487103 7.741078 -1.042470
-3.437874 7.635351 1.326252
-3.431490 7.621173 -0.731237
-3.435595 7.633848 1.627219
-3.433113 7.631892 -0.438575
-3.433923 7.637254 1.933229
-3.425617 7.622338 -0.145867
-3.437142 7.651553 2.247585
-2.584659 5.772666 -1.694747
-3.608048 8.062120 0.154175
-3.042871 6.802425 -1.720426
-3.614704 8.084549 0.464115
-3.428953 7.669103 -1.632944
-3.628054 8.118220 0.777952
-3.401506 7.614857 -1.320933
-3.476792 7.787037 1.047101
-3.455204 7.742327 -1.041008
-3.407175 7.638285 1.324687
-3.398371 7.618549 -0.729842
-3.397732 7.620691 1.621876
-3.402386 7.634710 -0.438052
-3.405655 7.645634 1.932330
-3.392480 7.619636 -0.145588
-3.404127 7.649386 2.243443
-2.565275 5.783420 -1.695265
-3.603390 8.127679 0.155187
-3.012793 6.798751 -1.716826
-3.621241 8.175643 0.468616
-3.399775 7.675641 -1.631799
-3.632765 8.205529 0.785099
-3.366113 7.606812 -1.317491
-3.448784 7.797312 1.046858
-3.407291 7.707136 -1.034671
-3.376501 7.641097 1.323123
-3.372564 7.632187 -0.730016
-3.367146 7.623525 1.619969
-3.364423 7.620958 -0.436587
-3.376587 7.652127 1.930980
-3.362636 7.624113 -0.145448
-3.373510 7.652383 2.240855
-2.545070 5.792339 -1.695265
-3.609575 8.218936 0.156688
-2.988260 6.807441 -1.716377
-3.616752 8.243103 0.471756
-3.371381 7.683867 -1.631035
-3.546488 8.086786 0.772548
-3.336365 7.611280 -1.316240
-3.424730 7.816578 1.047833
-3.395499 7.753531 -1.039302
-3.345053 7.641980 1.321246
-3.340307 7.631138 -0.728796
-3.336578 7.626240 1.618060
-3.334602 7.625337 -0.436168
-3.343610 7.649583 1.927381
-3.332798 7.628474 -0.145309
-3.344460 7.658800 2.239302
-2.523295 5.797646 -1.694230
-3.449241 7.928926 0.150928
-2.959816 6.807109 -1.713677
-3.435905 7.905813 0.451764
-3.333586 7.670381 -1.625693
-3.438060 7.914548 0.754943
-3.306631 7.615631 -1.314988
-3.401377 7.837588 1.049051
-3.349452 7.721629 -1.033452
-3.312073 7.639110 1.318743
-3.311273 7.637266 -0.728273
-3.309158 7.636039 1.617679
-3.303993 7.627767 -0.435645
-3.313018 7.652264 1.925131
-3.298210 7.621710 -0.144960
-3.313869 7.661563 2.236714
-2.496160 5.790451 -1.689571
-3.404927 7.902351 0.150195
-2.934496 6.813819 -1.712777
-3.408290 7.917758 0.451764
-3.301358 7.669347 -1.623021
-4.670316 10.854786 1.033841
-3.276908 7.619868 -1.313737
-3.372432 7.845766 1.048564
-3.310722 7.705917 -1.029796
-3.277595 7.632474 1.315614
-3.277520 7.632300 -0.726705
-3.279387 7.640326 1.616152
-3.274982 7.633749 -0.435331
-3.282448 7.654827 1.922882
-3.266860 7.622148 -0.144750
-3.278735 7.653552 2.231020
-2.472897 5.792023 -1.687500
-3.368687 7.893958 0.149811
-2.907634 6.816851 -1.710978
-5.983463 14.034820 0.799589
-3.271485 7.673600 -1.621495
-4.673014 10.966333 1.042906
-3.242547 7.613087 -1.310608
-3.349688 7.868449 1.050026
-3.288468 7.728386 -1.031259
-3.249384 7.640233 1.314988
-3.242279 7.623527 -0.724787
-3.243479 7.630045 1.611573
-3.247535 7.643293 -0.435226
-3.254944 7.664445 1.922432
-3.241794 7.637186 -0.144820
-3.244455 7.647165 2.225844
-2.450408 5.795281 -1.685947
-3.333328 7.887248 0.149462
-2.878514 6.814393 -1.707828
-5.990373 14.188097 0.807125
-3.244681 7.684972 -1.621495
-4.676539 11.081701 1.052318
-3.210580 7.611618 -1.308418
-3.325288 7.887410 1.051001
-3.246055 7.703229 -1.026384
-3.216562 7.636964 1.312485
-3.212557 7.627454 -0.724090
-3.214538 7.635894 1.610428
-3.207669 7.623287 -0.433446
-3.225149 7.668574 1.920632
-3.210464 7.637395 -0.144611
-3.216995 7.656662 2.225326
-2.433147 5.810927 -1.688018
-3.305774 7.898836 0.149462
-2.852455 6.819005 -1.706479
-5.989538 14.318435 0.813406
-3.211775 7.681763 -1.618442
-4.678542 11.195390 1.061557
-3.181705 7.617311 -1.307480
-3.293909 7.889812 1.049783
-3.225260 7.729171 -1.028334
-3.189696 7.643943 1.311860
-3.183609 7.633105 -0.723567
-3.183333 7.636195 1.608138
-3.178733 7.628908 -0.433132
-3.192366 7.665394 1.917033
-3.180509 7.636923 -0.144401
-3.188615 7.660155 2.223256
-2.410630 5.814032 -1.686465
-3.274203 7.896825 0.149218
-2.826841 6.821227 -1.704679
-5.987669 14.455506 0.820000
-3.174429 7.667531 -1.613099
-4.681336 11.312907 1.071144
-3.153408 7.620518 -1.306228
-3.278351 7.926372 1.053195
-3.198855 7.737989 -1.028090
-3.149417 7.622168 1.306228
-3.152384 7.633121 -0.722521
-3.159493 7.650337 1.608902
-3.149608 7.630175 -0.432609
-3.160981 7.661528 1.913434
-3.149259 7.636886 -0.144192
-3.156705 7.658735 2.219632
-2.386197 5.809485 -1.682842
-3.244341 7.902656 0.149113
-2.802274 6.829249 -1.704229
-5.989463 14.603825 0.827222
-3.147493 7.674384 -1.612336
-4.677048 11.409482 1.078814
-3.122292 7.620512 -1.304351
-3.255174 7.948790 1.054657
-3.165058 7.732572 -1.025896
-3.121294 7.629460 1.305602
-3.114227 7.612186 -0.719558
-3.126823 7.646783 1.605849
-3.119931 7.633729 -0.432190
-3.127588 7.656279 1.909385
-3.117289 7.634874 -0.143947
-3.121191 7.648244 2.213420
-2.362994 5.810621 -1.680771
-3.207698 7.891702 0.148695
-2.778417 6.838990 -1.704229
-5.997815 14.770832 0.835491
-3.119209 7.681684 -1.611573
-4.679149 11.529123 1.088575
-3.091961 7.622212 -1.302786
-3.228155 7.961943 1.054901
-3.144755 7.760133 -1.028090
-3.091678 7.632984 1.304351
-3.083150 7.611929 -0.718512
-3.089800 7.632174 1.600506
-3.091019 7.639018 -0.431876
-3.092807 7.647276 1.904436
-3.089122 7.642001 -0.143878
-3.091581 7.651928 2.211350
-2.344140 5.822417 -1.681806
-3.175650 7.891721 0.148485
-2.753075 6.845030 -1.703329
-5.993898 14.910276 0.842190
-3.087984 7.681595 -1.609283
-4.678242 11.643371 1.097814
-3.056500 7.610963 -1.299032
-3.195909 7.962109 1.053439
-3.116168 7.767378 -1.027602
-3.063543 7.640064 1.303725
-3.053592 7.615249 -0.717815
-3.064601 7.646555 1.601269
-3.053192 7.621950 -0.430306
-3.062471 7.648981 1.902186
-3.055743 7.636027 -0.143564
-3.060546 7.651912 2.208244
-2.320225 5.821592 -1.679218
-3.143645 7.891611 0.148276
-2.723396 6.840115 -1.699730
-5.989074 15.049877 0.848889
-3.059698 7.688681 -1.608520
-4.681755 11.770709 1.108272
-3.028457 7.617913 -1.298406
-3.173959 7.987976 1.055389
-3.058997 7.702566 -1.017609
-3.030298 7.634186 1.300909
-3.026258 7.624009 -0.717640
-3.036442 7.653559 1.600506
-3.023625 7.625135 -0.429888
-3.034318 7.656000 1.901286
-3.026858 7.641070 -0.143459
-3.035952 7.667936 2.209797
-2.300599 5.831452 -1.679736
-3.114614 7.898816 0.148206
-2.698075 6.845953 -1.698830
-5.992863 15.213780 0.856949
-3.021327 7.670089 -1.602414
-4.680785 11.888942 1.117859
-3.000401 7.624761 -1.297781
-3.148960 8.006395 1.056364
-3.033545 7.716891 -1.018097
-3.000021 7.635524 1.299345
-2.996715 7.627109 -0.716943
-3.003964 7.649493 1.597453
-2.996262 7.633784 -0.429783
-2.998321 7.642963 1.895438
-2.992866 7.632975 -0.143110
-3.005645 7.669493 2.207209
-2.276012 5.828650 -1.676630
-3.080477 7.892875 0.147892
-2.673455 6.853513 -1.698380
-5.995588 15.377888 0.865009
-2.995962 7.684247 -1.603177
-4.679765 12.009169 1.127621
-2.969464 7.624145 -1.295903
-3.123155 8.022889 1.057095
-3.014505 7.747784 -1.020778
-2.970484 7.638585 1.298093
-2.965016 7.624525 -0.715723
-2.974401 7.652611 1.595927
-2.965255 7.633027 -0.429155
-2.967393 7.642481 1.892738
-2.956800 7.619139 -0.142656
-2.968374 7.652922 2.199444
-2.254261 5.832955 -1.675595
-3.050027 7.896118 0.147752
-2.646004 6.853715 -1.696131
-5.995801 15.538474 0.872859
-2.962055 7.676340 -1.599361
-4.677250 12.127671 1.137208
-2.937151 7.619718 -1.293400
-3.104410 8.057821 1.060263
-2.938223 7.630435 -1.003960
-2.939546 7.637846 1.296216
-2.932660 7.619952 -0.714328
-2.945557 7.657451 1.594782
-2.937874 7.641467 -0.429050
-2.937903 7.645515 1.890939
-2.930188 7.629413 -0.142656
-2.938178 7.654221 2.196856
-2.232507 5.837180 -1.674559
-3.017445 7.893641 0.147508
-2.617889 6.851988 -1.693431
-5.992822 15.693651 0.880396
-2.934539 7.684800 -1.598979
-4.682484 12.268641 1.148887
-2.907717 7.622542 -1.292149
-3.088284 8.100142 1.064407
-2.927119 7.681456 -1.009322
-2.914272 7.651753 1.296842
-2.905332 7.628281 -0.714154
-2.911823 7.649337 1.590966
-2.902662 7.629274 -0.427794
-2.908425 7.648440 1.889139
-2.901405 7.633987 -0.142551
-2.908013 7.655399 2.194268
-2.208698 5.835904 -1.671971
-2.989875 7.904126 0.147508
-2.589822 6.850147 -1.690732
-5.992368 15.858335 0.888455
-2.905616 7.689487 -1.597835
-4.684684 12.404199 1.160043
-2.874815 7.616012 -1.289333
-3.127260 8.289174 1.087806
-2.912897 7.725060 -1.013709
-2.881276 7.645243 1.294026
-2.875878 7.630919 -0.713457
-2.887874 7.666804 1.592492
-2.869681 7.622536 -0.426852
-2.876221 7.643953 1.885540
-2.874037 7.642196 -0.142516
-2.878556 7.658269 2.192197
-2.189666 5.847197 -1.673006
-2.956656 7.899533 0.147229
-2.563848 6.853669 -1.689382
-5.992229 16.026949 0.896724
-2.869817 7.675676 -1.592874
-4.681805 12.528726 1.170153
-2.845449 7.618598 -1.288082
-3.189248 8.543667 1.119736
-2.849829 7.638469 -1.001035
-2.847672 7.636744 1.290897
-2.849225 7.640911 -0.713457
-2.856293 7.663960 1.589821
-2.837476 7.617535 -0.426015
-2.845440 7.642990 1.882840
-2.836881 7.624071 -0.141993
-2.851131 7.666461 2.191680
-2.164546 5.842124 -1.669383
-2.929065 7.909805 0.147229
-2.541936 6.868060 -1.690732
-5.996534 16.210735 0.905831
-2.835515 7.665392 -1.588676
-4.680881 12.660852 1.180960
-2.816782 7.622926 -1.287143
-3.205484 8.679511 1.136066
-2.860957 7.750794 -1.014441
-2.817576 7.637372 1.289333
-2.811500 7.620902 -0.710668
-2.828166 7.670198 1.589057
-2.812252 7.631141 -0.426224
-2.816051 7.645561 1.881041
-2.807489 7.626420 -0.141853
-2.814349 7.649171 2.183915
-2.142811 5.846015 -1.668348
-2.895248 7.903081 0.146914
-2.513924 6.865912 -1.688033
-5.998258 16.390995 0.914728
-2.804694 7.664180 -1.586386
-4.683198 12.804353 1.192814
-2.784050 7.616014 -1.284327
-3.211955 8.791332 1.149228
-2.820949 7.725305 -1.009809
-2.790221 7.645306 1.289020
-2.784879 7.630670 -0.710668
-2.793304 7.657892 1.584478
-2.782175 7.631530 -0.425701
-2.786675 7.648021 1.879241
-2.782221 7.639930 -0.141923
-2.787629 7.658949 2.183915
-2.124366 5.858909 -1.669901
-2.863553 7.901860 0.146705
-2.485298 6.861819 -1.684883
-5.998786 16.571463 0.923625
-2.783268 7.688693 -1.589439
-4.679142 12.933036 1.203272
-2.752076 7.610824 -1.281824
-3.206885 8.873435 1.158490
-2.800033 7.751909 -1.012003
-2.759494 7.643851 1.287143
-2.755522 7.632848 -0.709971
-2.764555 7.662055 1.583333
-2.748745 7.622406 -0.424654
-2.755998 7.646700 1.876542
-2.754856 7.647715 -0.141888
-2.758261 7.661361 2.181845
-2.097381 5.848103 -1.664724
-2.831907 7.900512 0.146495
-2.458704 6.863114 -1.683084
-5.996116 16.746490 0.932208
-2.751120 7.683574 -1.586386
-4.687004 13.097486 1.217043
-2.724829 7.618524 -1.281511
-3.202616 8.959345 1.168240
-2.754926 7.711162 -1.005422
-2.732797 7.653436 1.287143
-2.730873 7.648048 -0.710494
-2.739110 7.675357 1.584096
-2.718768 7.622548 -0.424131
-2.723402 7.639753 1.872493
-2.722101 7.640333 -0.141574
-2.728910 7.663661 2.179774
-2.078244 5.859031 -1.665759
-2.800968 7.900926 0.146321
-2.435381 6.873492 -1.683534
-6.000577 16.935715 0.941629
-2.717072 7.672775 -1.582188
-4.685126 13.237730 1.228547
-2.694264 7.616816 -1.279634
-3.208378 9.075278 1.181889
-2.731958 7.731962 -1.006885
-2.701476 7.645693 1.284327
-2.695533 7.633112 -0.708228
-2.710996 7.681169 1.583333
-2.689484 7.624459 -0.423712
-2.694124 7.641862 1.870693
-2.690768 7.632343 -0.141260
-2.706048 7.679958 2.181845
-2.052665 5.851665 -1.661618
-2.774092 7.908282 0.146286
-2.408707 6.870496 -1.680834
-6.006813 17.143162 0.951991
-2.687678 7.674799 -1.580662
-4.684307 13.383759 1.240575
-2.665077 7.614522 -1.277757
-3.211039 9.179554 1.194076
-2.710890 7.754095 -1.008591
-2.671516 7.645754 1.282763
-2.660991 7.619902 -0.706136
-2.680980 7.677142 1.580662
-2.666162 7.638991 -0.424026
-2.667486 7.647075 1.869793
-2.660157 7.630361 -0.141050
-2.669055 7.660170 2.173563
-2.032614 5.856616 -1.661101
-2.743191 7.908473 0.146112
-2.385350 6.880703 -1.681284
-6.006850 17.327162 0.961098
-2.660283 7.678106 -1.579517
-4.686835 13.534776 1.253125
-2.634607 7.612577 -1.275880
-3.214015 9.292013 1.207238
-2.677320 7.744751 -1.006153
-2.641627 7.641502 1.280573
-2.635059 7.626801 -0.705962
-2.650959 7.677176 1.578754
-2.638175 7.644476 -0.423817
-2.638868 7.650813 1.868443
-2.634841 7.639139 -0.141050
-2.639229 7.656194 2.169939
-2.012160 5.863675 -1.661101
-2.710462 7.898611 0.145763
-2.355563 6.868299 -1.676335
-6.011734 17.538851 0.971669
-2.636647 7.696631 -1.581425
-4.689903 13.698081 1.266721
-2.608066 7.617535 -1.275254
-3.210179 9.381504 1.217475
-2.638134 7.714142 -1.001035
-2.615577 7.652544 1.280886
-2.607130 7.632183 -0.705613
-2.624853 7.684066 1.578372
-2.605068 7.630500 -0.422561
-2.610966 7.652144 1.866644
-2.604289 7.636933 -0.140841
-2.610619 7.659873 2.168386
-1.987336 5.857857 -1.657477
-2.678927 7.900918 0.145623
-2.325369 6.862122 -1.672736
-6.008278 17.740479 0.981613
-2.602210 7.683473 -1.576846
-4.694443 13.869119 1.281015
-2.578861 7.623301 -1.274628
-3.207564 9.487231 1.229662
-2.609841 7.723760 -1.001035
-2.584982 7.654594 1.279634
-2.577921 7.633687 -0.704916
-2.594791 7.688055 1.577227
-2.573251 7.628643 -0.421933
-2.577298 7.645043 1.862595
-2.575005 7.642636 -0.140771
-2.581908 7.667560 2.167868
-1.969332 5.872085 -1.659548
-2.648787 7.902637 0.145483
-2.302641 6.873892 -1.673636
-6.007182 17.943161 0.991662
-2.569139 7.673894 -1.573029
-4.697838 14.040355 1.295309
-2.550984 7.628509 -1.274002
-3.207144 9.596273 1.242336
-2.591041 7.757299 -1.004204
-2.551993 7.644834 1.276505
-2.548106 7.633189 -0.704044
-2.564830 7.687755 1.575319
-2.543450 7.628105 -0.421409
-2.548133 7.646597 1.860795
-2.543255 7.636401 -0.140492
-2.553299 7.671026 2.166316
-1.947608 5.875255 -1.658513
-2.620559 7.909936 0.145448
-2.278634 6.881887 -1.673636
-6.007889 18.155531 1.002234
-2.539871 7.675359 -1.571503
-4.694470 14.194756 1.308033
-2.520621 7.626112 -1.272125
-3.209739 9.716736 1.256473
-2.552125 7.730481 -0.999572
-2.525294 7.653695 1.276505
-2.515205 7.623116 -0.702301
-2.537977 7.696661 1.575319
-2.516180 7.635041 -0.421304
-2.518989 7.648041 1.858995
-2.511579 7.630038 -0.140213
-2.519864 7.659707 2.160621
-1.923477 5.871004 -1.655407
-2.586707 7.900031 0.145099
-2.254596 6.889800 -1.673636
-6.009660 18.375717 1.013224
-2.514892 7.689777 -1.572648
-4.693789 14.360667 1.321804
-2.490304 7.623600 -1.270248
-3.212151 9.839217 1.270854
-2.538053 7.778973 -1.004691
-2.493661 7.647439 1.274002
-2.484871 7.620484 -0.701255
-2.506230 7.690540 1.572266
-2.489515 7.643777 -0.421304
-2.488656 7.645670 1.856296
-2.485551 7.640659 -0.140248
-2.488932 7.655595 2.156998
-1.902378 5.875844 -1.654889
-2.560964 7.914720 0.145204
-2.224538 6.879086 -1.669137
-6.013047 18.605635 1.024738
-2.486225 7.692904 -1.571503
-4.696913 14.541910 1.336969
-2.461248 7.624727 -1.268997
-3.210091 9.950499 1.283772
-2.489566 7.721659 -0.996160
-2.464526 7.648577 1.272751
-2.457643 7.627216 -0.701081
-2.475761 7.688028 1.569977
-2.456701 7.633408 -0.420258
-2.463144 7.658022 1.857196
-2.455806 7.639769 -0.140073
-2.461605 7.662397 2.156481
-1.881855 5.882449 -1.654889
-2.533322 7.923610 0.145204
-2.205255 6.901659 -1.672736
-6.016106 18.839602 1.036461
-2.453382 7.682834 -1.567687
-4.697615 14.719552 1.351786
-2.432218 7.625743 -1.267745
-3.209699 10.069449 1.297665
-2.476453 7.773805 -1.001766
-2.436615 7.653367 1.272125
-2.428588 7.628153 -0.700384
-2.446526 7.689140 1.568450
-2.425802 7.628614 -0.419525
-2.429907 7.646142 1.852247
-2.427305 7.642578 -0.139968
-2.431918 7.661737 2.153892
-1.861893 5.890824 -1.655407
-7.550668 23.903999 0.437567
-2.170592 6.875865 -1.664638
-4.786930 15.172960 0.833817
-2.423006 7.680117 -1.565397
-4.698925 14.903077 1.367125
-2.404399 7.630419 -1.267119
-3.215674 10.211237 1.314483
-2.450496 7.786189 -1.002254
-2.402774 7.639214 1.268371
-2.400154 7.630883 -0.699861
-2.419084 7.695760 1.568068
-2.397963 7.633223 -0.419316
-2.402036 7.650859 1.851347
-2.392829 7.626202 -0.139515
-2.404005 7.666492 2.152857
-1.838441 5.888066 -1.652818
-7.541037 24.166918 0.441895
-2.147739 6.887120 -1.665538
-2.467402 7.917037 0.434598
-2.388007 7.662287 -1.560054
-4.696047 15.077278 1.381593
-2.375402 7.631220 -1.265868
-3.215388 10.336130 1.329107
-2.420943 7.787114 -1.001279
-2.376678 7.649441 1.268684
-2.369363 7.625896 -0.698640
-2.393369 7.707908 1.568832
-2.370117 7.637733 -0.419106
-2.371272 7.646168 1.848198
-2.365603 7.632597 -0.139480
-2.369225 7.649001 2.145610
-1.816167 5.888910 -1.651266
-7.516716 24.388014 0.445455
-2.122536 6.890851 -1.664638
-2.437398 7.917967 0.434179
-2.361821 7.672452 -1.560436
-4.693775 15.257346 1.396584
-2.345265 7.628136 -1.263991
-3.218354 10.474426 1.345438
-2.387921 7.776540 -0.998841
-2.348225 7.652025 1.267745
-2.340977 7.628405 -0.698117
-2.358391 7.689937 1.563489
-2.341688 7.640230 -0.418792
-2.343998 7.652535 1.847748
-2.336606 7.633159 -0.139340
-2.342512 7.657225 2.145610
-1.793912 5.889669 -1.649713
-7.458331 24.502102 0.447061
-2.092229 6.877710 -1.659689
-2.407419 7.918784 0.433760
-2.331597 7.669380 -1.558146
-3.322248 10.934795 0.999851
-2.317474 7.632497 -1.263365
-3.212319 10.586275 1.358356
-2.341752 7.722138 -0.990798
-2.321498 7.660176 1.267745
-2.313177 7.632718 -0.697769
-2.327548 7.684971 1.560818
-2.310956 7.634976 -0.418060
-2.319527 7.668132 1.849548
-2.309367 7.639356 -0.139305
-2.314653 7.661656 2.144575
