# This PCD file was generated using the MATLAB® pcwrite function
# from Computer Vision Toolbox®.
# .PCD v.7 - Point Cloud Data file format
VERSION .7
FIELDS x y z
SIZE 4 4 4
TYPE F F F
COUNT 1 1 1
WIDTH 1723
HEIGHT 1
VIEWPOINT 0 0 0 1 0 0 0
POINTS 1723
DATA ascii
4.996319 7.726094 -0.804970
5.037622 7.786983 1.802764
5.016663 7.751610 -0.483898
5.018963 7.752207 2.132086
5.017612 7.750120 -0.161156
5.027217 7.761985 2.477934
3.122602 4.806552 -1.535832
5.033048 7.747260 0.161260
3.355698 5.163380 -1.421691
5.232111 8.047515 0.503053
3.745377 5.758575 -1.335281
9.881452 15.187084 1.585189
4.473000 6.874680 -1.299032
7.580312 11.645939 1.706171
5.151661 7.911684 -1.159221
5.049114 7.751239 1.465165
5.037400 7.730305 -0.807236
5.074138 7.786683 1.806580
5.045611 7.739952 -0.484212
5.056355 7.753474 2.137035
5.059933 7.756003 -0.161644
5.068009 7.765419 2.484663
3.133235 4.788087 -1.533244
5.075396 7.753066 0.161749
3.380108 5.161415 -1.424390
5.295193 8.082665 0.506403
3.765530 5.747764 -1.335663
4.494804 6.855719 -1.298406
7.579545 11.556332 1.696909
5.187957 7.906932 -1.161171
5.089146 7.753385 1.468920
5.077475 7.732661 -0.809328
5.108829 7.780411 1.809251
5.086851 7.743995 -0.485573
5.087667 7.742292 2.138835
5.093569 7.748318 -0.161854
5.104636 7.762209 2.489321
3.155020 4.783020 -1.535315
5.112340 7.750324 0.162063
3.405616 5.160972 -1.427539
5.338777 8.087469 0.507868
3.775754 5.717541 -1.331847
4.517725 6.835901 -1.297781
7.591383 11.486743 1.690572
5.230855 7.911956 -1.164584
5.121626 7.743813 1.470484
5.120928 7.739813 -0.811943
5.152484 7.784553 1.814594
5.127327 7.743617 -0.486724
5.130002 7.744712 2.144683
5.128313 7.742162 -0.162098
5.151977 7.774940 2.499157
3.158863 4.752673 -1.529103
5.152890 7.749854 0.162447
3.428828 5.154944 -1.429339
3.800038 5.710865 -1.333373
4.533894 6.808582 -1.295590
7.590509 11.394412 1.681066
5.282935 7.927422 -1.169702
5.163964 7.748899 1.474864
5.158964 7.738469 -0.813686
5.199231 7.795921 1.821463
5.166522 7.743948 -0.487876
5.175395 7.754315 2.152332
5.163076 7.735858 -0.162342
5.180156 7.758516 2.499674
3.173285 4.738406 -1.528068
5.184126 7.741029 0.162622
3.455667 5.158115 -1.433388
9.731654 14.520529 0.916089
3.811205 5.684518 -1.330320
4.547647 6.780385 -1.293087
7.596176 11.321376 1.673998
5.315834 7.919747 -1.171165
5.204198 7.750505 1.478619
5.193720 7.731992 -0.814906
5.232716 7.790047 1.824134
5.205543 7.746664 -0.489132
5.213041 7.754898 2.157280
5.198974 7.731065 -0.162622
5.219071 7.758018 2.505368
3.188980 4.727858 -1.528068
5.221177 7.737807 0.162936
3.479101 5.154098 -1.435638
9.703771 14.375606 0.908971
3.831132 5.673477 -1.330702
4.566862 6.757923 -1.291836
7.593404 11.232296 1.664735
5.353453 7.915943 -1.173358
5.242043 7.751205 1.482060
5.230499 7.731228 -0.816649
5.266481 7.781487 1.826424
5.232551 7.728446 -0.489132
5.253191 7.756017 2.162679
5.249255 7.750205 -0.163389
5.263188 7.767858 2.514168
3.209806 4.723089 -1.530138
5.267042 7.750220 0.163564
3.504938 5.155426 -1.439237
9.693243 14.252461 0.903319
3.850911 5.660070 -1.330702
4.592579 6.747640 -1.292775
7.594863 11.154545 1.656936
5.380790 7.899789 -1.173602
5.284638 7.755715 1.486441
5.274289 7.737616 -0.819264
5.317691 7.801289 1.835201
5.272777 7.732505 -0.490493
5.287666 7.751434 2.166279
5.294313 7.758261 -0.163948
5.309879 7.778156 2.523486
3.217543 4.699103 -1.525997
5.311235 7.753960 0.164053
3.531519 5.153799 -1.442386
3.859547 5.630399 -1.326886
4.608339 6.717732 -1.290272
7.600872 11.075895 1.649380
5.428810 7.907835 -1.177745
5.317500 7.742808 1.487692
5.314796 7.738870 -0.821356
5.356253 7.796311 1.838636
5.321446 7.742754 -0.492377
5.328184 7.749667 2.171227
5.328377 7.747044 -0.164122
5.350396 7.776150 2.529180
3.239413 4.695793 -1.528585
5.351897 7.755123 0.164471
3.568310 5.168702 -1.450034
9.697374 14.041401 0.894317
3.874716 5.610429 -1.325359
9.665975 13.990728 1.487749
4.635131 6.706479 -1.291210
7.599978 10.992145 1.640849
5.466541 7.903531 -1.179939
5.364729 7.753438 1.493324
5.348581 7.730100 -0.822402
5.397963 7.798552 1.843597
5.365495 7.748764 -0.493947
5.366302 7.747040 2.175727
5.363361 7.739901 -0.164367
5.379706 7.760602 2.530215
3.245859 4.670182 -1.523927
5.389210 7.751169 0.164786
3.599685 5.175411 -1.455433
9.705252 13.948449 0.890549
3.892030 5.593649 -1.324596
9.669229 13.891490 1.480776
4.650613 6.678910 -1.289020
7.609928 10.924832 1.634755
5.500907 7.894171 -1.181401
5.407578 7.757350 1.497704
5.388066 7.729360 -0.824319
5.428515 7.784496 1.844741
5.410796 7.756194 -0.495622
5.411157 7.753828 2.182925
5.410945 7.750649 -0.164995
5.416720 7.756030 2.534874
3.263250 4.660405 -1.524444
5.426554 7.747054 0.165100
3.617728 5.162815 -1.455433
9.711469 13.853974 0.886676
3.907025 5.573599 -1.323070
9.669611 13.789141 1.473455
4.671628 6.659402 -1.288394
7.601268 10.831580 1.624762
5.556947 7.915538 -1.187495
5.445974 7.754593 1.500832
5.431044 7.733333 -0.826759
5.466943 7.781563 1.848558
5.442433 7.743795 -0.496040
5.453880 7.757211 2.189224
5.449473 7.748070 -0.165344
5.462661 7.763932 2.543674
3.275043 4.642672 -1.522374
5.465096 7.744402 0.165449
3.645844 5.164483 -1.459482
9.707829 13.751529 0.882175
3.928721 5.563135 -1.323833
9.678596 13.699979 1.467528
4.694847 6.643054 -1.288394
7.602357 10.753113 1.616963
5.581100 7.891234 -1.186764
5.485345 7.755846 1.504587
5.475268 7.738724 -0.829374
5.516755 7.794484 1.856190
5.487892 7.750834 -0.497715
5.488811 7.749257 2.192373
5.491321 7.752801 -0.165833
5.507363 7.772573 2.552474
3.301301 4.645383 -1.527032
5.502333 7.742535 0.165798
3.677627 5.173013 -1.465331
9.702522 13.642691 0.877360
3.934460 5.530189 -1.319253
9.677841 13.597934 1.460207
4.711122 6.619403 -1.286830
7.608042 10.685797 1.610625
5.626817 7.900168 -1.190907
5.519265 7.746302 1.506464
5.516124 7.739035 -0.831466
5.558527 7.798527 1.861533
5.522842 7.745601 -0.498552
5.523530 7.743705 2.195972
5.525317 7.743353 -0.166042
5.546806 7.770598 2.558168
3.303195 4.615559 -1.520821
5.550281 7.752547 0.166426
3.700200 5.166482 -1.467131
9.715186 13.560035 0.874220
3.950489 5.513921 -1.318490
9.662529 13.481553 1.451143
4.734198 6.602919 -1.286830
7.612898 10.614010 1.603801
5.667091 7.898220 -1.193588
5.560091 7.746247 1.510219
5.552211 7.735268 -0.833035
5.602890 7.802999 1.867257
5.564995 7.747362 -0.499913
5.570994 7.752864 2.204070
5.566318 7.743504 -0.166461
5.581793 7.762167 2.561791
3.315896 4.599300 -1.519268
5.584325 7.742858 0.166636
3.727334 5.166176 -1.470730
9.714540 13.459639 0.869928
3.972012 5.503281 -1.319253
9.672204 13.396053 1.445565
4.746809 6.571939 -1.284014
7.610377 10.532663 1.595514
5.716720 7.908958 -1.198220
5.603304 7.749200 1.514599
5.592023 7.733599 -0.834952
5.636999 7.792935 1.869547
5.609566 7.752162 -0.501483
5.612880 7.753891 2.209919
5.612081 7.749939 -0.167020
5.629251 7.770796 2.571108
3.337608 4.595512 -1.521856
5.632475 7.752440 0.167264
3.747636 5.156288 -1.471630
9.718003 13.365877 0.866055
3.986578 5.483031 -1.317727
9.700152 13.336432 1.442776
4.765071 6.548942 -1.282763
7.614384 10.461096 1.588689
5.738448 7.880932 -1.197001
5.648930 7.755140 1.519605
5.635409 7.736577 -0.837392
5.679196 7.793839 1.874508
5.648359 7.748671 -0.502530
5.658285 7.759443 2.217118
5.646169 7.739997 -0.167229
5.663178 7.760461 2.574214
3.351349 4.580714 -1.520821
5.670129 7.747256 0.167578
3.769067 5.147891 -1.472980
9.759883 13.325424 0.865637
3.998735 5.459578 -1.315437
9.777260 13.344278 1.447308
4.787904 6.532267 -1.282763
7.613295 10.383224 1.580889
5.778836 7.878462 -1.199682
5.694663 7.760858 1.524610
5.678880 7.739348 -0.839833
5.721471 7.794541 1.879469
5.684824 7.741790 -0.503367
5.699178 7.758492 2.222516
5.699204 7.755691 -0.167997
5.707394 7.763996 2.581979
3.367317 4.568989 -1.520821
5.714940 7.751558 0.168102
3.799735 5.151955 -1.477928
9.737561 13.198064 0.859566
4.017766 5.445587 -1.315437
9.847447 13.342125 1.450794
4.802462 6.504391 -1.280573
7.618827 10.315071 1.574552
5.823999 7.882188 -1.203338
5.733462 7.756816 1.527739
5.720074 7.738703 -0.841924
5.761483 7.791888 1.883667
5.735570 7.754012 -0.505461
5.738978 7.755781 2.227465
5.735758 7.748608 -0.168276
5.757453 7.775078 2.592332
3.370579 4.540143 -1.515127
5.758657 7.754035 0.168590
3.828155 5.152740 -1.481978
9.877693 13.290627 0.867835
4.036752 5.431529 -1.315437
9.910606 13.330053 1.453235
4.814526 6.473324 -1.277757
7.626349 10.250188 1.568702
5.860960 7.874548 -1.205288
5.768756 7.747850 1.529929
5.756567 7.731479 -0.843319
5.806239 7.795345 1.889391
5.772151 7.746756 -0.506298
5.781151 7.756017 2.233314
5.774727 7.744569 -0.168625
5.786870 7.758029 2.593367
3.388718 4.531447 -1.516162
5.792874 7.743496 0.168800
3.855460 5.151826 -1.485577
9.980287 13.331211 0.872754
4.053335 5.414260 -1.314674
4.824066 6.439087 -1.274315
7.625180 10.174260 1.561146
5.895556 7.863574 -1.206750
5.817102 7.756110 1.535561
5.796671 7.728869 -0.845236
5.840487 7.784451 1.891680
5.817139 7.750522 -0.507868
5.826912 7.760722 2.240512
5.818541 7.746748 -0.169114
5.830159 7.759404 2.600614
3.409166 4.525762 -1.518233
5.839125 7.748778 0.169358
3.866380 5.129001 -1.482877
4.072206 5.400081 -1.314674
4.845322 6.420633 -1.274002
7.637917 10.117484 1.556515
5.954075 7.884131 -1.213088
5.865576 7.764127 1.541193
5.840430 7.730842 -0.847677
5.892476 7.796912 1.899694
5.848978 7.736540 -0.508287
5.865724 7.755876 2.245012
5.862432 7.748720 -0.169602
5.877031 7.765192 2.609414
3.416770 4.503060 -1.514609
5.883059 7.750652 0.169847
3.877191 5.106160 -1.480178
4.085094 5.378015 -1.312766
9.748287 12.828956 1.409657
4.864120 6.398961 -1.273064
7.656368 10.068637 1.553103
5.969535 7.847504 -1.210650
5.903406 7.757754 1.544008
5.889095 7.738947 -0.850814
5.932739 7.793478 1.903892
5.892883 7.738326 -0.509752
5.902206 7.747756 2.248611
5.902780 7.745703 -0.169986
5.919328 7.764600 2.616143
3.433640 4.492641 -1.515127
5.928298 7.753896 0.170370
3.899728 5.098785 -1.481978
4.100263 5.359046 -1.311621
9.698558 12.671438 1.396061
4.882825 6.377236 -1.272125
7.681809 10.029244 1.551153
6.041566 7.884920 -1.219669
5.940066 7.749641 1.546511
5.933045 7.740482 -0.853255
5.988576 7.810113 1.913051
5.942957 7.747817 -0.511741
5.950572 7.754934 2.256709
5.950478 7.752018 -0.170580
5.972275 7.777603 2.627531
3.448123 4.479097 -1.514609
5.974852 7.758503 0.170929
3.919878 5.088233 -1.482877
4.117747 5.343145 -1.311239
9.689208 12.568075 1.388391
4.905052 6.360156 -1.272125
6.237442 8.084880 1.253792
6.009626 7.786777 -1.207725
5.980355 7.746063 1.549953
5.963676 7.724459 -0.853778
6.030205 7.807806 1.917630
5.990726 7.753892 -0.513520
5.994287 7.755702 2.263008
5.989736 7.747019 -0.170929
6.004118 7.762821 2.629602
3.461369 4.463981 -1.513574
6.011701 7.750241 0.171208
3.942395 5.080676 -1.484677
4.137578 5.330288 -1.311621
9.693915 12.483824 1.382813
4.922378 6.336755 -1.270874
6.270500 8.069325 1.254767
6.078192 7.819041 -1.216012
6.030399 7.754766 1.555897
6.013844 7.733476 -0.857090
6.063452 7.794455 1.919539
6.032474 7.751849 -0.514777
6.042869 7.762412 2.271106
6.043774 7.760771 -0.171697
6.044236 7.758579 2.635296
3.474551 4.448827 -1.512539
6.053494 7.748118 0.171627
3.946904 5.049994 -1.479728
4.152528 5.311176 -1.310476
9.698157 12.399686 1.377235
4.940814 6.314867 -1.269935
6.298627 8.047390 1.254767
6.112793 7.807153 -1.217475
6.071915 7.754944 1.559965
6.059232 7.735962 -0.859704
6.102730 7.788698 1.923355
6.068122 7.741747 -0.515509
6.086764 7.762739 2.277405
6.087983 7.764292 -0.172220
6.096164 7.771932 2.646684
3.490061 4.436670 -1.512539
6.098934 7.753150 0.172185
3.968451 5.043003 -1.481528
4.180761 5.308987 -1.313529
9.704391 12.318806 1.372006
4.956840 6.292240 -1.268684
6.343708 8.049847 1.258423
6.147250 7.797752 -1.219181
6.119741 7.760072 1.565283
6.112112 7.747616 -0.863365
6.150410 7.796163 1.930224
6.116032 7.749804 -0.517393
6.124547 7.757808 2.281904
6.127440 7.758689 -0.172569
6.137625 7.768797 2.652895
3.504755 4.425072 -1.512539
6.139619 7.749055 0.172569
3.983610 5.026064 -1.480628
4.188587 5.282785 -1.310476
9.708042 12.239731 1.366776
4.984915 6.282635 -1.270248
6.392750 8.054085 1.262567
6.176898 7.779357 -1.219669
6.157850 7.752582 1.568099
6.157599 7.752265 -0.866154
6.194687 7.796164 1.935566
6.160444 7.750298 -0.518859
6.168571 7.757735 2.288202
6.156977 7.740381 -0.172639
6.187559 7.776048 2.662730
3.510541 4.400729 -1.508397
6.189085 7.755709 0.173198
3.999914 5.010606 -1.480178
4.203325 5.263531 -1.309331
5.000647 6.257482 -1.268684
6.440656 8.056531 1.266466
6.177982 7.725190 -1.214550
6.200916 7.751093 1.572167
6.194578 7.743171 -0.867548
6.243942 7.802085 1.942436
6.211178 7.758369 -0.520847
6.218756 7.765057 2.296750
6.203962 7.743814 -0.173198
6.224332 7.766461 2.666872
3.522253 4.383930 -1.506845
6.229898 7.751204 0.173582
4.014936 4.993576 -1.479278
4.225366 5.253415 -1.310476
5.008834 6.223062 -1.265242
6.489906 8.060283 1.270610
6.187479 7.681933 -1.211138
6.251481 7.758628 1.578111
6.237818 7.741671 -0.869814
6.288389 7.801640 1.947778
6.247000 7.747522 -0.521580
6.267845 7.770606 2.304848
6.257328 7.754791 -0.173931
6.270820 7.768737 2.675154
3.541177 4.376116 -1.508397
6.273275 7.749615 0.174035
4.036023 4.984073 -1.480628
4.238730 5.232534 -1.308950
5.033015 6.208607 -1.265868
6.525498 8.046835 1.272072
6.214255 7.660289 -1.211138
6.294709 7.756697 1.582178
6.281126 7.739960 -0.872080
6.332905 7.800982 1.953121
6.289113 7.744276 -0.522836
6.308449 7.765316 2.309798
6.305800 7.759280 -0.174524
6.317397 7.770785 2.683436
3.557652 4.365225 -1.508915
6.321771 7.754016 0.174629
4.048468 4.963915 -1.478828
26.888245 32.956516 2.229093
4.266900 5.229875 -1.312003
13.974827 17.122616 1.933637
5.042163 6.175701 -1.262739
6.567362 8.040917 1.274753
6.228399 7.623177 -1.208700
6.336747 7.753033 1.585933
6.327016 7.741128 -0.874695
6.379979 7.803149 1.959227
6.337605 7.748555 -0.524616
6.345387 7.755315 2.313397
6.353107 7.761985 -0.175083
6.367738 7.777084 2.693271
3.570418 4.349792 -1.507880
6.371635 7.759724 0.175257
4.063298 4.946740 -1.477928
26.995522 32.853191 2.228465
4.272667 5.199779 -1.308187
5.061182 6.155010 -1.262113
6.613047 8.039406 1.278166
6.227216 7.567670 -1.203338
6.380094 7.750691 1.590000
6.372996 7.742069 -0.877310
6.429644 7.808109 1.966096
6.390006 7.757221 -0.526709
6.391011 7.755675 2.320145
6.390340 7.752103 -0.175362
6.414507 7.778662 2.701553
3.581886 4.332837 -1.506327
6.419075 7.762090 0.175816
4.076816 4.928020 -1.476579
27.063587 32.714237 2.225116
4.292042 5.186347 -1.308568
14.937650 18.043697 2.049380
5.082637 6.137304 -1.262113
6.666397 8.046848 1.283041
6.243463 7.533658 -1.201388
6.422145 7.749265 1.594067
6.412700 7.735113 -0.879053
6.478164 7.811309 1.972583
6.433626 7.754850 -0.528070
6.444182 7.764809 2.329593
6.435170 7.753951 -0.175885
6.448907 7.767750 2.705177
3.594518 4.317337 -1.505292
6.455019 7.753053 0.176095
4.094379 4.915975 -1.477029
27.249189 32.705517 2.230977
4.308864 5.169824 -1.308187
5.096635 6.112831 -1.260549
6.710843 8.046041 1.286453
6.253152 7.494621 -1.198463
6.478271 7.761679 1.601263
6.470303 7.749390 -0.883236
6.507806 7.794307 1.973728
6.475953 7.753399 -0.529431
6.497384 7.776298 2.339491
6.473734 7.745254 -0.176199
6.493332 7.765939 2.712424
3.607573 4.303914 -1.504774
6.497458 7.748863 0.176514
4.104001 4.892693 -1.474329
22.050777 26.279099 1.797845
4.325984 5.155507 -1.308187
5.116671 6.093492 -1.260236
6.754211 8.040804 1.289378
6.274166 7.466670 -1.197488
6.524390 7.761702 1.605956
6.508856 7.740479 -0.884805
6.566563 7.809105 1.983269
6.518408 7.749085 -0.530687
6.544561 7.777429 2.346689
6.525201 7.751674 -0.176863
6.545290 7.772778 2.722776
3.619583 4.286235 -1.503221
6.550270 7.756693 0.177212
4.127344 4.885780 -1.476579
4.349919 5.145616 -1.309713
13.569079 16.045469 1.838463
5.131313 6.065649 -1.258359
6.804032 8.042945 1.293521
6.287366 7.429572 -1.195051
6.571867 7.763001 1.610962
6.561586 7.748123 -0.888291
6.614174 7.807457 1.988993
6.560969 7.741905 -0.531838
6.593185 7.777175 2.353888
6.583252 7.765459 -0.177700
6.598616 7.780828 2.733647
3.639530 4.279460 -1.505292
6.604573 7.763093 0.177910
4.138907 4.863200 -1.474329
4.370400 5.133389 -1.310476
13.684427 16.067783 1.846482
5.147333 6.041685 -1.257107
6.854070 8.042125 1.297421
6.314556 7.406476 -1.195051
6.609175 7.752040 1.613465
6.602816 7.741845 -0.890209
6.660503 7.806723 1.994717
6.615180 7.750859 -0.534036
6.649396 7.788197 2.364236
6.615515 7.748513 -0.177840
6.643303 7.778311 2.740894
3.636852 4.246189 -1.498045
6.651092 7.765450 0.178468
4.156279 4.850929 -1.474779
4.398515 5.130026 -1.313529
6.917558 8.065159 0.929603
5.175055 6.033580 -1.258985
6.905263 8.047974 1.302052
6.326151 7.370432 -1.192613
6.658070 7.754404 1.618784
6.650573 7.742930 -0.892998
6.708103 7.809909 2.001205
6.665576 7.757665 -0.536025
6.695513 7.789748 2.371434
6.662079 7.748116 -0.178364
6.689309 7.777046 2.748658
3.654698 4.238493 -1.499598
6.691221 7.757326 0.178817
4.174458 4.837868 -1.475229
6.940257 8.040365 0.556645
4.436029 5.139189 -1.319635
6.940361 8.037649 0.929080
5.178008 5.994549 -1.254605
6.947588 8.040344 1.304733
6.346651 7.342297 -1.191639
6.708357 7.758009 1.624416
6.694456 7.741933 -0.895438
6.753304 7.807235 2.006547
6.713527 7.758513 -0.537700
6.741793 7.788432 2.378183
6.715264 7.755049 -0.179062
6.729066 7.768247 2.753835
3.675803 4.233004 -1.502186
6.735305 7.753550 0.179271
4.187487 4.818853 -1.473879
6.968279 8.016091 0.556645
4.471972 5.144418 -1.324978
14.429633 16.593552 1.923876
5.193714 5.970477 -1.253353
6.996460 8.040005 1.308633
6.374846 7.323093 -1.192126
6.765231 7.768810 1.631612
6.748916 7.750074 -0.899099
6.795992 7.801377 2.011127
6.757628 7.754604 -0.539060
6.794548 7.794231 2.387181
6.769895 7.763209 -0.179795
6.779002 7.770914 2.763152
3.690556 4.220148 -1.502186
6.779448 7.749556 0.179725
4.200433 4.799806 -1.472530
4.498953 5.139118 -1.327649
14.277452 16.303257 1.895986
5.211921 5.949338 -1.252727
7.046723 8.040915 1.312777
6.387285 7.285868 -1.189689
6.809242 7.764452 1.635679
6.796947 7.750433 -0.901888
6.847776 7.805652 2.018378
6.800463 7.748984 -0.540316
6.838429 7.789503 2.393029
6.819379 7.765078 -0.180388
6.831585 7.776231 2.773505
3.707819 4.210139 -1.503221
6.835538 7.758856 0.180493
4.215872 4.783653 -1.472080
4.528551 5.136635 -1.331084
14.611026 16.567118 1.932591
5.230042 5.928148 -1.252102
7.104961 8.050499 1.318383
6.407425 7.257574 -1.188714
6.848071 7.753964 1.638495
6.850337 7.756530 -0.905374
6.895782 7.805240 2.024484
6.856570 7.758121 -0.542619
6.879775 7.781646 2.397978
6.853069 7.748714 -0.180563
6.894532 7.792848 2.787999
3.710958 4.184162 -1.498562
6.886466 7.761874 0.181121
4.235134 4.771822 -1.472980
9.727777 10.956656 0.767873
4.559490 5.135476 -1.334900
9.728453 10.953578 1.281712
5.245456 5.903946 -1.250850
7.148847 8.043452 1.321308
6.437991 7.241102 -1.189689
6.902667 7.761007 1.645065
6.886641 7.742989 -0.906594
6.947782 7.808988 2.031734
6.906178 7.759507 -0.544399
6.931519 7.785236 2.406527
6.904017 7.751623 -0.181191
6.925543 7.773066 2.789552
3.724252 4.169742 -1.498045
6.932172 7.758663 0.181610
4.250463 4.755559 -1.472530
9.752648 10.907746 0.766827
4.593090 5.137093 -1.339479
14.760858 16.503326 1.937124
5.258132 5.876766 -1.248973
7.208652 8.053949 1.327157
6.449989 7.203794 -1.187251
6.948168 7.757463 1.649445
6.933568 7.741163 -0.909209
6.984167 7.794925 2.034406
6.955886 7.760635 -0.546178
6.978168 7.782755 2.413275
6.968418 7.769159 -0.182168
6.975858 7.774724 2.798869
3.745245 4.163898 -1.500633
6.983287 7.761178 0.182238
4.248786 4.720414 -1.466231
4.629387 5.141453 -1.344822
15.117059 16.783316 1.976169
5.275965 5.855445 -1.248347
7.248685 8.042006 1.329351
6.475094 7.181237 -1.187251
7.000306 7.763726 1.655703
6.984562 7.743548 -0.912346
7.024487 7.785072 2.038222
7.008361 7.764475 -0.548167
7.023571 7.778603 2.419574
7.020944 7.775693 -0.182866
7.021028 7.773051 2.806634
3.746785 4.136483 -1.495457
7.025094 7.755764 0.182657
4.261800 4.703410 -1.465331
4.648621 5.126720 -1.345204
15.304061 16.872110 1.992903
5.295355 5.837915 -1.248347
7.301991 8.047328 1.334226
6.482860 7.142088 -1.184326
7.055252 7.769953 1.662273
7.043704 7.754515 -0.916530
7.079305 7.793708 2.046618
7.038095 7.745631 -0.548481
7.068991 7.776898 2.426322
7.060153 7.764452 -0.183180
7.071514 7.774220 2.815951
3.770896 4.135455 -1.499598
7.076383 7.757785 0.183285
4.280820 4.691382 -1.466231
4.682804 5.130125 -1.350165
5.307708 5.810643 -1.246470
8.936912 9.780313 1.626712
6.502396 7.113552 -1.183351
7.096996 7.761312 1.665714
7.089553 7.750463 -0.918970
7.128991 7.793577 2.053105
7.096102 7.754904 -0.550888
7.119780 7.778047 2.434420
7.102066 7.755984 -0.183564
7.133839 7.787953 2.829928
3.772960 4.107378 -1.494421
7.127771 7.759543 0.183913
4.291893 4.670674 -1.464431
4.716194 5.128823 -1.354362
5.331644 5.794059 -1.247096
8.938739 9.713998 1.620862
6.524501 7.087889 -1.182864
7.156158 7.771368 1.673223
7.135464 7.746182 -0.921411
7.182788 7.794826 2.060356
7.147492 7.753807 -0.552668
7.175982 7.781987 2.443868
7.145367 7.748786 -0.183983
7.172771 7.775782 2.834586
3.784651 4.091347 -1.493386
7.179251 7.758319 0.184507
4.314279 4.660631 -1.466231
4.750074 5.129616 -1.358942
5.341097 5.763820 -1.244593
8.976979 9.684085 1.621350
6.545035 7.058107 -1.181889
7.207417 7.772414 1.678855
7.188208 7.748980 -0.924722
7.227312 7.788415 2.065317
7.201689 7.758087 -0.554761
7.225647 7.781164 2.451517
7.213194 7.767754 -0.185030
7.231424 7.784668 2.847010
3.812078 4.092246 -1.498562
7.228113 7.759341 0.185100
4.320410 4.636320 -1.463082
4.788036 5.134540 -1.364666
5.352092 5.737413 -1.242715
9.000921 9.645553 1.619887
6.568406 7.036363 -1.181889
7.258770 7.773198 1.684487
7.235612 7.745681 -0.927337
7.274545 7.787359 2.071423
7.245106 7.753131 -0.556122
7.276694 7.784210 2.460065
7.253922 7.757136 -0.185379
7.277032 7.779127 2.854257
3.816376 4.069718 -1.494939
7.279778 7.760316 0.185729
4.335236 4.619789 -1.462632
26.519093 28.249853 2.030635
4.825191 5.140106 -1.370390
15.777413 16.801245 2.016435
5.372088 5.718694 -1.242715
8.996469 9.573571 1.613063
6.584768 7.004715 -1.180427
7.312926 7.776592 1.690744
7.291285 7.753579 -0.931172
7.316478 7.777649 2.075620
7.295393 7.752522 -0.557901
7.319849 7.775791 2.465464
7.315227 7.768165 -0.186252
7.330633 7.781804 2.864609
3.834537 4.060587 -1.496492
7.339781 7.769744 0.186566
4.351336 4.604627 -1.462632
26.595585 28.133896 2.028960
4.848498 5.128939 -1.371917
15.844182 16.754749 2.017481
5.392019 5.699906 -1.242715
8.997084 9.507507 1.607213
6.595534 6.967269 -1.177989
7.350895 7.762490 1.693247
7.344336 7.755564 -0.934484
7.374636 7.784846 2.084398
7.349887 7.756002 -0.559995
7.372420 7.777061 2.474012
7.356056 7.757093 -0.186601
7.384345 7.784196 2.874962
3.839370 4.037376 -1.492868
7.383396 7.761464 0.186985
4.370069 4.592234 -1.463532
4.882617 5.129046 -1.376496
15.910811 16.708002 2.018527
5.411881 5.681051 -1.242715
8.989136 9.432929 1.599901
6.628030 6.952826 -1.179452
7.403846 7.763947 1.699191
7.387861 7.747184 -0.936576
7.418028 7.776100 2.088977
7.396219 7.750529 -0.561460
7.430471 7.783701 2.484360
7.413474 7.763183 -0.187369
7.431491 7.779325 2.882727
3.849431 4.019765 -1.491315
7.427041 7.752974 0.187404
4.387422 4.578358 -1.463982
4.920868 5.133231 -1.382221
15.938695 16.620728 2.014692
5.423476 5.653571 -1.240838
8.961534 9.338470 1.589176
6.652258 6.929649 -1.179452
7.455533 7.763699 1.704823
7.439702 7.747213 -0.939713
7.458730 7.764316 2.092793
7.456440 7.759228 -0.563972
7.483258 7.784408 2.492908
7.459935 7.757436 -0.187858
7.493417 7.789539 2.896185
3.868804 4.011865 -1.493386
7.484605 7.758661 0.188172
4.393901 4.553201 -1.460832
9.743425 10.093138 0.735216
4.953757 5.131558 -1.386418
5.432194 5.623243 -1.238335
8.789915 9.095868 1.553103
6.659853 6.889257 -1.176527
7.512793 7.768873 1.711706
7.499935 7.755576 -0.943897
7.517181 7.770689 2.101570
7.505704 7.756114 -0.565647
7.540206 7.789039 2.502805
7.523135 7.768699 -0.188765
7.535350 7.778596 2.901879
3.876056 3.991405 -1.490798
7.542294 7.764044 0.188940
4.401620 4.529450 -1.458133
9.745189 10.024693 0.732703
4.989431 5.132535 -1.391379
5.460055 5.612741 -1.240213
8.071251 8.294051 1.420997
6.678319 6.860281 -1.175552
7.571566 7.775148 1.718902
7.547813 7.750758 -0.946511
7.571661 7.772524 2.109203
7.560609 7.758478 -0.567740
7.586388 7.782213 2.509104
7.571151 7.763864 -0.189289
7.594830 7.785435 2.914303
3.895365 3.983378 -1.492868
7.600117 7.769116 0.189708
4.420131 4.516842 -1.459033
9.728086 9.940934 0.728935
5.016926 5.124910 -1.394051
5.471322 5.585180 -1.238335
8.100148 8.265833 1.420997
6.693890 6.828420 -1.174089
7.624966 7.778208 1.725160
7.612490 7.762770 -0.951218
7.622113 7.769877 2.115690
7.617024 7.761972 -0.569939
7.638081 7.780714 2.517202
7.629073 7.771537 -0.190092
7.649030 7.789155 2.925173
3.903825 3.964250 -1.490798
7.651092 7.769518 0.190336
4.446027 4.513265 -1.462632
9.737492 9.881310 0.727051
5.052704 5.125541 -1.399012
5.489814 5.567004 -1.238335
8.860806 8.982265 1.549203
6.710918 6.800534 -1.173114
7.671501 7.771223 1.729540
7.663338 7.760252 -0.954181
7.683705 7.780877 2.125612
7.660967 7.755144 -0.571299
7.702197 7.794152 2.529799
7.675834 7.764771 -0.190580
7.699266 7.785757 2.933973
3.904710 3.938933 -1.486139
7.692245 7.756964 0.190685
4.453516 4.489419 -1.459932
9.729723 9.804728 0.723911
5.082121 5.121298 -1.402446
9.741390 9.813069 1.209722
5.496682 5.535195 -1.235520
6.729020 6.771432 -1.172139
7.725037 7.771021 1.735484
7.719931 7.765885 -0.958016
7.730202 7.773496 2.130955
7.718982 7.759504 -0.573602
7.748596 7.786562 2.536098
7.729698 7.764854 -0.191243
7.748210 7.780734 2.942255
3.927988 3.934850 -1.489762
7.751776 7.762609 0.191488
4.456767 4.461437 -1.455883
9.728591 9.735388 0.721294
5.113843 5.117415 -1.406262
9.724878 9.728275 1.203447
5.513178 5.513180 -1.234894
8.979454 8.976322 1.558953
6.752614 6.747904 -1.172139
7.775875 7.767739 1.740803
7.779413 7.771274 -0.962025
7.786461 7.775599 2.138969
7.774289 7.760735 -0.575696
7.801939 7.785620 2.544646
7.793566 7.774543 -0.192151
7.809518 7.787744 2.955196
3.944438 3.923841 -1.490798
7.804350 7.760882 0.192116
4.470930 4.444480 -1.455433
9.727095 9.666175 0.718677
5.141422 5.109222 -1.408934
9.724855 9.660567 1.199263
5.526781 5.488335 -1.233642
8.996641 8.930941 1.556515
6.753585 6.701918 -1.168240
7.836598 7.773939 1.748312
7.843267 7.780555 -0.966557
7.840040 7.774639 2.146220
7.824028 7.756046 -0.577370
7.853983 7.783030 2.552745
7.849065 7.775442 -0.192849
7.866857 7.790340 2.966584
3.951241 3.903260 -1.488210
7.857003 7.758885 0.192744
4.485031 4.427476 -1.454983
9.730926 9.602700 0.716479
5.150842 5.082968 -1.406644
9.704618 9.573396 1.192639
5.545907 5.469008 -1.233642
9.101275 8.971946 1.569190
6.776937 6.678304 -1.168240
7.884797 7.767329 1.753005
7.912962 7.795074 -0.971786
7.888116 7.767886 2.151944
7.890906 7.767921 -0.580301
7.918608 7.792470 2.564892
7.898969 7.770432 -0.193408
7.921549 7.789925 2.976937
3.970356 3.894855 -1.490280
7.918304 7.765017 0.193582
4.503243 4.414521 -1.455883
9.728722 9.533729 0.713862
5.164345 5.060836 -1.405499
9.718048 9.519944 1.190199
5.572022 5.456525 -1.235207
9.169418 8.976229 1.575527
6.800205 6.654609 -1.168240
7.942930 7.770146 1.759888
7.970035 7.796661 -0.975447
7.948868 7.773249 2.161103
7.935113 7.757082 -0.581557
7.976424 7.794744 2.574790
7.953222 7.769364 -0.194071
7.979102 7.791918 2.988325
3.975626 3.872884 -1.487174
7.968281 7.759653 0.194141
4.520020 4.400135 -1.456333
9.731885 9.470457 0.711664
5.196051 5.056469 -1.409315
9.716943 9.452623 1.186015
5.571207 5.417763 -1.230826
9.232013 8.974607 1.580889
6.814853 6.622529 -1.166777
8.004008 7.775409 1.767397
8.022923 7.793784 -0.978585
8.002716 7.771440 2.168354
8.002267 7.768290 -0.584488
8.023163 7.785856 2.581089
8.007566 7.768007 -0.194734
8.038148 7.794952 3.000231
3.983566 3.853611 -1.485104
8.031259 7.766542 0.195013
4.533950 4.382977 -1.455883
9.746211 9.418387 0.710304
5.210845 5.035573 -1.408552
9.724088 9.393728 1.182878
5.587244 5.395536 -1.230201
9.234716 8.914752 1.576014
6.832213 6.593188 -1.165802
8.055271 7.770735 1.772716
8.087364 7.801694 -0.983117
8.066536 7.778893 2.178276
8.052340 7.762490 -0.586163
8.082567 7.788901 2.591436
8.072080 7.776078 -0.195641
8.090354 7.790968 3.009548
3.988636 3.831650 -1.481998
8.090053 7.768929 0.195781
4.537975 4.356328 -1.452284
9.741563 9.348351 0.707582
5.228393 5.017352 -1.408552
9.716563 9.321104 1.177997
5.616021 5.385575 -1.232391
9.217059 8.835754 1.567727
6.849455 6.563803 -1.164827
8.118004 7.776738 1.780537
8.150512 7.807879 -0.987475
8.126256 7.781916 2.187053
8.111130 7.764717 -0.588466
8.146307 7.795676 2.603134
8.125181 7.772736 -0.196270
8.151011 7.794722 3.021971
4.001987 3.817703 -1.481998
8.146063 7.768245 0.196479
4.555976 4.343150 -1.453184
9.740704 9.285680 0.705279
5.237348 4.990943 -1.406262
9.743268 9.281636 1.177300
5.631926 5.363213 -1.231765
9.331240 8.882910 1.581864
6.872324 6.539855 -1.164827
8.172370 7.777008 1.786795
8.212363 7.812336 -0.991658
8.171867 7.771089 2.192014
8.178713 7.774889 -0.591396
8.200312 7.792697 2.611682
8.174104 7.767792 -0.196828
8.210432 7.799580 3.034395
4.011079 3.799727 -1.480445
8.199360 7.767320 0.197142
4.564694 4.322656 -1.451384
9.752754 9.232396 0.703814
5.257586 4.975334 -1.407026
9.735085 9.209229 1.172419
5.646811 5.341791 -1.231139
9.396701 8.886018 1.587958
6.879546 6.503395 -1.162390
8.231055 7.778280 1.793678
8.261312 7.804143 -0.994273
8.250395 7.793831 2.206134
8.230587 7.772409 -0.593280
8.254452 7.792212 2.620680
8.241893 7.777637 -0.197806
8.257276 7.789437 3.041642
4.020844 3.783756 -1.479410
8.258469 7.768793 0.197910
4.576913 4.304029 -1.450484
9.776189 9.190092 0.703186
5.274058 4.957870 -1.407026
5.656781 5.313935 -1.229262
9.751804 9.157556 1.642555
6.905102 6.482057 -1.162877
8.291288 7.780588 1.800874
8.316205 7.803970 -0.997759
8.287572 7.774388 2.208805
8.304291 7.787348 -0.596630
8.315725 7.795336 2.631478
8.304009 7.781639 -0.198643
8.314025 7.788300 3.052512
4.038263 3.773654 -1.480963
8.314760 7.767221 0.198608
4.586214 4.282706 -1.448685
9.793610 9.142278 0.702139
5.288463 4.936749 -1.406262
5.679630 5.298198 -1.230201
9.788069 9.127519 1.643286
6.918973 6.449793 -1.161415
8.344404 7.775846 1.806505
8.379829 7.808857 -1.002117
8.357758 7.785555 2.220254
8.360655 7.785538 -0.598723
8.378539 7.799461 2.642725
8.360402 7.779848 -0.199341
8.377939 7.793439 3.065971
4.048577 3.756910 -1.479927
8.371145 7.765346 0.199306
4.595420 4.261369 -1.446885
5.305659 4.918262 -1.406262
5.689396 5.270285 -1.228324
9.814037 9.087908 1.642311
6.935619 6.420207 -1.160440
8.413635 7.788386 1.815892
8.442135 7.812032 -1.006300
8.419470 7.788332 2.229413
8.420043 7.786135 -0.601026
8.432904 7.795298 2.651273
8.422864 7.786017 -0.200214
8.430693 7.790526 3.075806
4.061667 3.742753 -1.479927
8.435082 7.772778 0.200214
4.620994 4.256668 -1.450484
5.311241 4.889074 -1.403209
9.295210 8.553370 1.105135
5.698122 5.243361 -1.226446
9.265573 8.523121 1.545791
6.948102 6.389111 -1.158978
8.464042 7.780357 1.820897
8.506028 7.816221 -1.010658
8.465488 7.778968 2.234755
8.475232 7.785194 -0.603120
8.490289 7.796286 2.661171
8.480926 7.784968 -0.200947
8.494843 7.795012 3.089264
4.065507 3.721436 -1.476822
8.500520 7.778388 0.201122
4.630070 4.235254 -1.448685
9.307970 8.511269 0.661003
5.330324 4.874083 -1.403973
9.279405 8.482175 1.099905
5.733888 5.239431 -1.230201
9.265956 8.463946 1.540916
6.964501 6.359463 -1.158003
8.524703 7.781396 1.828093
8.552505 7.806773 -1.013098
8.543350 7.795684 2.248112
8.534822 7.785173 -0.605422
8.549129 7.795491 2.671069
8.531696 7.776868 -0.201505
8.554846 7.795236 3.101170
4.075613 3.704624 -1.475786
8.551302 7.770183 0.201680
4.643384 4.217754 -1.448235
9.306569 8.450532 0.658805
5.356024 4.863366 -1.406262
9.279449 8.422952 1.096419
5.741901 5.210093 -1.228011
9.268976 8.407547 1.536529
6.989597 6.337782 -1.158490
8.588403 7.784760 1.835915
8.613654 7.807649 -1.017107
8.602518 7.794814 2.256507
8.601911 7.791537 -0.608249
8.618177 7.803535 2.684116
8.588445 7.773877 -0.202204
8.617814 7.797732 3.114111
4.074180 3.677430 -1.470610
8.619945 7.777792 0.202657
4.650842 4.194995 -1.445985
9.310797 8.395255 0.657026
5.358389 4.831492 -1.402446
9.291037 8.374499 1.094327
5.761518 5.191342 -1.228324
9.264344 8.344581 1.530923
6.996926 6.300060 -1.156053
8.647822 7.783809 1.842798
8.677760 7.808008 -1.021291
8.651566 7.784438 2.262232
8.652817 7.782831 -0.609923
8.677244 7.802072 2.694014
8.658656 7.782618 -0.203216
8.670849 7.790842 3.123428
4.102018 3.675365 -1.475786
8.685761 7.782352 0.203565
4.659651 4.173533 -1.444186
9.307306 8.333395 0.654723
5.373134 4.809203 -1.401683
9.294940 8.316479 1.091190
5.774619 5.164921 -1.227072
9.268262 8.289697 1.526779
7.009995 6.267661 -1.154590
8.714708 7.789115 1.851246
8.748048 7.816167 -1.026346
8.721036 7.789297 2.272917
8.697671 7.765700 -0.611075
8.737768 7.798760 2.703912
8.720080 7.782973 -0.204019
8.736910 7.795255 3.137405
4.119153 3.664875 -1.477339
8.748597 7.781029 0.204368
4.677829 4.159018 -1.445086
9.309425 8.274014 0.652734
5.389890 4.790416 -1.401683
9.183908 8.159588 1.074805
5.795567 5.147357 -1.227698
9.277802 8.237217 1.523367
7.032921 6.241924 -1.154590
8.768317 7.779411 1.856565
8.806451 7.810490 -1.029832
8.780488 7.787463 2.281312
8.763584 7.769739 -0.613796
8.797022 7.796650 2.713809
8.775493 7.774828 -0.204647
8.800133 7.793918 3.149828
4.118078 3.636966 -1.472163
8.811674 7.782214 0.205205
4.695241 4.145242 -1.445985
9.139085 8.065698 0.638813
5.401522 4.765435 -1.400156
9.206280 8.119286 1.073933
5.814394 5.126080 -1.227698
9.273739 8.175902 1.518005
7.048708 6.212088 -1.153615
8.839887 7.787928 1.865950
8.865058 7.807357 -1.033493
8.859071 7.799339 2.294287
8.835481 7.775835 -0.616832
8.867974 7.801677 2.726857
8.843117 7.779809 -0.205589
8.853395 7.786118 3.159145
4.127400 3.623456 -1.471645
8.875156 7.788789 0.206113
4.700915 4.124045 -1.443736
9.289017 8.146246 0.647501
5.403831 4.739030 -1.397104
9.290255 8.144471 1.080905
5.820663 5.100995 -1.225821
9.287436 8.136261 1.516055
7.059228 6.182067 -1.152153
8.898494 7.790048 1.873147
8.925661 7.813831 -1.037851
8.898427 7.787239 2.298485
8.896096 7.782458 -0.619448
8.933619 7.812540 2.739904
8.902141 7.782262 -0.206392
8.914181 7.790044 3.172086
4.138564 3.607759 -1.471128
8.935458 7.786662 0.206881
4.707936 4.101210 -1.441486
9.324921 8.120336 0.648024
5.417375 4.717564 -1.396340
9.296089 8.092368 1.078291
5.826513 5.070270 -1.223318
9.270843 8.064713 1.508743
7.077771 6.154781 -1.151665
8.967377 7.795223 1.881907
8.987468 7.812687 -1.041860
8.970007 7.794769 2.309934
8.953362 7.777555 -0.621542
8.993210 7.809416 2.749802
8.965488 7.782607 -0.207230
8.986550 7.798133 3.188133
4.159897 3.600876 -1.474233
9.003415 7.790751 0.207823
4.719275 4.082202 -1.440587
9.318463 8.057687 0.645616
5.446515 4.707942 -1.399393
9.297151 8.036414 1.075153
5.865101 5.067984 -1.227698
9.280912 8.016727 1.505818
7.090198 6.122252 -1.150203
9.033410 7.797435 1.890041
9.037159 7.797918 -1.044300
9.034200 7.792608 2.319093
9.006008 7.765557 -0.623217
9.045502 7.799611 2.757450
9.035012 7.787817 -0.208207
9.045914 7.794456 3.199521
4.164275 3.578053 -1.471128
9.077416 7.796790 0.208870
4.737163 4.067416 -1.441486
9.319136 7.998765 0.643628
5.442873 4.670053 -1.394051
9.305372 7.984124 1.072713
5.892635 5.054168 -1.229575
9.278584 7.955526 1.500699
7.103546 6.088475 -1.148741
9.087431 7.786120 1.895360
9.073243 7.771226 -1.045172
9.104457 7.795199 2.329778
9.078416 7.770156 -0.626252
9.109562 7.796815 2.768248
9.096922 7.783254 -0.208975
9.125803 7.805199 3.217638
4.165603 3.552736 -1.466986
9.142451 7.794606 0.209708
4.746105 4.044971 -1.439687
9.322681 7.945456 0.641953
5.453166 4.645930 -1.392524
9.301201 7.921546 1.068878
5.935184 5.053026 -1.234581
9.289545 7.906019 1.497774
7.121733 6.061067 -1.148253
9.153671 7.787634 1.903495
9.083622 7.725306 -1.043254
9.167512 7.793887 2.338937
9.155704 7.781104 -0.629706
9.194633 7.814189 2.785794
9.163661 7.785112 -0.209883
9.192754 7.807059 3.231615
4.189153 3.548893 -1.471128
9.200294 7.791386 0.210441
4.771393 4.039281 -1.443286
9.324590 7.893847 0.640278
5.474534 4.632898 -1.394051
9.304600 7.871357 1.066263
5.963976 5.043519 -1.237084
9.292967 7.855953 1.494118
7.144821 6.039985 -1.148741
9.233760 7.803140 1.914758
9.100060 7.687424 -1.042208
9.223304 7.788779 2.346569
9.216558 7.780334 -0.632114
9.256232 7.813826 2.796592
9.226107 7.785630 -0.210720
9.237786 7.792727 3.238344
4.183161 3.520055 -1.464916
9.261279 7.790438 0.211244
4.768354 4.009642 -1.438337
9.324568 7.838120 0.638394
5.489868 4.614717 -1.394051
9.304722 7.818667 1.063300
5.992767 5.033880 -1.239587
9.294645 7.804667 1.490219
7.156740 6.007348 -1.147278
9.309367 7.811490 1.924770
9.120922 7.653365 -1.041685
9.291197 7.793480 2.357255
9.265266 7.768974 -0.633684
9.311830 7.805251 2.805140
9.296144 7.789340 -0.211698
9.306397 7.795169 3.252838
4.204318 3.512864 -1.468022
9.337530 7.799081 0.212361
4.776337 3.987978 -1.436537
9.339602 7.795286 0.637557
5.511971 4.600559 -1.395577
9.341140 7.793797 1.064346
6.040641 5.038237 -1.245844
9.341651 7.788702 1.493387
7.162418 5.969618 -1.144841
9.385142 7.819411 1.934782
9.129211 7.606178 -1.039594
9.363600 7.798695 2.368703
9.330703 7.768531 -0.636301
9.371969 7.800127 2.815037
9.361710 7.788815 -0.212570
9.398905 7.816987 3.275614
4.222502 3.503099 -1.470092
9.412413 7.806014 0.213443
4.787229 3.968792 -1.435638
9.383674 7.776654 0.638708
5.515904 4.571267 -1.392524
9.402040 7.789107 1.068181
6.082535 5.037278 -1.250850
9.407011 7.787691 1.499481
7.180152 5.942050 -1.144353
9.445867 7.814301 1.941665
9.150889 7.567586 -1.038896
9.431617 7.799741 2.379007
9.408561 7.777910 -0.639755
9.438198 7.799639 2.826735
9.410421 7.773921 -0.213059
9.467842 7.818575 3.290108
4.211452 3.467952 -1.461810
9.475107 7.802350 0.214246
4.804062 3.954535 -1.436537
9.461654 7.785732 0.642162
5.529589 4.548527 -1.391761
9.470540 7.787494 1.072713
6.114689 5.026241 -1.253666
9.490876 7.801448 1.508499
7.188582 5.906867 -1.142403
9.528039 7.826417 1.952928
9.166469 7.526748 -1.037676
9.498080 7.796258 2.388547
9.486414 7.783912 -0.643104
9.511922 7.802071 2.840232
9.480791 7.776536 -0.214036
9.527943 7.812424 3.301496
4.229513 3.458122 -1.463881
9.543898 7.800469 0.215153
4.818524 3.936900 -1.436537
9.528990 7.785511 0.644884
5.530225 4.516779 -1.387945
9.543963 7.792192 1.077942
6.147502 5.017355 -1.256795
9.567086 7.805514 1.516055
7.219413 5.888010 -1.143866
9.610409 7.838059 1.964191
9.174157 7.479596 -1.035585
9.555672 7.787864 2.396179
9.547592 7.778506 -0.645407
9.576876 7.799583 2.851480
9.554396 7.781276 -0.215083
9.591109 7.808393 3.313919
4.238560 3.440902 -1.462845
9.613182 7.804070 0.216131
4.822475 3.913530 -1.433838
9.596435 7.784918 0.647605
5.549009 4.499919 -1.388708
9.614444 7.793958 1.082823
6.194798 5.021819 -1.263052
9.616054 7.792490 1.519711
7.232727 5.859040 -1.142891
9.674556 7.834297 1.971700
9.189368 7.438753 -1.034364
9.633326 7.798134 2.409154
9.610594 7.776958 -0.647919
9.669353 7.821706 2.871275
9.621926 7.780571 -0.215991
9.661875 7.810086 3.328931
4.249948 3.426826 -1.462845
9.680846 7.803091 0.217038
4.833069 3.894231 -1.432938
9.653106 7.775174 0.649594
5.566960 4.483955 -1.389471
9.680583 7.794521 1.087355
6.244602 5.026179 -1.269622
9.686504 7.793718 1.526536
7.240762 5.823802 -1.140941
9.760338 7.847521 1.983589
9.201562 7.398253 -1.032970
9.707928 7.802585 2.420985
9.684395 7.780889 -0.651059
9.713305 7.801336 2.876224
9.692689 7.781988 -0.216968
9.717707 7.799284 3.338766
4.261884 3.411969 -1.462845
9.754862 7.806738 0.218085
4.846634 3.877335 -1.432938
9.734782 7.785089 0.653257
5.570313 4.454684 -1.386418
9.760643 7.802984 1.093282
6.280628 5.019147 -1.273377
9.758629 7.795785 1.533604
7.257943 5.796016 -1.140453
9.824725 7.842978 1.991098
9.236675 7.373544 -1.034016
9.781142 7.805385 2.432433
9.758334 7.784404 -0.654200
9.780094 7.798970 2.887922
9.777653 7.794224 -0.218260
9.790195 7.801436 3.354295
4.267716 3.392266 -1.460775
9.813367 7.797516 0.218783
4.863190 3.862818 -1.433838
9.796511 7.781342 0.655665
5.588901 4.437658 -1.387182
9.819034 7.793636 1.096768
6.318227 5.013153 -1.277444
9.833991 7.799922 1.541160
7.268799 5.763244 -1.138991
9.900213 7.849625 2.001110
9.228008 7.314029 -1.030181
9.849872 7.804120 2.442737
9.819894 7.777572 -0.656502
9.862263 7.808328 2.904118
9.814418 7.770448 -0.218504
9.849336 7.795305 3.365683
4.279533 3.377347 -1.460775
9.873704 7.792188 0.219551
4.872912 3.844258 -1.432938
9.880073 7.791618 0.659433
5.601275 4.415690 -1.386418
9.893120 7.796317 1.101997
6.358086 5.010518 -1.282137
9.901907 7.800433 1.547741
7.287869 5.739110 -1.138991
9.255047 7.283006 -1.030355
9.906555 7.795693 2.450369
9.894293 7.783247 -0.659747
9.899650 7.781869 -0.219796
4.295271 3.366711 -1.462328
9.948064 7.794677 0.220598
4.874029 3.817610 -1.429339
9.944954 7.786632 0.661945
5.609705 4.392249 -1.384892
9.972266 7.805217 1.107924
6.395764 5.004116 -1.286204
9.972858 7.800061 1.554565
7.314113 5.718527 -1.139966
9.282286 7.254730 -1.030704
9.956029 7.775711 -0.662050
9.972471 7.782942 -0.220808
4.300897 3.346955 -1.460257
10.009938 7.786914 0.221366
4.887326 3.800572 -1.429339
9.997298 7.771489 0.663620
5.637400 4.382283 -1.387945
9.895618 7.689670 1.096419
6.445953 5.007206 -1.292775
7.302668 5.668615 -1.135091
9.290240 7.208848 -1.028786
10.025729 7.773952 -0.664876
10.064385 7.798303 -0.222239
4.311026 3.330739 -1.459739
4.902105 3.784681 -1.429789
5.640230 4.352982 -1.384892
6.480598 4.997947 -1.296216
7.325558 5.645512 -1.135579
9.312189 7.173944 -1.028438
12.358685 9.514030 -0.817383
4.313428 3.308616 -1.456634
4.916834 3.768730 -1.430239
5.646039 4.326103 -1.382602
6.526238 4.996910 -1.301848
7.338912 5.615083 -1.134604
9.326097 7.132919 -1.027218
12.245825 9.359255 -0.807753
4.329563 3.297050 -1.458187
4.933060 3.753906 -1.431139
5.661107 4.306367 -1.382602
6.553076 4.981272 -1.303725
7.358467 5.589432 -1.134604
9.347763 7.097914 -1.026869
12.259326 9.301968 -0.806497
4.339505 3.280751 -1.457669
4.932141 3.726090 -1.427089
5.679239 4.288945 -1.383365
6.595654 4.977404 -1.308731
7.368421 5.556542 -1.133141
9.359757 7.055645 -1.025474
12.314054 9.275945 -0.807963
4.350930 3.265584 -1.457669
4.952911 3.714698 -1.429339
5.684750 4.262030 -1.381076
6.631958 4.968565 -1.312485
7.381418 5.526028 -1.132166
9.377947 7.018156 -1.024777
12.285580 9.187448 -0.803985
4.362303 3.250375 -1.457669
4.956469 3.690405 -1.426640
5.696444 4.239814 -1.380312
6.663524 4.955995 -1.315301
7.400664 5.500226 -1.132166
9.399188 6.983004 -1.024429
12.314370 9.142123 -0.803776
28.553331 21.182386 -0.620573
4.366420 3.228623 -1.455081
4.966825 3.669899 -1.425740
5.711944 4.218908 -1.380312
6.691182 4.938576 -1.317178
7.407991 5.463639 -1.130216
9.405479 6.934313 -1.022337
12.341361 9.092192 -0.803357
28.578800 21.047007 -0.619525
4.379221 3.214504 -1.455598
4.975827 3.651101 -1.424840
49.138733 36.043221 3.193750
5.731387 4.202425 -1.381457
6.685216 4.900012 -1.312798
7.429274 5.441388 -1.130704
9.432838 6.903800 -1.022685
13.338595 9.758799 -0.866160
28.645622 20.942419 -0.619386
4.389856 3.199965 -1.455598
4.985392 3.631413 -1.423940
5.732594 4.174153 -1.378404
6.702281 4.876645 -1.312798
7.441795 5.410757 -1.129729
9.442789 6.863107 -1.021291
13.372572 9.712189 -0.866160
28.692659 20.823496 -0.618827
4.405694 3.188020 -1.457151
4.999618 3.615130 -1.424390
5.745537 4.152968 -1.378023
6.728872 4.860158 -1.314675
7.441324 5.370804 -1.126804
9.465075 6.828936 -1.021117
13.422597 9.677127 -0.867207
4.402675 3.162477 -1.452493
5.007454 3.594250 -1.423040
5.750430 4.126018 -1.375733
43.339027 31.084936 4.666144
6.732950 4.827437 -1.312172
7.456800 5.342483 -1.126317
9.482370 6.791221 -1.020419
13.505022 9.665082 -0.870347
4.415260 3.148213 -1.453010
15.218917 10.847539 0.326220
5.019971 3.576747 -1.423040
15.161858 10.798889 0.975542
5.774390 4.112755 -1.378023
6.756199 4.808485 -1.313424
7.478638 5.318723 -1.126804
9.496276 6.751150 -1.019374
13.522392 9.606318 -0.869300
15.179384 10.775465 -0.324929
4.423068 3.130550 -1.451975
15.188129 10.745834 0.324754
5.030834 3.558079 -1.422590
15.171494 10.730103 0.973868
5.779092 4.085775 -1.375733
6.760034 4.775755 -1.310921
7.493916 5.290294 -1.126317
9.501877 6.705327 -1.017456
13.552580 9.556751 -0.869091
15.205226 10.718159 -0.324719
4.435550 3.116201 -1.452493
15.246586 10.711508 0.325243
5.041012 3.540255 -1.422141
15.202318 10.672482 0.973449
5.796534 4.067831 -1.376496
6.785538 4.760116 -1.312798
7.504915 5.260858 -1.125342
9.525227 6.672116 -1.017456
13.577652 9.507177 -0.868672
15.298252 10.704000 -0.325906
4.437938 3.095947 -1.449904
15.356051 10.708552 0.326779
5.053338 3.522638 -1.422141
15.285365 10.651320 0.976380
5.800328 4.041850 -1.374206
6.789142 4.727372 -1.310295
7.506938 5.223293 -1.122904
24.928551 17.338699 4.809422
9.526039 6.625700 -1.015190
13.571391 9.432370 -0.866160
15.381516 10.682468 -0.326884
4.455070 3.084837 -1.451975
15.422936 10.675365 0.327407
5.054387 3.497214 -1.418991
15.365159 10.627443 0.979101
5.814401 4.021580 -1.374206
6.812105 4.708136 -1.311547
7.521858 5.194798 -1.122417
25.040937 17.287495 4.819433
9.539269 6.585618 -1.014144
13.584509 9.371327 -0.864904
15.431877 10.637794 -0.327163
4.462626 3.067080 -1.450940
15.522736 10.664498 0.328734
5.064956 3.478447 -1.418541
15.477908 10.625739 0.983916
5.818694 3.994591 -1.371917
6.818723 4.677625 -1.309669
7.543222 5.170753 -1.122904
9.549050 6.543272 -1.012750
13.623732 9.328361 -0.865323
15.600947 10.674192 -0.329955
4.465325 3.046041 -1.448351
5.080289 3.462940 -1.419441
15.650239 10.663877 0.992499
5.842333 3.980893 -1.374206
6.825214 4.647123 -1.307792
7.548095 5.135460 -1.120954
9.568538 6.507657 -1.012401
13.652905 9.278506 -0.865113
4.483930 3.035850 -1.450940
5.097188 3.448462 -1.420791
5.852942 3.958274 -1.373443
6.844666 4.625484 -1.308418
7.569266 5.111300 -1.121442
9.591194 6.474218 -1.012401
13.635539 9.197283 -0.861973
4.489690 3.016946 -1.449387
5.093017 3.419785 -1.416292
5.856944 3.931253 -1.371153
6.850927 4.594959 -1.306541
7.563973 5.069381 -1.118029
9.603806 6.434043 -1.011355
13.684150 9.160750 -0.863020
4.505015 3.004472 -1.450940
5.104924 3.401984 -1.416292
5.860826 3.904254 -1.368864
6.873505 4.575393 -1.307792
7.578317 5.040746 -1.117542
9.634503 6.405994 -1.012227
13.709391 9.108502 -0.862601
28.636442 19.011612 -0.599979
4.504200 2.981264 -1.447316
5.121641 3.387372 -1.417642
5.877696 3.885937 -1.369627
6.882838 4.547022 -1.306541
7.612435 5.025196 -1.119979
9.643497 6.363552 -1.010832
13.574366 8.950644 -0.852134
19.501894 12.849364 -0.407653
4.509732 2.962344 -1.445763
19.401701 12.739691 0.405140
5.130177 3.367334 -1.416742
5.891222 3.865400 -1.369627
49.505699 32.469719 5.179666
6.885453 4.514302 -1.304038
7.649854 5.011649 -1.122904
9.648986 6.318933 -1.009089
13.458455 8.806970 -0.842923
19.549980 12.783395 -0.407723
4.523283 2.948693 -1.446798
19.404171 12.644589 0.404268
5.127203 3.339834 -1.412693
5.904679 3.844811 -1.369627
6.894545 4.485932 -1.302786
7.660645 4.980585 -1.121929
9.662630 6.279787 -1.008218
13.609720 8.838253 -0.850459
28.568911 18.538710 -0.594464
4.530305 2.930786 -1.445763
19.444826 12.574621 0.404198
5.140467 3.322973 -1.413142
43.558128 28.146679 2.717911
5.914767 3.822043 -1.368864
49.396450 31.907103 5.144804
6.916801 4.466123 -1.304038
7.651295 4.936596 -1.118029
9.676122 6.240617 -1.007346
13.593479 8.760402 -0.847529
28.542667 18.380402 -0.592579
4.543758 2.917042 -1.446798
19.513845 12.522864 0.404721
5.160238 3.310269 -1.415392
43.572041 27.940563 2.712677
5.924767 3.799256 -1.368101
6.925696 4.437686 -1.302786
7.681854 4.918423 -1.119979
9.692814 6.203579 -1.006823
13.772044 8.807595 -0.856740
28.448259 18.179445 -0.589298
4.540880 2.892859 -1.442657
19.616474 12.492270 0.405943
5.153677 3.280726 -1.410443
43.669315 27.788284 2.712677
5.934681 3.776442 -1.367337
49.369179 31.403236 5.119005
6.944479 4.415606 -1.303412
7.682221 4.880930 -1.117542
9.697590 6.159028 -1.005080
