# This PCD file was generated using the MATLAB® pcwrite function
# from Computer Vision Toolbox®.
# .PCD v.7 - Point Cloud Data file format
VERSION .7
FIELDS x y z
SIZE 4 4 4
TYPE F F F
COUNT 1 1 1
WIDTH 1587
HEIGHT 1
VIEWPOINT 0 0 0 1 0 0 0
POINTS 1587
DATA ascii
-6.848787 -8.193965 2.861504
-0.635257 -0.758145 -0.265031
-8.574553 -10.229627 0.232990
-0.808860 -0.964645 -0.290637
-18.590883 -22.163614 1.516068
-5.619580 -6.699531 -1.699727
-6.710743 -7.994718 -1.653200
-7.044044 -8.385844 -1.344706
-6.957651 -8.280060 1.712958
-6.887335 -8.193475 2.080581
-18.531826 -22.038462 -1.509055
-6.909505 -8.214027 2.478061
-30.821871 -36.628098 -0.835586
-6.892277 -8.187743 2.867715
-0.637900 -0.755922 -0.265031
-8.645038 -10.240891 0.233932
-0.814736 -0.964794 -0.291537
-18.717115 -22.156555 1.520046
-5.641666 -6.678373 -1.699345
-6.748809 -7.983314 -1.655703
-7.080966 -8.370297 -1.346169
-7.001823 -8.273819 1.716712
-6.936190 -8.193358 2.086687
-7.162333 -8.457496 -0.580824
-6.957029 -8.212161 2.484809
-6.937057 -8.182792 2.874444
-0.640535 -0.753691 -0.265031
-0.828199 -0.973820 -0.295136
-18.815052 -22.115425 1.521720
-5.671304 -6.666115 -1.701253
-6.786881 -7.971738 -1.658206
-7.120437 -8.357619 -1.348119
-7.043477 -8.264359 1.719841
-6.990222 -8.198976 2.094320
-6.988183 -8.190791 2.485709
-6.993171 -8.190850 2.885833
-0.643162 -0.751451 -0.265031
-18.876255 -22.046661 0.506608
-0.831594 -0.970923 -0.295136
-18.944111 -22.110287 1.525907
-5.693261 -6.644789 -1.700871
-6.839097 -7.976492 -1.664150
-7.175420 -8.362844 -1.352993
-7.077428 -8.245719 1.721092
-7.163037 -8.345460 -0.962199
-7.041818 -8.201338 2.101189
-7.179559 -8.358804 -0.577475
-7.033241 -8.185562 2.491558
-7.217306 -8.396823 -0.193268
-7.035577 -8.182501 2.891527
-0.648303 -0.752127 -0.266066
-7.244854 -8.402132 0.193652
-0.850252 -0.985722 -0.300535
-5.725399 -6.635280 -1.703543
-6.860442 -7.945096 -1.662586
-18.908985 -21.890821 3.551760
-7.214954 -8.349761 -1.354944
-7.129418 -8.247865 1.726724
-7.211667 -8.343016 -0.964814
-7.089666 -8.198983 2.106913
-7.204774 -8.329161 -0.577161
-7.066870 -8.166859 2.493357
-7.230867 -8.353435 -0.192849
-7.085595 -8.182719 2.900326
-0.655990 -0.755695 -0.268137
-7.237426 -8.334517 0.192675
-0.843464 -0.970978 -0.296935
-7.272124 -8.368573 0.581034
-5.758827 -6.627109 -1.706596
-6.895911 -7.930043 -1.664463
-18.967049 -21.803711 3.548348
-7.267510 -8.351480 -1.359331
-7.197076 -8.267627 1.736110
-7.268218 -8.349350 -0.968475
-7.123402 -8.180105 2.108439
-7.241674 -8.312998 -0.577789
-7.119661 -8.170054 2.501906
-7.281009 -8.352260 -0.193408
-7.117922 -8.162306 2.901879
-0.653538 -0.747583 -0.266066
-7.291486 -8.337802 0.193338
-0.854546 -0.976828 -0.299635
-7.297206 -8.341404 0.580824
-5.788390 -6.614354 -1.708504
-6.933961 -7.917812 -1.666966
-19.090128 -21.791128 3.557123
-7.294002 -8.323075 -1.358843
-7.234868 -8.255599 1.738613
-7.299944 -8.326923 -0.968823
-7.164855 -8.169953 2.112256
-7.304893 -8.326705 -0.580510
-7.173847 -8.174444 2.510904
-7.324495 -8.346105 -0.193826
-7.162795 -8.158982 2.909126
-0.661250 -0.751097 -0.268137
-7.328346 -8.324084 0.193582
-0.862933 -0.979839 -0.301434
-7.354002 -8.347355 0.583023
-5.807549 -6.589689 -1.707359
-6.970631 -7.906630 -1.669469
-19.133400 -21.694948 3.551760
-7.347829 -8.328613 -1.363718
-7.268870 -8.236218 1.739864
-7.352702 -8.328276 -0.971961
-7.204902 -8.160866 2.116072
-7.349654 -8.321896 -0.581871
-7.220267 -8.172518 2.517652
-7.350933 -8.317491 -0.193757
-7.207866 -8.152744 2.915856
-0.666300 -0.751792 -0.269172
-7.361337 -8.302940 0.193687
-0.874106 -0.985569 -0.304134
-7.387075 -8.326115 0.583337
-5.838490 -6.580675 -1.710030
-7.000809 -7.885205 -1.670095
-19.296015 -21.725986 3.567847
-10.303866 -11.597367 -1.904818
-7.310697 -8.225561 1.742993
-17.596474 -19.791538 -2.316948
-7.246390 -8.150338 2.119888
-7.268180 -8.169103 2.524401
-7.417147 -8.333606 -0.194734
-7.258118 -8.152061 2.924655
-0.661331 -0.740699 -0.266066
-7.434223 -8.326421 0.194839
-0.880138 -0.985418 -0.305034
-7.425408 -8.310702 0.584069
-5.871728 -6.569480 -1.712702
-7.447381 -8.329442 0.977539
-7.032299 -7.862436 -1.670720
-7.445374 -8.324273 1.371274
-10.402524 -11.626424 -1.915542
-7.349907 -8.211766 1.745496
-17.657476 -19.721088 -2.315902
-7.289310 -8.138350 2.123704
-7.320185 -8.167079 2.532049
-7.305873 -8.148253 2.932420
-0.669079 -0.744132 -0.268137
-19.593815 -21.784060 0.511425
-0.878529 -0.976391 -0.303234
-5.906444 -6.562076 -1.716136
-7.067631 -7.846648 -1.672598
-7.494438 -8.317575 1.374686
-10.423805 -11.564624 -1.911643
-7.352076 -8.156713 1.739239
-17.771570 -19.709646 -2.321829
-7.362385 -8.162421 2.136679
-7.353870 -8.147264 2.533849
-7.348515 -8.138472 2.938114
-0.663893 -0.733199 -0.265031
-19.682055 -21.736752 0.511844
-0.889612 -0.982138 -0.305933
-19.724655 -21.768534 1.539515
-5.937227 -6.550145 -1.718426
-7.109536 -7.840728 -1.676352
-19.733187 -21.755045 3.606358
-10.518123 -11.591738 -1.921880
-7.409710 -8.163180 1.746122
-17.837582 -19.644543 -2.321480
-7.413165 -8.164124 2.143548
-19.698866 -21.686758 -1.535432
-7.386089 -8.128602 2.535648
-7.388576 -8.125635 2.942773
-0.674129 -0.739560 -0.268137
-19.857512 -21.777267 0.514427
-0.898288 -0.984786 -0.307733
-19.827444 -21.729055 1.541608
-5.949650 -6.520269 -1.715755
-7.142190 -7.821698 -1.677603
-19.835787 -21.715342 3.611233
-10.630829 -11.634089 -1.935042
-7.448822 -8.148931 1.748625
-17.934891 -19.620575 -2.325664
-7.446920 -8.143991 2.145075
-7.442044 -8.132961 2.545096
-7.435160 -8.119741 2.950020
-0.679319 -0.740049 -0.269172
-19.968573 -21.746111 0.515335
-0.904357 -0.984515 -0.308633
-19.970743 -21.733244 1.546842
-5.981673 -6.509581 -1.718426
-7.180146 -7.808352 -1.680106
-19.965218 -21.704412 3.620982
-10.668686 -11.593987 -1.934554
-7.493277 -8.140320 1.752379
-18.043751 -19.601826 -2.330893
-7.493922 -8.138166 2.150418
-7.496802 -8.135593 2.554094
-7.476552 -8.107942 2.955196
-0.684521 -0.740510 -0.270207
-20.044361 -21.676277 0.515335
-0.923667 -0.998518 -0.314032
-20.081755 -21.701513 1.549563
-6.015027 -6.500188 -1.721479
-7.208701 -7.784690 -1.680419
-20.081331 -21.678278 3.628294
-10.754967 -11.606181 -1.942841
-7.535076 -8.128598 1.755508
-18.196047 -19.629313 -2.341701
-7.538301 -8.129235 2.154997
-20.106892 -21.675499 -1.549459
-7.549015 -8.135087 2.562192
-20.337622 -21.908888 -0.521792
-7.541617 -8.121431 2.969690
-0.689734 -0.740944 -0.271242
-20.138977 -21.626669 0.515823
-0.911208 -0.978177 -0.308633
-20.173723 -21.648815 1.550819
-6.041696 -6.483461 -1.722624
-7.235831 -7.759479 -1.680419
-20.159588 -21.610949 3.628782
-10.746661 -11.516317 -1.934067
-7.593058 -8.134016 1.762391
-18.245419 -19.545290 -2.339260
-7.574671 -8.111481 2.157287
-20.206980 -21.631449 -1.551343
-7.592000 -8.124351 2.567142
-20.454945 -21.881588 -0.522839
-7.587075 -8.113399 2.976419
-0.684389 -0.730076 -0.268137
-20.274536 -21.620415 0.517359
-0.917283 -0.977833 -0.309533
-20.265566 -21.595747 1.552075
-6.075037 -6.473787 -1.725677
-7.280452 -7.752893 -1.684487
-20.335474 -21.647518 3.646819
-10.846607 -11.542387 -1.944791
-7.637641 -8.124733 1.766145
-18.370848 -19.542452 -2.346581
-7.637907 -8.122178 2.167209
-20.326149 -21.607336 -1.554692
-7.636339 -8.114830 2.572540
-20.533947 -21.812960 -0.522909
-7.632566 -8.105149 2.983149
-0.700194 -0.741730 -0.273313
-20.393818 -21.596035 0.518476
-0.922029 -0.976042 -0.309983
-20.436852 -21.626492 1.559402
-6.089507 -6.443980 -1.723387
-7.315613 -7.736047 -1.686364
-20.410919 -21.576397 3.646819
-10.935951 -11.556361 -1.953566
-7.671387 -8.103761 1.767397
-8.872940 -9.373036 -1.129190
-7.704011 -8.135380 2.177894
-20.428923 -21.565252 -1.556786
-7.665959 -8.089540 2.572990
-20.634722 -21.767275 -0.523537
-7.674105 -8.092476 2.988325
-0.700117 -0.736481 -0.272278
-20.482851 -21.539211 0.518825
-0.929460 -0.977053 -0.311332
-20.517729 -21.560802 1.559821
-6.114672 -6.425527 -1.724150
-7.356194 -7.724767 -1.689492
-20.568264 -21.591257 3.661443
-11.066608 -11.612963 -1.969653
-7.735064 -8.114110 1.775531
-7.737782 -8.114120 2.179420
-20.545433 -21.537165 -1.559926
-7.733166 -8.103615 2.586037
-20.752003 -21.738506 -0.524584
-7.731658 -8.096375 2.999713
-0.691996 -0.722869 -0.268137
-20.585575 -21.496468 0.519523
-0.932865 -0.973803 -0.311332
-20.653666 -21.552505 1.564427
-6.143854 -6.411232 -1.726058
-7.372178 -7.687634 -1.686989
-20.643507 -21.519327 3.661443
-11.098828 -11.565671 -1.968190
-7.777023 -8.101309 1.778660
-18.643475 -19.420868 -2.355297
-7.785096 -8.106886 2.184763
-20.661991 -21.508532 -1.563066
-7.792462 -8.108890 2.596385
-20.855474 -21.694769 -0.525283
-7.783974 -8.094403 3.009030
-0.697197 -0.723231 -0.269172
-20.713236 -21.479177 0.520850
-0.938964 -0.973345 -0.312232
-20.750963 -21.503273 1.566101
-6.177103 -6.401049 -1.729111
-7.412691 -7.676064 -1.690118
-20.751593 -21.481407 3.667293
-11.072922 -11.458337 -1.956491
-7.818985 -8.088314 1.781789
-18.783163 -19.430161 -2.364361
-7.816075 -8.082485 2.185526
-20.764725 -21.464983 -1.565159
-7.847824 -8.109647 2.605383
-20.981144 -21.673565 -0.526539
-7.835030 -8.090774 3.017830
-0.707791 -0.729110 -0.272278
-20.846603 -21.466990 0.522316
-0.953219 -0.981244 -0.315831
-20.848167 -21.453623 1.567776
-6.207619 -6.387895 -1.731401
-7.451832 -7.662889 -1.692934
-20.862440 -21.445833 3.673630
-11.140540 -11.448067 -1.961365
-7.866459 -8.080790 1.786169
-18.889780 -19.404455 -2.369242
-7.868896 -8.080470 2.192395
-20.892485 -21.446732 -1.569137
-7.876083 -8.082205 2.605383
-7.869969 -8.070290 3.020418
-0.718434 -0.734923 -0.275383
-20.963348 -21.436987 0.523363
-0.962089 -0.983483 -0.317631
-20.935957 -21.401503 1.569032
-6.224385 -6.360576 -1.729874
-7.485446 -7.643887 -1.694498
-20.992746 -21.429596 3.683379
-11.214561 -11.447930 -1.967703
-7.915334 -8.077232 1.791175
-18.957399 -19.338398 -2.369242
-7.924548 -8.080986 2.200028
-21.053930 -21.462074 -1.575626
-7.919217 -8.072736 2.610782
-7.914280 -8.062068 3.027148
-0.712737 -0.724275 -0.272278
-5.305298 -5.387414 -1.745620
-12.671354 -12.867482 0.946444
-6.253709 -6.348291 -1.732164
-7.528782 -7.637311 -1.698566
-21.116655 -21.413578 3.692641
-11.330514 -11.489834 -1.981352
-7.972596 -8.081878 1.798058
-7.976126 -8.079813 2.206897
-7.963745 -8.064456 2.616631
-7.965415 -8.060513 3.036465
-0.717854 -0.724652 -0.273313
-5.324506 -5.371175 -1.746070
-6.277494 -6.330306 -1.732927
-7.551283 -7.609497 -1.697940
-21.260271 -21.416693 3.705316
-11.446871 -11.531091 -1.995001
-8.027191 -8.083429 1.804315
-8.019483 -8.070030 2.211476
-8.028913 -8.076700 2.629228
-8.019348 -8.061448 3.046818
-0.720254 -0.722268 -0.273313
-12.490112 -12.520673 0.308698
-5.332653 -5.343832 -1.742921
-6.309548 -6.320569 -1.735980
-7.587645 -7.595595 -1.700443
-21.356434 -21.371346 3.709703
-11.476628 -11.484642 -1.993539
-8.079089 -8.081914 1.809947
-19.360172 -19.360172 -2.395388
-8.085077 -8.082255 2.222162
-21.404852 -21.389917 -1.585884
-8.084599 -8.078958 2.638676
-8.067908 -8.056652 3.055100
-0.731111 -0.727801 -0.276419
-5.354965 -5.327002 -1.743821
-6.342416 -6.307091 -1.738652
-7.623839 -7.576090 -1.702320
-21.434620 -21.292927 3.709703
-11.531910 -11.451680 -1.995489
-8.129688 -8.070315 1.814327
-19.454166 -19.305338 -2.397829
-8.125794 -8.063631 2.225215
-21.522810 -21.350702 -1.588815
-8.126629 -8.058834 2.642275
-8.112506 -8.039212 3.060277
-0.733773 -0.725116 -0.276419
-13.324705 -13.167499 0.326988
-5.374914 -5.309646 -1.744270
-6.361298 -6.279666 -1.737507
-7.662807 -7.559192 -1.704823
-11.611386 -11.450387 -2.002313
-8.169066 -8.052981 1.816830
-19.572525 -19.287657 -2.404104
-8.177670 -8.055840 2.231320
-21.589535 -21.260464 -1.587978
-8.167223 -8.039929 2.645874
-8.162549 -8.032527 3.068559
-0.739058 -0.725257 -0.277454
-12.630578 -12.390383 0.308838
-5.398512 -5.294003 -1.745620
-12.764982 -12.513497 0.936814
-6.390188 -6.264294 -1.739415
-25.725380 -25.209743 3.151203
-7.700435 -7.543458 -1.707326
-21.756632 -21.305676 3.738952
-11.670301 -11.424413 -2.005238
-8.226761 -8.050619 1.823087
-19.639727 -19.219223 -2.404104
-8.202933 -8.024499 2.230557
-21.749294 -21.268757 -1.594258
-8.218925 -8.034532 2.653523
-12.504170 -12.219362 -0.305173
-8.216810 -8.026853 3.077876
-0.738818 -0.719976 -0.276419
-12.633643 -12.307152 0.307860
-5.425336 -5.283285 -1.748320
-12.771380 -12.432638 0.934092
-6.424679 -6.254274 -1.742849
-7.732383 -7.522042 -1.708578
-21.853643 -21.251736 3.742852
-11.755655 -11.427887 -2.013038
-8.266148 -8.032867 1.825590
-19.758137 -19.200539 -2.410379
-8.281591 -8.045061 2.244295
-21.923698 -21.290113 -1.601585
-8.281878 -8.039727 2.664770
-8.272510 -8.025026 3.088229
-0.741326 -0.717392 -0.276419
-12.912233 -12.490993 0.313585
-5.429737 -5.250767 -1.743821
-6.449294 -6.234540 -1.743613
-7.762855 -7.499123 -1.709516
-21.981951 -21.227728 3.752114
-11.849745 -11.439172 -2.022300
-8.339625 -8.047856 1.835602
-8.346359 -8.051546 2.254218
-21.997881 -21.213453 -1.601585
-8.332341 -8.032406 2.671968
-8.324124 -8.018886 3.097029
-0.746612 -0.717478 -0.277454
-22.081316 -21.212242 0.534463
-5.457871 -5.241230 -1.746970
-12.552407 -12.049951 0.911902
-6.482346 -6.222866 -1.746666
-7.798964 -7.481551 -1.711706
-22.150480 -21.241549 3.768200
-11.838017 -11.348287 -2.013525
-8.387631 -8.037832 1.839982
-19.983763 -19.150356 -2.421535
-8.397098 -8.044092 2.260324
-12.972463 -12.422773 -0.941315
-8.378628 -8.020793 2.677817
-13.449168 -12.870283 -0.324929
-8.374402 -8.011145 3.105311
-0.740726 -0.706865 -0.274348
-13.100405 -12.497170 0.316028
-5.481775 -5.227526 -1.748769
-12.696367 -12.107499 0.919438
-6.508293 -6.204265 -1.747811
-7.832183 -7.461095 -1.713270
-22.256117 -21.194216 3.773563
-11.918710 -11.350035 -2.020838
-8.425687 -8.020870 1.842485
-8.433660 -8.022851 2.262613
-22.217815 -21.128174 -1.606819
-8.420715 -8.007733 2.682766
-12.625079 -12.001711 -0.304056
-8.420527 -8.001964 3.112558
-0.754282 -0.715037 -0.278489
-13.162096 -12.472916 0.316517
-5.506154 -5.216020 -1.751019
-12.373957 -11.721940 0.893270
-6.534533 -6.188048 -1.749337
-7.868361 -7.445943 -1.715773
-22.381079 -21.172134 3.782825
-11.967821 -11.321363 -2.022788
-8.480942 -8.020033 1.848743
-8.477343 -8.011021 2.267193
-8.468469 -7.999843 2.689515
-13.100975 -12.371663 -0.314527
-8.477921 -8.003169 3.123946
-0.753837 -0.709883 -0.277454
-22.440514 -21.124704 0.537953
-5.523419 -5.197733 -1.751019
-12.621373 -11.873001 0.908134
-6.566103 -6.174615 -1.752008
-7.900206 -7.426574 -1.717338
-12.024627 -11.295831 -2.025712
-8.540566 -8.020125 1.855626
-8.516706 -7.992129 2.270246
-8.547510 -8.018229 2.705711
-8.528355 -7.994668 3.132228
-0.767723 -0.717669 -0.281595
-5.543857 -5.178784 -1.751469
-12.945074 -12.088387 0.928231
-6.600173 -6.161225 -1.755061
-27.057554 -25.258076 3.238359
-7.931703 -7.401613 -1.718276
-22.618334 -21.099327 3.797936
-12.071756 -11.257093 -2.026687
-8.581463 -7.999547 1.858129
-20.467842 -19.073217 -2.447682
-8.591912 -8.003680 2.282457
-13.036485 -12.139720 -0.933569
-8.599657 -8.008097 2.712910
-13.034019 -12.133172 -0.310827
-8.584472 -7.988359 3.142063
-0.773181 -0.717479 -0.282630
-5.571376 -5.166378 -1.754168
-6.628837 -6.144822 -1.756969
-13.377681 -12.396549 1.595647
-7.974721 -7.387257 -1.721718
-22.692604 -21.013588 3.797449
-12.147895 -11.245140 -2.032537
-8.648423 -8.002921 1.866263
-8.650063 -8.001637 2.290471
-12.404239 -11.470381 -0.885420
-8.644694 -7.991073 2.717859
-12.564372 -11.610319 -0.298611
-8.632141 -7.973883 3.148793
-0.772839 -0.712157 -0.281595
-12.584064 -11.591926 0.298646
-5.600843 -5.157461 -1.757768
-6.647357 -6.118987 -1.756206
-8.019357 -7.376762 -1.725785
-13.542592 -12.453055 2.258970
-8.875419 -8.158506 -1.480225
-8.690852 -7.986050 1.869392
-8.863994 -8.145150 -1.053190
-8.715530 -8.005926 2.300393
-8.901749 -8.174113 -0.633370
-8.684021 -7.971390 2.721458
-8.971450 -8.232351 -0.212535
-8.684125 -7.965903 3.157593
-0.763919 -0.699022 -0.277454
-8.944532 -8.181807 0.211593
-5.627441 -5.145769 -1.760467
-12.790903 -11.696087 0.908343
-6.678820 -6.105017 -1.758877
-8.046516 -7.350057 -1.726098
-13.480434 -12.309330 2.241421
-8.899490 -8.126353 -1.479738
-8.746467 -7.983821 1.875649
-8.911503 -8.131620 -1.055456
-8.763731 -7.993977 2.305736
-8.928752 -8.141645 -0.633265
-8.737767 -7.967497 2.730006
-8.936630 -8.145978 -0.211069
-8.737624 -7.961783 3.167428
-0.774810 -0.704281 -0.280560
-8.943494 -8.126552 0.210930
-5.648802 -5.131011 -1.761817
-8.959149 -8.137918 0.634312
-6.704843 -6.088115 -1.760404
-8.978497 -8.149772 1.060860
-8.079623 -7.331297 -1.727975
-8.998437 -8.162147 1.491681
-8.970500 -8.136806 -1.487050
-8.796308 -7.976002 1.880655
-8.907419 -8.073924 -1.051795
-8.778553 -7.954326 2.302683
-8.937937 -8.095901 -0.632009
-8.807470 -7.977725 2.743503
-8.953218 -8.106902 -0.210825
-8.798350 -7.963880 3.179851
-0.774273 -0.699119 -0.279525
-8.961487 -8.088809 0.210720
-5.665786 -5.112250 -1.761817
-9.005299 -8.122648 0.635568
-6.726052 -6.064675 -1.760404
-9.009909 -8.123959 1.061383
-8.120031 -7.319012 -1.731417
-9.022504 -8.129605 1.491193
-9.065221 -8.165231 -1.498018
-8.871070 -7.987548 1.890667
-8.937030 -8.044114 -1.051970
-8.852969 -7.965653 2.314895
-8.946836 -8.047291 -0.630648
-8.864240 -7.972999 2.752501
-8.962131 -8.058219 -0.210371
-8.851961 -7.956362 3.189168
-0.788339 -0.706592 -0.283666
-8.971714 -8.038560 0.210267
-5.690290 -5.096652 -1.763616
-8.999297 -8.057612 0.633056
-6.755551 -6.046527 -1.762312
-9.024780 -8.077592 1.059640
-8.145329 -7.287885 -1.731104
-9.043363 -8.088540 1.489731
-9.041814 -8.084315 -1.489244
-8.915014 -7.968144 1.893796
-8.994682 -8.036527 -1.055282
-8.920175 -7.967157 2.324817
-8.997129 -8.033069 -0.632114
-8.912300 -7.957328 2.758350
-9.000557 -8.033306 -0.210581
-8.896917 -7.938015 3.194863
-0.799583 -0.711402 -0.286772
-9.017552 -8.020244 0.210651
-5.711846 -5.078350 -1.764516
-9.025783 -8.021923 0.632846
-6.775147 -6.021606 -1.761930
-9.036451 -8.028583 1.057548
-8.189711 -7.273722 -1.734858
-9.049196 -8.034252 1.485831
-9.169374 -8.138089 -1.505330
-8.964847 -7.953769 1.898176
-9.052487 -8.031527 -1.058768
-8.980245 -7.964630 2.333213
-9.050522 -8.024137 -0.633893
-8.967656 -7.947875 2.766448
-9.050896 -8.018828 -0.211069
-8.973677 -7.947619 3.211945
-0.799166 -0.706049 -0.285736
-9.079967 -8.019160 0.211453
-5.735382 -5.063539 -1.766316
-9.068703 -8.003583 0.633893
-6.803485 -6.004415 -1.763838
-9.076375 -8.007533 1.058942
-8.253570 -7.279061 -1.742993
-9.093564 -8.017059 1.488512
-9.190279 -8.099470 -1.504112
-9.028129 -7.953766 1.905685
-9.101398 -8.018316 -1.061208
-9.025669 -7.948807 2.337792
-9.105460 -8.016253 -0.635777
-8.999735 -7.920386 2.767798
-9.099851 -8.005677 -0.211558
-9.012970 -7.926453 3.216086
-0.804530 -0.705803 -0.286772
-9.128954 -8.005877 0.211942
-5.761813 -5.051197 -1.769015
-9.131239 -8.005065 0.636405
-6.824404 -5.980628 -1.763838
-9.135742 -8.003371 1.062603
-8.528588 -7.468847 -1.795555
-9.152862 -8.012724 1.493631
-9.236504 -8.085947 -1.507280
-9.066348 -7.934192 1.908188
-9.157822 -8.011425 -1.064520
-9.059274 -7.922420 2.339318
-9.166468 -8.013338 -0.638080
-9.074367 -7.932824 2.782645
-9.162485 -8.007040 -0.212396
-9.066848 -7.920670 3.225921
-0.795215 -0.692977 -0.282630
-9.190131 -8.005769 0.212745
-5.778532 -5.032063 -1.769015
-9.193883 -8.006220 0.638917
-6.857525 -5.969567 -1.767273
-9.192293 -7.999191 1.066089
-8.569704 -7.454785 -1.798997
-9.191364 -7.992751 1.495581
-9.284237 -8.073512 -1.510693
-9.134353 -7.940370 1.916948
-9.205393 -7.999308 -1.066961
-9.129961 -7.930959 2.350767
-9.217119 -8.003850 -0.639755
-9.144765 -7.941019 2.796142
-9.226740 -8.009383 -0.213268
-9.116409 -7.910817 3.234203
-0.806272 -0.697923 -0.285736
-9.246869 -8.001423 0.213443
-5.804031 -5.020522 -1.771715
-9.233861 -7.984529 0.639755
-6.884709 -5.953215 -1.769181
-9.257959 -8.002539 1.070621
-8.627261 -7.454739 -1.805880
-9.246362 -7.986881 1.500212
-9.355935 -8.078674 -1.517761
-9.203881 -7.944579 1.925708
-9.266558 -7.998680 -1.070970
-9.203773 -7.941684 2.362979
-9.270833 -7.996722 -0.641639
-9.190137 -7.924323 2.801540
-9.281905 -8.000628 -0.213897
-9.179092 -7.909212 3.246626
-0.811634 -0.697623 -0.286772
-9.299013 -7.989946 0.214001
-5.827434 -5.005310 -1.773514
-9.291984 -7.978270 0.641848
-6.899490 -5.924030 -1.767655
-9.313049 -7.993535 1.073759
-8.674218 -7.442587 -1.810260
-9.307335 -7.982989 1.505574
-9.396132 -8.056306 -1.519711
-9.234556 -7.914974 1.926334
-9.326191 -7.993514 -1.074630
-9.276167 -7.947826 2.374427
-9.333578 -7.994196 -0.644046
-9.234025 -7.906136 2.806489
-9.332566 -7.987680 -0.214420
-9.241874 -7.907267 3.259050
-0.808186 -0.689768 -0.284701
-9.364878 -7.989885 0.214874
-5.844870 -4.984938 -1.773514
-9.359293 -7.979476 0.644570
-6.923115 -5.902458 -1.768418
-9.362124 -7.979070 1.076199
-8.740744 -7.446851 -1.818707
-9.372925 -7.982628 1.511667
-9.477100 -8.068498 -1.528242
-9.304251 -7.918539 1.935095
-9.379830 -7.982862 -1.077594
-9.321795 -7.930666 2.379007
-9.388813 -7.984858 -0.645930
-9.301654 -7.907936 2.818637
-9.378675 -7.970597 -0.214839
-9.281197 -7.884964 3.263191
-0.822379 -0.696935 -0.288842
-9.411020 -7.972657 0.215293
-5.872644 -4.973322 -1.776663
-9.416053 -7.971277 0.646558
-6.957161 -5.889672 -1.771852
-9.424900 -7.975943 1.080208
-8.775734 -7.423950 -1.820585
-9.435596 -7.979345 1.517273
-9.534011 -8.059717 -1.532873
-9.362011 -7.911513 1.941352
-9.439596 -7.977078 -1.081254
-9.355422 -7.903147 2.380533
-9.444095 -7.975230 -0.647815
-9.370895 -7.910615 2.831234
-9.443120 -7.968762 -0.215677
-9.341149 -7.879922 3.274579
-0.824807 -0.694060 -0.288842
-9.460215 -7.957782 0.215782
-5.894444 -4.956553 -1.778013
-9.474398 -7.964063 0.648652
-7.001725 -5.885564 -1.777958
-9.481664 -7.967350 1.083520
-8.778907 -7.374213 -1.815892
-9.484674 -7.964231 1.520686
-9.607697 -8.064678 -1.540185
-9.416808 -7.901641 1.946984
-9.493195 -7.962914 -1.084043
-9.410028 -7.893153 2.387402
-9.504016 -7.969165 -0.650013
-9.423841 -7.899137 2.838882
-9.510730 -7.969142 -0.216584
-9.418951 -7.889443 3.292178
-0.827345 -0.691033 -0.288842
-9.524770 -7.955476 0.216619
-5.908718 -4.933450 -1.777113
-9.529737 -7.953980 0.650536
-7.027771 -5.863634 -1.779103
-9.545995 -7.961895 1.087529
-8.802839 -7.339459 -1.815266
-9.539860 -7.953958 1.525073
-9.657141 -8.048882 -1.543597
-9.480756 -7.899067 1.954492
-9.560735 -7.962881 -1.088575
-9.484157 -7.896295 2.398851
-9.568468 -7.963663 -0.652420
-9.472203 -7.880750 2.844731
-9.566158 -7.958919 -0.217213
-9.482080 -7.886164 3.304602
-0.852058 -0.706639 -0.296607
-9.590812 -7.951143 0.217457
-5.934261 -4.917979 -1.779363
-9.586663 -7.944881 0.652525
-7.048196 -5.839067 -1.779103
-9.602883 -7.952672 1.090841
-8.819276 -7.301129 -1.813389
-9.611772 -7.954374 1.531898
-9.703530 -8.030311 -1.546522
-9.529578 -7.883556 1.958873
-9.626860 -7.961200 -1.092933
-9.554031 -7.898166 2.409536
-9.625459 -7.954390 -0.654409
-9.522320 -7.869157 2.851929
-9.618550 -7.945853 -0.217771
-9.533384 -7.872699 3.312884
-0.830539 -0.684157 -0.288324
-9.651087 -7.947260 0.218225
-5.961070 -4.906942 -1.782512
-9.653049 -7.946050 0.655246
-7.069036 -5.816909 -1.779485
-9.655360 -7.942300 1.093804
-8.815975 -7.249259 -1.807757
-9.667233 -7.946406 1.536529
-9.785313 -8.043467 -1.555297
-9.583141 -7.874485 1.964504
-9.677837 -7.949468 -1.095722
-9.613550 -7.893849 2.417932
-9.679571 -7.945236 -0.656293
-9.605601 -7.884519 2.869026
-9.675763 -7.939284 -0.218469
-9.568401 -7.848392 3.315990
-0.835793 -0.683845 -0.289360
-9.691319 -7.926606 0.218539
-5.975801 -4.885913 -1.782062
-9.703924 -7.931264 0.656816
-7.105008 -5.807104 -1.783683
-9.707874 -7.931667 1.096768
-8.823136 -7.206239 -1.804315
-9.718134 -7.934391 1.540429
-9.837935 -8.029346 -1.559196
-9.644243 -7.868458 1.971387
-9.636632 -7.859444 2.417168
-9.760046 -7.957266 -0.659956
-9.657234 -7.870639 2.876224
-9.740627 -7.935771 -0.219307
-9.655655 -7.863744 3.336695
-0.853290 -0.692956 -0.294536
-9.757736 -7.924243 0.219412
-6.000384 -4.871165 -1.784312
-9.767220 -7.926290 0.659224
-7.139966 -5.792155 -1.787117
-9.770926 -7.923642 1.100603
-8.814197 -7.145241 -1.797119
-9.765816 -7.916673 1.543597
-9.915256 -8.034949 -1.566996
-9.729979 -7.881995 1.983276
-9.692839 -7.846307 2.424038
-9.809331 -7.937770 -0.661317
-9.719352 -7.862152 2.886122
-9.805582 -7.931905 -0.220145
-9.713089 -7.854286 3.347048
-0.855704 -0.689973 -0.294536
-9.831863 -7.924822 0.220424
-6.021232 -4.851585 -1.785212
-9.822649 -7.911736 0.661003
-7.166257 -5.772122 -1.788644
-9.841978 -7.924473 1.105483
-8.843700 -7.118146 -1.798058
-9.819512 -7.900737 1.547497
-9.936905 -7.992333 -1.565777
-9.795750 -7.875987 1.990785
-9.938960 -7.988275 -1.115593
-9.790561 -7.869001 2.441592
-9.863448 -7.924747 -0.663097
-9.755851 -7.835500 2.888822
-9.872009 -7.925961 -0.220982
-9.756880 -7.830722 3.352224
-0.867277 -0.694075 -0.297642
-9.884448 -7.910443 0.220982
-6.042696 -4.834189 -1.786561
-9.881400 -7.902350 0.663097
-7.182764 -5.742140 -1.787499
-9.903642 -7.914467 1.109144
-8.854295 -7.073357 -1.794929
-9.885802 -7.897389 1.553590
-9.998868 -7.984850 -1.571140
-9.838620 -7.854068 1.993914
-9.906052 -7.905064 -1.108795
-9.856171 -7.862447 2.450751
-9.931465 -7.919675 -0.665713
-9.839363 -7.843418 2.905018
-9.921510 -7.908901 -0.221471
-9.832500 -7.835144 3.368789
-0.859107 -0.682630 -0.294018
-9.950954 -7.904013 0.221820
-6.061900 -4.813221 -1.787011
-9.944902 -7.896372 0.665504
-7.202765 -5.717032 -1.787499
-9.956179 -7.899664 1.111933
-8.874291 -7.038722 -1.793991
-9.958239 -7.895633 1.560415
-10.106009 -8.012797 -1.583570
-9.881456 -7.831950 1.997043
-9.994487 -7.918693 -1.115593
-9.905102 -7.845060 2.456094
-9.991931 -7.910997 -0.667912
-9.897400 -7.836154 2.914466
-9.978848 -7.897801 -0.222134
-9.884029 -7.819952 3.377071
-0.865915 -0.683368 -0.295571
-10.006939 -7.894503 0.222483
-6.087008 -4.800335 -1.789711
-10.016511 -7.899219 0.668540
-7.235559 -5.704055 -1.790933
-10.016747 -7.893736 1.115768
-8.896032 -7.008032 -1.793678
-10.021797 -7.892042 1.566265
-10.160599 -8.001347 -1.587958
-9.938416 -7.823575 2.003300
-9.949579 -7.826736 2.460673
-10.055791 -7.907446 -0.670424
-9.970820 -7.840629 2.928413
-10.047430 -7.898034 -0.223077
-9.943326 -7.813393 3.388459
-0.878820 -0.688835 -0.299195
-10.072415 -7.892108 0.223356
-6.105961 -4.782526 -1.790610
-10.080194 -7.892523 0.670947
-7.262165 -5.686080 -1.792842
-10.086800 -7.894860 1.120649
-8.908331 -6.969974 -1.791488
-10.074494 -7.879555 1.570408
-10.230688 -7.998845 -1.594539
-10.018583 -7.830194 2.013937
-10.114098 -7.901998 -1.122915
-10.021892 -7.829959 2.472121
-10.113440 -7.898643 -0.672517
-10.001202 -7.808175 2.929312
-10.115926 -7.894901 -0.223984
-9.997955 -7.800025 3.397776
-0.884388 -0.687982 -0.300230
-10.136206 -7.885141 0.224159
-6.119542 -4.758790 -1.789711
-10.126604 -7.872000 0.672203
-7.289155 -5.664245 -1.794368
-10.147139 -7.882278 1.124135
-8.915094 -6.922738 -1.787733
-10.130158 -7.866258 1.574796
-10.291477 -7.988647 -1.599657
-10.092676 -7.831503 2.023324
-10.169957 -7.888626 -1.126052
-10.100168 -7.831674 2.484333
-10.177052 -7.888441 -0.674820
-10.085209 -7.814435 2.945509
-10.184521 -7.891386 -0.224892
-10.089267 -7.814765 3.419518
-0.886784 -0.684891 -0.300230
-10.204609 -7.878488 0.225031
-6.143114 -4.741092 -1.791510
-10.194922 -7.865331 0.674820
-7.315101 -5.643564 -1.795894
-10.214034 -7.877229 1.128493
-8.964237 -6.910873 -1.792739
-10.201375 -7.861793 1.581377
-10.358433 -7.979946 -1.605507
-10.143222 -7.811335 2.027704
-10.241629 -7.887118 -1.130933
-10.152337 -7.815528 2.490439
-10.239347 -7.879665 -0.677123
-10.161851 -7.817208 2.959906
-10.229227 -7.866194 -0.225241
-10.148476 -7.801279 3.429870
-0.889170 -0.681791 -0.300230
-10.265377 -7.868366 0.225764
-6.168907 -4.726730 -1.794210
-10.265128 -7.862485 0.677646
-7.340992 -5.622768 -1.797421
-10.268360 -7.862120 1.131456
-9.022816 -6.905954 -1.799622
-10.271324 -7.858702 1.587958
-10.428796 -7.976303 -1.612088
-10.198672 -7.797476 2.033335
-10.299170 -7.874312 -1.134245
-10.207634 -7.801501 2.497308
-10.301703 -7.870553 -0.679425
-10.204562 -7.793517 2.964405
-10.291592 -7.857136 -0.226009
-10.187929 -7.775185 3.434011
-0.900767 -0.685704 -0.303336
-10.327790 -7.859125 0.226532
-6.194674 -4.712248 -1.796909
-10.322716 -7.849576 0.679635
-7.369950 -5.604241 -1.799711
-10.332224 -7.853961 1.135465
-9.046868 -6.874413 -1.799622
-10.347697 -7.860025 1.595514
-10.464479 -7.945853 -1.613307
-10.254153 -7.783324 2.038967
-10.350402 -7.856380 -1.136860
-10.259827 -7.784812 2.503414
-10.376854 -7.870755 -0.682566
-10.268975 -7.786104 2.975203
-10.373137 -7.862235 -0.227195
-10.267361 -7.779241 3.451611
-0.893908 -0.675567 -0.300230
-10.385475 -7.845932 0.227195
-6.212641 -4.691769 -1.797359
-10.385121 -7.839969 0.681938
-7.403570 -5.589127 -1.803145
-10.405694 -7.852653 1.140520
-9.020345 -6.804726 -1.789611
-10.444808 -7.876446 1.606238
-10.496907 -7.912861 -1.614038
-10.353827 -7.802170 2.053359
-10.428679 -7.858574 -1.142437
-10.346528 -7.793838 2.517916
-10.437772 -7.859712 -0.684764
-10.345912 -7.787716 2.989599
-10.445259 -7.859642 -0.228173
-10.340772 -7.778189 3.467140
-0.905532 -0.679399 -0.303336
-10.455993 -7.842027 0.228138
-6.228981 -4.670054 -1.797359
-10.457406 -7.840232 0.684973
-7.426177 -5.565604 -1.803908
-10.482475 -7.853313 1.145924
-9.053530 -6.780302 -1.791488
-10.472239 -7.839938 1.606238
-10.613467 -7.942777 -1.627687
-10.414438 -7.793831 2.060242
-10.495932 -7.851961 -1.146795
-10.423981 -7.795298 2.530127
-10.500335 -7.849540 -0.687066
-10.394889 -7.767886 2.995898
-10.500099 -7.846508 -0.228801
-10.385078 -7.757731 3.473352
-0.917194 -0.683158 -0.306442
-10.526845 -7.840756 0.229115
-6.253812 -4.656355 -1.800058
-10.523162 -7.832300 0.687485
-7.447133 -5.540821 -1.804290
-10.537002 -7.836887 1.148887
-9.094985 -6.764388 -1.795242
-10.517296 -7.819380 1.609163
-10.665237 -7.926486 -1.631587
-10.460608 -7.771566 2.063997
-10.572861 -7.852100 -1.152199
-10.474993 -7.779417 2.536233
-10.566399 -7.844440 -0.689683
-10.455018 -7.758921 3.005796
-10.559545 -7.833636 -0.229499
-10.467957 -7.762859 3.491987
-0.922561 -0.682410 -0.307477
-10.595957 -7.834871 0.230023
-6.285698 -4.646080 -1.804557
-10.590594 -7.825195 0.690102
-7.471782 -5.520761 -1.805817
-10.594985 -7.825577 1.152373
-9.151914 -6.757239 -1.801812
-10.518970 -7.763762 1.605263
-10.740765 -7.924563 -1.638899
-10.506750 -7.749074 2.067751
-10.624259 -7.832883 -1.154814
-10.535267 -7.767272 2.544247
-10.627481 -7.832392 -0.691881
-10.522830 -7.752432 3.017493
-10.636739 -7.833491 -0.230581
-10.519882 -7.744596 3.500269
-0.921941 -0.676738 -0.306442
-10.653869 -7.820319 0.230686
-6.314445 -4.633335 -1.808156
-10.651666 -7.812986 0.692300
-7.499883 -5.499141 -1.807724
-10.668589 -7.819673 1.157254
-9.162279 -6.713143 -1.798997
-10.597250 -7.764537 1.613063
-10.829217 -7.931594 -1.648161
-10.584737 -7.749697 2.077763
-10.691732 -7.825164 -1.159171
-10.611201 -7.763381 2.555696
-10.704478 -7.828761 -0.695022
-10.614100 -7.759816 3.035490
-10.696306 -7.819916 -0.231279
-10.584286 -7.735185 3.512692
-0.924298 -0.673515 -0.306442
-10.713170 -7.803591 0.231349
-6.323511 -4.604424 -1.805907
-10.725698 -7.809847 0.695336
-7.525382 -5.477551 -1.809251
-10.728042 -7.805829 1.160740
-9.227191 -6.711329 -1.807131
-10.657747 -7.748994 1.617938
-10.875877 -7.904690 -1.650842
-10.678836 -7.761479 2.090903
-10.760892 -7.818244 -1.163703
-10.660473 -7.742447 2.561038
-10.759219 -7.811293 -0.696801
-10.669512 -7.743320 3.043588
-10.760760 -7.809544 -0.232082
-10.636240 -7.716345 3.520975
-0.939165 -0.679343 -0.310583
-10.787597 -7.803182 0.232396
-6.341902 -4.585713 -1.806807
-10.788504 -7.798103 0.697638
-7.561961 -5.463897 -1.813449
-10.802064 -7.802162 1.165795
-9.343877 -6.748936 -1.825590
-10.722011 -7.741497 1.623787
-10.950319 -7.903434 -1.658154
-10.737906 -7.747270 2.097161
-10.825282 -7.807442 -1.167713
-10.730675 -7.739209 2.571724
-10.836905 -7.812949 -0.700150
-10.723589 -7.728406 3.051686
-10.836629 -7.807003 -0.233129
-10.722680 -7.722070 3.540645
-0.944551 -0.678479 -0.311618
-10.855377 -7.794636 0.233269
-6.365786 -4.569229 -1.809057
-10.841887 -7.782082 0.699418
-7.573658 -5.434213 -1.811922
-10.866733 -7.794170 1.169979
-9.407510 -6.745055 -1.833412
-10.800600 -7.741028 1.631587
-11.006887 -7.885972 -1.662542
-10.795650 -7.734630 2.103418
-10.907806 -7.812104 -1.173813
-10.802321 -7.733704 2.582409
-10.907966 -7.806455 -0.702977
-10.810724 -7.734014 3.068782
-10.898238 -7.796622 -0.233897
-10.801657 -7.724678 3.558244
-0.943768 -0.672934 -0.310583
-10.936524 -7.798068 0.234456
-6.390425 -4.554881 -1.811756
-10.911277 -7.774322 0.702139
-7.602175 -5.414575 -1.814212
-10.924710 -7.778146 1.173291
-9.462009 -6.736735 -1.839669
-10.868260 -7.735097 1.637924
-11.045918 -7.858634 -1.664492
-10.854780 -7.719796 2.109675
-10.957743 -7.790143 -1.176254
-10.879111 -7.734241 2.594621
-10.961468 -7.789912 -0.704756
-10.871264 -7.722951 3.078680
-10.971039 -7.790951 -0.234874
-10.841158 -7.695871 3.562386
-0.936650 -0.662940 -0.307477
-10.992783 -7.777565 0.235049
-6.421395 -4.541555 -1.815805
-10.998407 -7.775789 0.705907
-7.624234 -5.390274 -1.814975
-11.005489 -7.777911 1.179043
-9.512451 -6.720247 -1.844675
-10.941940 -7.727274 1.644749
-11.124920 -7.853586 -1.672047
-10.924966 -7.709572 2.117810
-11.030451 -7.784011 -1.181135
-10.952305 -7.726002 2.605306
-11.048706 -7.791119 -0.708524
-10.944096 -7.714491 3.091277
-11.035485 -7.776026 -0.235642
-10.926148 -7.696134 3.581020
-0.954766 -0.670772 -0.312653
-11.055868 -7.764429 0.235817
-6.434019 -4.516875 -1.814905
-11.063087 -7.763734 0.708315
-7.659075 -5.374904 -1.818792
-11.074980 -7.769196 1.183575
-9.443662 -6.622356 -1.826842
-11.001356 -7.711821 1.649624
-11.218921 -7.861411 -1.682041
-11.019762 -7.718991 2.130950
-11.104877 -7.778611 -1.186190
-10.995290 -7.698985 2.609122
-11.098743 -7.768538 -0.709990
-11.009280 -7.703052 3.102075
-11.110081 -7.770697 -0.236655
-11.006778 -7.695584 3.598620
-0.963440 -0.671855 -0.314724
-11.120632 -7.752093 0.236620
-6.462537 -4.503301 -1.818504
-11.122897 -7.747901 0.710408
-7.689067 -5.355991 -1.821463
-11.146177 -7.761232 1.188281
-9.599669 -6.681887 -1.852497
-11.070576 -7.702849 1.655961
-11.249551 -7.824471 -1.682528
-11.075834 -7.700772 2.136582
-11.179402 -7.772781 -1.191245
-11.086583 -7.705376 2.624387
-11.173358 -7.762799 -0.713025
-11.077715 -7.693480 3.113773
-11.184774 -7.764940 -0.237667
-11.052616 -7.670335 3.604832
-0.967367 -0.669587 -0.315242
-11.210113 -7.756464 0.237946
-6.486232 -4.486257 -1.820754
-11.187657 -7.735155 0.712816
-7.699641 -5.323537 -1.819555
-11.222370 -7.756260 1.193511
-9.605057 -6.635985 -1.849056
-11.143130 -7.695748 1.662786
-11.324170 -7.817861 -1.689597
-11.131912 -7.682260 2.142214
-11.249102 -7.763133 -1.195777
-11.161891 -7.700077 2.635836
-11.254648 -7.761164 -0.716479
-11.143009 -7.681308 3.124570
-11.243095 -7.747410 -0.238330
-11.152509 -7.682115 3.628643
-0.964922 -0.662925 -0.313689
-11.276684 -7.744453 0.238784
-6.506671 -4.466897 -1.822104
-11.275521 -7.737868 0.716689
-7.735983 -5.308847 -1.823753
-11.283882 -7.740706 1.197171
-9.012348 -6.180132 -1.730791
-11.212497 -7.685986 1.669123
-11.408708 -7.817554 -1.698128
-11.204291 -7.674614 2.150974
-11.318868 -7.753096 -1.200309
-11.247018 -7.700997 2.649574
-11.317931 -7.746647 -0.718782
-11.208355 -7.668775 3.135368
-11.316286 -7.739727 -0.239307
-11.217531 -7.669307 3.641067
-0.970422 -0.661729 -0.314724
-11.346606 -7.734329 0.239691
-6.535107 -4.452936 -1.825703
-11.337130 -7.722074 0.718887
-7.770694 -5.292863 -1.827569
-11.345416 -7.724820 1.200832
-9.723001 -6.617674 -1.862822
-11.291780 -7.682529 1.676922
-11.476960 -7.805593 -1.704221
-11.273486 -7.664332 2.159109
-11.380464 -7.737062 -1.203969
-11.280329 -7.666102 2.651100
-11.401075 -7.745253 -0.722341
-11.289867 -7.666829 3.150664
-11.392871 -7.733869 -0.240355
-11.257022 -7.638781 3.645208
-0.980726 -0.663752 -0.317312
-11.424879 -7.729411 0.240773
-6.544155 -4.425731 -1.823903
-11.411999 -7.714891 0.721922
-7.797254 -5.271204 -1.829477
-11.421835 -7.718637 1.206061
-9.565986 -6.462061 -1.828406
-11.341558 -7.658623 1.680335
-11.530462 -7.783254 -1.708121
-11.365670 -7.669130 2.171623
-11.460252 -7.732950 -1.209547
-11.349338 -7.655223 2.661022
-11.469439 -7.733324 -0.724958
-11.361809 -7.657866 3.163262
-11.474525 -7.730925 -0.241506
-11.354119 -7.646925 3.667984
-0.992658 -0.666787 -0.320418
-11.496615 -7.719581 0.241716
-6.572507 -4.411550 -1.827502
-11.483640 -7.705055 0.724748
-7.820498 -5.247236 -1.830622
-11.508278 -7.718673 1.212336
-9.682008 -6.491330 -1.846240
-11.427587 -7.658772 1.689109
-11.643318 -7.800411 -1.720795
-11.451460 -7.668977 2.182887
-11.541807 -7.729482 -1.215300
-11.428194 -7.650510 2.673234
-11.532883 -7.717679 -0.727261
-11.404669 -7.628995 3.167761
-11.542997 -7.718616 -0.242379
-11.425714 -7.637304 3.682477
-1.004624 -0.669748 -0.323524
-11.561763 -7.704912 0.242519
-6.600842 -4.397222 -1.831102
-11.563981 -7.703472 0.728203
-7.848571 -5.226434 -1.832911
-11.583247 -7.710474 1.217391
-9.786834 -6.512210 -1.861883
-11.517060 -7.660613 1.698371
-11.682046 -7.767417 -1.722502
-11.486694 -7.637527 2.184764
-11.613518 -7.718926 -1.220006
-11.510428 -7.647512 2.686209
-11.609665 -7.710520 -0.730401
-11.512405 -7.643034 3.190256
-11.605182 -7.704628 -0.243147
-11.486389 -7.622874 3.693866
-0.994067 -0.657709 -0.319383
-11.647287 -7.706252 0.243775
-6.612136 -4.373158 -1.830202
-11.634118 -7.691697 0.730924
-7.874956 -5.204419 -1.834819
-11.651651 -7.697446 1.221749
-9.783653 -6.463388 -1.857190
-11.575530 -7.644256 1.703246
-11.711053 -7.730821 -1.722989
-11.559452 -7.627845 2.193524
-11.680307 -7.704669 -1.224190
-11.575057 -7.635243 2.695368
-11.696864 -7.712661 -0.734274
-11.593007 -7.641278 3.205553
-11.685439 -7.699277 -0.244264
-11.571010 -7.620986 3.712501
-0.999472 -0.656530 -0.320418
-11.709219 -7.688597 0.244508
-6.643653 -4.360744 -1.834701
-11.710992 -7.683913 0.734064
-7.897095 -5.181507 -1.835964
-11.720428 -7.687178 1.226281
-9.806155 -6.429196 -1.857190
-11.665233 -7.645154 1.712508
-11.774500 -7.713825 -1.728351
-11.658720 -7.635066 2.207291
-11.757463 -7.699731 -1.229593
-11.657486 -7.631352 2.708343
-11.772180 -7.703499 -0.737309
-11.642443 -7.615700 3.211851
-11.764127 -7.692366 -0.245346
-11.626649 -7.599575 3.721818
-1.013086 -0.660423 -0.324041
-11.781223 -7.677152 0.245451
-6.653934 -4.334338 -1.833351
-11.792975 -7.678950 0.737518
-7.931586 -5.164621 -1.839780
-11.802297 -7.682084 1.232034
-9.921260 -6.455256 -1.874711
-11.711817 -7.617376 1.715433
-11.941153 -7.763567 -1.748825
-11.731677 -7.624463 2.216051
-11.834386 -7.691214 -1.234823
-11.730149 -7.620563 2.719028
-11.827475 -7.680852 -0.739088
-11.740875 -7.621700 3.231647
-11.837876 -7.681733 -0.246323
-11.701728 -7.590483 3.737347
-1.020251 -0.660030 -0.325594
-11.865040 -7.672904 0.246637
-6.678843 -4.317432 -1.836051
-11.851581 -7.658334 0.739507
-7.989141 -5.162477 -1.848939
-11.879249 -7.673270 1.237263
-9.907222 -6.397014 -1.867828
-11.788373 -7.608740 1.722745
-11.994870 -7.739057 -1.752725
-11.798061 -7.609164 2.223560
-11.911057 -7.679095 -1.239878
-11.796282 -7.605099 2.728187
-11.906259 -7.673059 -0.742333
-11.816553 -7.612333 3.245144
-11.915056 -7.672844 -0.247370
-11.799625 -7.595598 3.760123
-1.030793 -0.661503 -0.328183
-11.957387 -7.673560 0.247999
-6.695514 -4.295145 -1.836500
-11.930362 -7.650336 0.742752
-8.136930 -5.215799 -1.878706
-11.966005 -7.667303 1.243364
-9.943911 -6.369180 -1.870331
-11.878382 -7.608230 1.732007
-11.988374 -7.675735 -1.747850
-11.854498 -7.587102 2.229192
-12.001567 -7.678272 -1.246501
-11.873694 -7.593547 2.739636
-11.998246 -7.670247 -0.746311
-11.854229 -7.575266 3.247843
-11.995688 -7.665663 -0.248487
-11.861882 -7.577246 3.771511
-1.026578 -0.653750 -0.326112
-12.032667 -7.659747 0.248976
-6.722720 -4.277899 -1.839650
-12.021025 -7.649393 0.746729
-8.232944 -5.236888 -1.896641
-12.036412 -7.653279 1.247896
-9.972750 -6.338671 -1.871582
-11.963153 -7.600839 1.740294
-12.209133 -7.754128 -1.775880
-11.984296 -7.611333 2.248589
-12.066981 -7.660896 -1.250511
-11.983010 -7.604652 2.758717
-12.068798 -7.656136 -0.749032
-11.966176 -7.588111 3.271238
-12.067969 -7.652661 -0.249430
-11.940473 -7.568890 3.788076
-1.038652 -0.656355 -0.329218
-12.085044 -7.636900 0.249535
-6.741812 -4.258704 -1.840999
-12.098316 -7.639375 0.749870
-8.266115 -5.217548 -1.900076
-12.115289 -7.644179 1.253300
-10.050517 -6.341405 -1.882220
-12.038664 -7.592895 1.747607
-12.281797 -7.743241 -1.782705
-12.034186 -7.584201 2.252970
-12.139164 -7.647401 -1.255217
-12.038062 -7.583709 2.765586
-12.161724 -7.658644 -0.753219
-12.047346 -7.583684 3.286535
-12.143689 -7.641373 -0.250442
-12.015880 -7.558018 3.803605
-1.053915 -0.661120 -0.333359
-12.172621 -7.632910 0.250791
-6.758288 -4.236179 -1.841449
-12.179068 -7.631032 0.753219
-8.304999 -5.203659 -1.905037
-12.186162 -7.632515 1.258006
-10.131191 -6.342971 -1.893170
-12.092018 -7.567675 1.751506
-12.320532 -7.707696 -1.784411
-12.107484 -7.571475 2.261730
-12.223583 -7.644078 -1.261318
-12.094426 -7.560373 2.772455
-12.223950 -7.638373 -0.755417
-12.116718 -7.568427 3.298232
-12.231356 -7.637062 -0.251699
-12.084798 -7.542627 3.817064
-1.059496 -0.659479 -0.334394
-12.262012 -7.629461 0.252083
-6.781307 -4.217708 -1.843699
-12.244641 -7.612729 0.755627
-8.333117 -5.180859 -1.907327
-12.287186 -7.636203 1.265676
-10.138169 -6.298186 -1.890354
-12.185817 -7.567309 1.761256
-12.360853 -7.673018 -1.786361
-12.167409 -7.549995 2.267987
-12.307752 -7.637079 -1.267244
-12.197490 -7.565712 2.790009
-12.306556 -7.630389 -0.758871
-12.196067 -7.558937 3.312629
-12.319133 -7.632236 -0.252955
-12.180034 -7.543116 3.838804
-1.074941 -0.663897 -0.338535
-12.334512 -7.614975 0.253025
-6.800963 -4.197083 -1.845049
-12.320436 -7.600348 0.758662
-8.349480 -5.150706 -1.906945
-12.356164 -7.619411 1.270033
-10.136550 -6.248250 -1.885974
-12.245957 -7.545553 1.766131
-12.461931 -7.675629 -1.797085
-12.264337 -7.550977 2.281128
-12.386928 -7.626455 -1.272648
-12.287359 -7.562191 2.804511
-12.390953 -7.622966 -0.762430
-12.268858 -7.544901 3.325227
-12.381474 -7.611179 -0.253688
-12.265543 -7.536963 3.857439
-1.069016 -0.655094 -0.335947
-12.425814 -7.611568 0.254351
-6.827207 -4.180439 -1.848198
-12.415032 -7.599001 0.762849
-8.374107 -5.125629 -1.908472
-12.420074 -7.599113 1.273868
-10.333559 -6.320015 -1.918513
-12.346745 -7.548320 1.776855
-12.481872 -7.627944 -1.796111
-12.324337 -7.528713 2.287385
-12.466184 -7.615365 -1.278052
-12.353895 -7.543809 2.813669
-12.473742 -7.614009 -0.765884
-12.331717 -7.524359 3.335124
-12.471134 -7.606439 -0.254980
-12.314870 -7.508185 3.864686
-1.082851 -0.658384 -0.339571
-12.483066 -7.586842 0.254980
-6.856747 -4.165689 -1.852247
-12.501230 -7.591907 0.766513
-8.400337 -5.101464 -1.910380
-12.518057 -7.599135 1.281189
-10.416353 -6.320797 -1.929776
-12.434115 -7.542241 1.785630
-12.596691 -7.637844 -1.808785
-12.407978 -7.520459 2.298023
-12.543806 -7.602784 -1.283281
-12.443958 -7.539301 2.828171
-12.561749 -7.607665 -0.769653
-12.444594 -7.533746 3.358519
-12.554066 -7.597028 -0.256132
-12.410429 -7.507144 3.886427
-1.091759 -0.658592 -0.341641
-12.574549 -7.582458 0.256306
-6.866239 -4.138713 -1.850897
-12.577265 -7.578115 0.769548
-8.421457 -5.074137 -1.911143
-12.599123 -7.588284 1.286767
-10.484045 -6.311910 -1.938223
-12.490984 -7.517217 1.790017
-12.650492 -7.610198 -1.812685
-12.518796 -7.528004 2.313666
-12.633442 -7.596944 -1.289731
-12.524045 -7.528183 2.840383
-12.634451 -7.591543 -0.772479
-12.520932 -7.520365 3.372016
-12.633658 -7.585066 -0.257214
-12.502816 -7.503542 3.907132
-1.100682 -0.658745 -0.343712
-12.662715 -7.575479 0.257563
-6.889005 -4.119720 -1.853147
-12.663643 -7.570033 0.773212
-8.439118 -5.044710 -1.911143
-12.690526 -7.583097 1.293391
-10.536540 -6.293509 -1.943855
-12.551237 -7.493918 1.794892
-12.724706 -7.594482 -1.819509
-12.585711 -7.508548 2.321175
-12.719770 -7.588527 -1.295832
-12.594090 -7.510561 2.850305
-12.707192 -7.575010 -0.775305
-12.580588 -7.496563 3.381014
-12.728778 -7.581853 -0.258610
-12.585367 -7.493459 3.924732
-1.112942 -0.660816 -0.346818
-12.756147 -7.571035 0.258924
-6.910048 -4.099625 -1.854946
-12.748398 -7.560420 0.776770
-8.441478 -5.006207 -1.907708
-12.771761 -7.571263 1.298969
-10.575438 -6.266761 -1.946984
-12.686625 -7.514812 1.810491
-12.850208 -7.608678 -1.833646
-12.669642 -7.498779 2.331812
-12.799333 -7.575538 -1.301235
-12.681057 -7.502546 2.864043
-12.797165 -7.568224 -0.779178
-12.697268 -7.506151 3.405309
-12.817141 -7.574001 -0.259866
-12.664674 -7.480923 3.941297
-1.120235 -0.659869 -0.348370
-12.827300 -7.552843 0.259831
-6.932714 -4.080422 -1.857196
-12.834962 -7.551321 0.780434
-8.450441 -4.971733 -1.905800
-12.835896 -7.548856 1.302804
-10.600655 -6.231809 -1.947609
-12.764124 -7.500651 1.817803
-12.921193 -7.589917 -1.839983
-12.750251 -7.486514 2.341824
-12.877242 -7.561079 -1.306465
-12.778280 -7.499973 2.880071
-12.899302 -7.567977 -0.783783
-12.763737 -7.485443 3.416107
-12.902156 -7.563599 -0.261053
-12.747379 -7.469877 3.958896
-1.125868 -0.657904 -0.349406
-12.919199 -7.546350 0.261158
-6.955330 -4.061110 -1.859445
-12.914716 -7.537682 0.783679
-8.457571 -4.936266 -1.903511
-12.941329 -7.550192 1.310822
-10.596748 -6.179841 -1.942916
-12.834819 -7.482044 1.824140
-13.174007 -7.676693 -1.872157
-12.841169 -7.479742 2.353713
-12.831528 -7.471128 2.886177
-12.836949 -7.468286 3.428704
-12.820145 -7.452517 3.973390
-1.126486 -0.653001 -0.348888
-16.122139 -9.341917 0.325243
-6.979581 -4.042667 -1.862145
-13.007044 -7.533854 0.787761
-8.449263 -4.891960 -1.897786
-13.015890 -7.532912 1.315703
-10.614835 -6.140835 -1.942291
-12.902099 -7.461049 1.829990
-13.230322 -7.650855 -1.876544
-12.934311 -7.476661 2.366228
-20.577137 -11.889796 -2.079187
-12.918731 -7.461644 2.899915
-12.939278 -7.470497 3.449399
-32.181576 -18.572557 -0.648566
-12.928456 -7.458229 3.999272
-1.128645 -0.649262 -0.348888
-6.991259 -4.018528 -1.861695
-32.162575 -18.486830 1.944176
-8.479058 -4.871739 -1.900839
-32.270271 -18.533760 3.255790
-10.600878 -6.085931 -1.936033
-13.016300 -7.469601 1.842665
-13.307273 -7.636580 -1.883857
-13.003584 -7.459283 2.374362
-20.595711 -11.809600 -2.077096
-13.018348 -7.461718 2.916706
-12.997798 -7.446922 3.458397
-17.271109 -9.891258 -0.347408
-13.020176 -7.453712 4.019978
-1.142536 -0.652220 -0.352512
-32.322323 -18.443810 0.649579
-7.018089 -4.003047 -1.865294
-8.481522 -4.835814 -1.897786
-10.686225 -6.087900 -1.947922
-13.106549 -7.463724 1.851927
-13.409755 -7.633291 -1.894581
-13.084484 -7.445108 2.384374
-13.101044 -7.451508 2.929682
-13.118592 -7.455426 3.483592
-15.914551 -9.040723 -0.319484
-13.083075 -7.429201 4.031366
-1.144806 -0.648228 -0.352512
-7.042195 -3.984283 -1.867994
-8.508604 -4.811978 -1.900076
-10.738365 -6.068057 -1.953554
-13.180918 -7.445264 1.858751
-13.463979 -7.602048 -1.898481
-13.186084 -7.442112 2.398141
-13.191951 -7.442388 2.944183
-13.175092 -7.426812 3.491690
-15.893744 -8.955668 -0.318437
-1.138640 -0.639498 -0.349923
-7.067956 -3.966352 -1.871143
-8.513364 -4.775524 -1.897405
-10.754312 -6.027637 -1.952615
-13.262245 -7.430257 1.866551
-13.549321 -7.587983 -1.906768
-13.277481 -7.432705 2.410030
-13.289806 -7.436559 2.960211
-13.258767 -7.413115 3.506987
-6.033421 -3.360920 -1.850556
-32.863113 -18.298889 0.656560
-7.080055 -3.940709 -1.870693
-8.512826 -4.736233 -1.893589
-10.808091 -6.008297 -1.958560
-13.360981 -7.424411 1.876788
-13.610431 -7.559921 -1.911643
-13.327525 -7.399737 2.414410
-13.350018 -7.409174 2.967843
-13.383409 -7.421600 3.533081
-6.038352 -3.336100 -1.848486
-7.098886 -3.918798 -1.872043
-8.518993 -4.700797 -1.891299
-10.870514 -5.993426 -1.966069
-13.456355 -7.416056 1.886538
-13.622828 -7.504703 -1.909693
-13.457098 -7.410338 2.433182
-13.468674 -7.413654 2.988451
-13.439972 -7.391739 3.541179
-6.060126 -3.320572 -1.851591
-7.121069 -3.898671 -1.874292
-8.525017 -4.665376 -1.889009
-13.829783 -7.565316 1.379152
-10.901770 -5.961127 -1.967946
-13.544869 -7.403314 1.895312
-13.701200 -7.485660 -1.917005
