# This PCD file was generated using the MATLAB® pcwrite function
# from Computer Vision Toolbox®.
# .PCD v.7 - Point Cloud Data file format
VERSION .7
FIELDS x y z
SIZE 4 4 4
TYPE F F F
COUNT 1 1 1
WIDTH 1602
HEIGHT 1
VIEWPOINT 0 0 0 1 0 0 0
POINTS 1602
DATA ascii
-3.799175 -7.373395 -0.434703
-4.378692 -8.494474 2.206320
-4.413136 -8.557621 -0.168067
-4.384429 -8.498315 2.562309
-0.408406 -0.789244 -0.238114
-4.433928 -8.564887 0.168346
-0.510837 -0.986348 -0.256444
-4.432773 -8.558998 0.505147
-0.615069 -1.187096 -0.259882
-4.437782 -8.561351 0.843668
-4.440473 -8.562884 -1.527739
-4.442789 -8.563692 1.184570
-4.515611 -8.700347 -1.203582
-4.439821 -8.554320 1.526488
-3.839627 -7.394753 -0.728971
-4.449933 -8.566488 1.876416
-3.848835 -7.406166 -0.437424
-4.417305 -8.496428 2.210819
-4.446101 -8.551813 -0.168241
-4.416151 -8.490585 2.564379
-0.425460 -0.815216 -0.246396
-4.464156 -8.553681 0.168416
-0.515909 -0.988103 -0.257344
-4.470020 -8.557634 0.505984
-0.631939 -1.209301 -0.265225
-4.472255 -8.554636 0.844539
-4.465183 -8.541109 -1.526488
-4.473003 -8.552431 1.185058
-4.476068 -8.551022 1.528678
-4.471756 -8.539157 -0.843319
-4.481959 -8.558640 1.877942
-4.490667 -8.571630 -0.507135
-4.450885 -8.492088 2.213518
-4.487069 -8.557492 -0.168660
-4.451149 -8.485382 2.567485
-0.424563 -0.806962 -0.244325
-4.499573 -8.548665 0.168625
-0.510276 -0.969053 -0.252845
-4.507312 -8.556115 0.506821
-0.634115 -1.203725 -0.264461
-4.510818 -8.559148 0.846457
-4.511554 -8.556924 -1.532119
-4.508386 -8.547298 1.186520
-4.510500 -8.544079 1.530242
-4.508980 -8.537590 -0.844713
-4.511807 -8.542944 1.877942
-4.514963 -8.545306 -0.506507
-4.483233 -8.481668 2.214868
-4.522521 -8.552384 -0.168869
-4.482546 -8.473209 2.568520
-0.449256 -0.846353 -0.256748
-4.537826 -8.548800 0.168939
-0.517311 -0.974151 -0.254645
-4.537151 -8.540330 0.506821
-0.649580 -1.222196 -0.269041
-4.545899 -8.549593 0.847154
-4.543787 -8.542026 1.187982
-1.281332 -2.407807 -0.334897
-4.549580 -8.545718 1.533371
-1.208212 -2.268494 -0.224862
-4.532011 -8.505559 1.873363
-4.550011 -8.535751 -0.506926
-4.513373 -8.463461 2.214418
-4.557052 -8.545367 -0.169044
-4.523917 -8.479669 2.575250
-0.439444 -0.820935 -0.249502
-4.573849 -8.540926 0.169114
-0.520878 -0.972248 -0.254645
-4.573538 -8.536764 0.507554
-0.644567 -1.202618 -0.265225
-4.585131 -8.551231 0.848897
-0.673248 -1.255076 -0.225579
-4.587266 -8.548054 1.191151
-1.392497 -2.593733 -0.361465
-4.581252 -8.533267 1.533997
-1.283999 -2.390640 -0.237412
-4.554239 -8.475850 1.870310
-4.589235 -8.537408 -0.507973
-4.562271 -8.483697 2.223866
-4.589694 -8.534692 -0.169149
-4.557150 -8.470630 2.577320
-0.449648 -0.832996 -0.253643
-4.609746 -8.539788 0.169393
-0.531507 -0.984233 -0.258244
-4.611851 -8.536564 0.508496
-0.630092 -1.165817 -0.257592
-4.614003 -8.533422 0.848723
-0.660494 -1.221559 -0.219947
-4.619366 -8.539779 1.192126
-1.284884 -2.374361 -0.331485
-4.618534 -8.531120 1.536500
-1.348318 -2.489508 -0.247697
-4.586059 -8.467608 1.871836
-4.623230 -8.532679 -0.508601
-4.596880 -8.480514 2.227015
-4.625178 -8.529165 -0.169358
-4.583006 -8.447879 2.575250
-0.433942 -0.797562 -0.243290
-4.640481 -8.525403 0.169428
-0.533075 -0.978949 -0.257344
-4.652132 -8.539706 0.509648
-0.622684 -1.143033 -0.253013
-4.652763 -8.537319 0.850640
-0.628822 -1.153341 -0.208058
-4.659606 -8.542771 1.194807
-1.381593 -2.531919 -0.354152
-4.653018 -8.523616 1.538064
-1.333655 -2.443052 -0.243513
-4.630647 -8.479115 1.877942
-4.660645 -8.530511 -0.509438
-4.632063 -8.474675 2.229715
-4.660679 -8.523496 -0.169568
-4.632864 -8.469116 2.586638
-0.444157 -0.809592 -0.247431
-4.679834 -8.526684 0.169777
-0.534614 -0.973666 -0.256444
-4.687682 -8.533918 0.510276
-0.620999 -1.130528 -0.250723
-4.684455 -8.524518 0.850989
-0.632844 -1.151139 -0.208058
-4.691308 -8.529934 1.195295
-1.310998 -2.382725 -0.333922
-4.696076 -8.531549 1.542444
-1.354664 -2.461073 -0.245779
-4.662109 -8.466341 1.878706
-4.695215 -8.522936 -0.509962
-4.673845 -8.480642 2.235564
-4.695229 -8.515932 -0.169742
-4.676394 -8.478266 2.594402
-0.452591 -0.818179 -0.250537
-4.720220 -8.529541 0.170161
-0.545560 -0.985433 -0.260043
-4.719378 -8.520998 0.510485
-0.626844 -1.131789 -0.251486
-4.721908 -8.522057 0.852383
-0.611001 -1.102275 -0.199610
-4.727794 -8.525659 1.197001
-1.241304 -2.237530 -0.314179
-4.728704 -8.520287 1.543383
-1.306203 -2.353546 -0.235495
-4.702118 -8.468895 1.882903
-4.710990 -8.477903 2.239163
-4.735616 -8.518715 -0.170126
-4.709714 -8.468645 2.596473
-0.455444 -0.816594 -0.250537
-4.754837 -8.521744 0.170335
-0.547097 -0.980119 -0.259144
-4.758831 -8.521910 0.511532
-0.620262 -1.110738 -0.247288
-4.762315 -8.524654 0.854301
-0.626409 -1.120828 -0.203365
-4.764307 -8.521232 1.198707
-1.324693 -2.368318 -0.333191
-4.766134 -8.517519 1.545886
-1.325113 -2.368098 -0.237412
-4.740281 -8.467849 1.886338
-1.248180 -2.228786 -0.133875
-4.734839 -8.451206 2.236463
-4.770210 -8.510857 -0.170301
-4.747750 -8.467319 2.601131
-0.452611 -0.804896 -0.247431
-4.789457 -8.513808 0.170510
-0.548603 -0.974807 -0.258244
-4.794428 -8.515688 0.512160
-0.626062 -1.111988 -0.248052
-4.791066 -8.506243 0.854126
-0.626439 -1.111750 -0.202113
-4.800846 -8.516654 1.200413
-1.307600 -2.318723 -0.326854
-4.800690 -8.509432 1.547450
-1.334350 -2.365193 -0.237587
-4.769811 -8.451250 1.886338
-4.771978 -8.448201 2.240062
-4.805792 -8.504599 -0.170510
-4.779180 -8.454058 2.602167
-0.453512 -0.799950 -0.246396
-4.823093 -8.503997 0.170650
-0.555849 -0.979666 -0.260043
-4.834968 -8.518008 0.513311
-0.627032 -1.104674 -0.246907
-4.827616 -8.501595 0.855346
-0.639097 -1.125015 -0.204929
-4.840354 -8.517103 1.202851
-1.434401 -2.522952 -0.356346
-4.838178 -8.506360 1.549953
-1.345553 -2.365717 -0.238109
-4.814817 -8.461851 1.892444
-1.265685 -2.223490 -0.134085
-4.815905 -8.456894 2.246811
-4.844359 -8.503408 -0.170824
-4.806748 -8.433967 2.601131
-0.458219 -0.801717 -0.247431
-4.860687 -8.500998 0.170929
-0.553460 -0.967570 -0.257344
-4.868642 -8.508013 0.513730
-0.627959 -1.097366 -0.245762
-4.867161 -8.501983 0.857090
-0.631240 -1.102207 -0.201175
-4.868081 -8.496710 1.202363
-1.292167 -2.254425 -0.319054
-4.876684 -8.504843 1.552769
-1.323079 -2.307425 -0.232706
-4.837487 -8.433071 1.889772
-1.249581 -2.177483 -0.131573
-4.851217 -8.450171 2.249511
-4.878991 -8.495116 -0.170999
-4.842896 -8.428863 2.604755
-0.466801 -0.810156 -0.250537
-4.901319 -8.503036 0.171313
-0.558781 -0.969009 -0.258244
-4.899307 -8.492697 0.513834
-0.637672 -1.105371 -0.248052
-4.904777 -8.498746 0.858484
-0.636071 -1.101708 -0.201488
-4.908630 -8.498575 1.205044
-1.351672 -2.339278 -0.331728
-4.913263 -8.499740 1.554959
-1.372007 -2.373515 -0.239853
-4.886551 -8.450125 1.897405
-1.259174 -2.176565 -0.131782
-4.874828 -8.423067 2.246811
-4.917634 -8.493610 -0.171313
-4.881003 -8.426950 2.609414
-0.467686 -0.805180 -0.249502
-4.939006 -8.499707 0.171592
-0.560201 -0.963683 -0.257344
-4.931458 -8.483310 0.514253
-0.644488 -1.108230 -0.249197
-4.946434 -8.502241 0.860576
-0.636932 -1.094359 -0.200549
-4.946259 -8.495111 1.206994
-1.383394 -2.375955 -0.337578
-4.945397 -8.490229 1.556210
-1.302041 -2.234439 -0.226256
-4.926894 -8.451674 1.901603
-1.261734 -2.163530 -0.131259
-4.918440 -8.433789 2.254009
-4.958872 -8.499708 -0.171767
-4.913790 -8.419061 2.612002
-0.466450 -0.796956 -0.247431
-4.975248 -8.497087 0.171871
-0.565364 -0.965183 -0.258244
-4.977734 -8.497931 0.516137
-0.644188 -1.099311 -0.247670
-4.980648 -8.496104 0.861622
-0.648552 -1.105873 -0.203052
-4.982437 -8.492360 1.208944
-1.367157 -2.330263 -0.331728
-4.980525 -8.485707 1.558400
-1.374007 -2.340068 -0.237412
-4.956883 -8.438674 1.902366
-1.278008 -2.174832 -0.132201
-4.961189 -8.442635 2.260758
-1.294135 -2.201396 -0.044573
-4.949516 -8.416041 2.616143
-0.474978 -0.805389 -0.250537
-5.005430 -8.483986 0.171941
-0.577476 -0.978407 -0.262293
-5.011429 -8.487382 0.516556
-0.651823 -1.103931 -0.249197
-5.013861 -8.488118 0.862493
-0.650206 -1.100315 -0.202426
-5.021684 -8.494588 1.211625
-1.431870 -2.421161 -0.345378
-5.018162 -8.481871 1.560903
-1.373034 -2.319826 -0.235843
-4.986838 -8.425570 1.903129
-1.281142 -2.163708 -0.131782
-5.000563 -8.442031 2.265257
-1.316083 -2.220950 -0.045062
-4.995609 -8.426965 2.624943
-0.485827 -0.816926 -0.254678
-5.041148 -8.476774 0.172151
-0.571921 -0.961312 -0.258244
-5.052262 -8.488716 0.517707
-0.657874 -1.104908 -0.249960
-5.051055 -8.479955 0.863539
-0.654234 -1.097924 -0.202426
-5.051305 -8.477007 1.211625
-1.334602 -2.238816 -0.320029
-5.059880 -8.484662 1.564658
-1.298440 -2.176426 -0.221724
-5.027747 -8.424094 1.906945
-1.280873 -2.145279 -0.130945
-5.036466 -8.432014 2.267507
-1.314599 -2.200892 -0.044748
-5.035898 -8.427716 2.630637
-0.472783 -0.788714 -0.246396
-5.084524 -8.478820 0.172569
-0.578448 -0.964223 -0.259594
-5.087451 -8.476992 0.518126
-0.663747 -1.105972 -0.250723
-5.094983 -8.486185 0.865979
-0.660097 -1.099020 -0.203052
-5.094609 -8.478855 1.214550
-1.475749 -2.455088 -0.351715
-5.099088 -8.479602 1.567161
-1.384464 -2.301405 -0.234972
-5.073315 -8.433409 1.913051
-1.290414 -2.144217 -0.131154
-5.068883 -8.419389 2.268856
-1.313371 -2.180642 -0.044434
-5.073729 -8.420785 2.634260
-0.493658 -0.816735 -0.255713
-5.123397 -8.476423 0.172884
-0.586852 -0.970536 -0.261843
-5.125280 -8.472853 0.518963
-0.663731 -1.096813 -0.249197
-5.133275 -8.479384 0.867200
-0.666167 -1.099973 -0.203678
-5.131374 -8.472906 1.216256
-1.532655 -2.529718 -0.363171
-5.132751 -8.468508 1.568412
-1.401786 -2.311891 -0.236541
-5.104191 -8.414758 1.913051
-1.294119 -2.132643 -0.130735
-5.106787 -8.412415 2.272006
-1.311636 -2.160659 -0.044120
-5.110112 -8.414582 2.637884
-0.478141 -0.785477 -0.246396
-5.159800 -8.473051 0.173163
-0.583984 -0.958599 -0.259144
-5.164783 -8.474570 0.520115
-0.671260 -1.101428 -0.250723
-5.161961 -8.466619 0.867548
-0.675791 -1.107993 -0.205555
-5.171851 -8.476177 1.219181
-1.542069 -2.526317 -0.363414
-5.173160 -8.471671 1.572167
-1.436450 -2.351436 -0.241073
-5.144930 -8.422137 1.918394
-1.296647 -2.121750 -0.130317
-5.140306 -8.407968 2.275155
-1.313577 -2.147768 -0.043945
-5.138997 -8.399238 2.638402
-0.481017 -0.783719 -0.246396
-5.192484 -8.460099 0.173267
-0.597523 -0.973162 -0.263643
-5.202694 -8.470106 0.520952
-0.679404 -1.105651 -0.252250
-5.200262 -8.459524 0.868768
-0.677778 -1.102144 -0.204929
-5.217005 -8.483437 1.222837
-1.523835 -2.476958 -0.357077
-5.204772 -8.456927 1.572792
-1.329746 -2.159781 -0.221899
-5.177824 -8.406566 1.919157
-1.312797 -2.130587 -0.131154
-5.183359 -8.408978 2.280554
-1.324214 -2.148277 -0.044050
-5.173354 -8.389469 2.640990
-0.495945 -0.801751 -0.252607
-5.238187 -8.464818 0.173756
-0.599034 -0.967651 -0.262743
-5.244845 -8.472272 0.522208
-0.679124 -1.096597 -0.250723
-5.243403 -8.463337 0.871035
-0.681621 -1.099771 -0.204929
-5.248061 -8.464259 1.222837
-1.334097 -2.150839 -0.310767
-5.248838 -8.462210 1.577173
-1.427619 -2.300720 -0.236889
-5.209205 -8.391777 1.919920
-1.318119 -2.122597 -0.130945
-5.228106 -8.415664 2.287302
-1.331705 -2.143641 -0.044050
-5.205667 -8.376282 2.642542
-0.488520 -0.783621 -0.247431
-1.393255 -2.234879 0.045970
-0.596052 -0.955738 -0.260043
-5.277558 -8.458995 0.522522
-0.690224 -1.105878 -0.253394
-5.278188 -8.453434 0.871906
-0.689449 -1.104207 -0.206181
-5.282411 -8.456911 1.224300
-1.306508 -2.090850 -0.302723
-5.286719 -8.457237 1.579675
-1.436697 -2.297412 -0.237064
-5.253661 -8.401091 1.926026
-1.325150 -2.118215 -0.130945
-5.249782 -8.388368 2.284603
-1.347669 -2.152539 -0.044329
-5.251281 -8.384256 2.650825
-0.503446 -0.801628 -0.253643
-1.417005 -2.255400 0.046493
-0.603533 -0.960251 -0.261843
-5.313432 -8.450666 0.523150
-0.690753 -1.098597 -0.252250
-5.316800 -8.452748 0.873649
-0.694352 -1.103466 -0.206494
-5.323532 -8.456901 1.226981
-1.452371 -2.306327 -0.334653
-5.320420 -8.445416 1.580927
-1.338109 -2.124059 -0.219632
-5.293422 -8.399309 1.929842
-1.332536 -2.113577 -0.130945
-5.288385 -8.384828 2.288652
-1.348772 -2.137674 -0.044120
-5.293919 -8.387113 2.657554
-0.506241 -0.799866 -0.253643
-1.434497 -2.265646 0.046807
-0.613138 -0.968016 -0.264542
-5.353589 -8.448938 0.524197
-0.694583 -1.096179 -0.252250
-5.350541 -8.440869 0.874346
-0.704546 -1.111045 -0.208371
-5.362590 -8.453351 1.229174
-1.439139 -2.267721 -0.329778
-5.355162 -8.435132 1.582491
-1.357262 -2.137878 -0.221550
-5.326919 -8.387409 1.931369
-1.346332 -2.119027 -0.131573
-5.339573 -8.400855 2.298100
-1.355152 -2.131266 -0.044085
-5.323165 -8.368581 2.657554
-0.500719 -0.785064 -0.249502
-1.435943 -2.250510 0.046598
-0.614416 -0.962585 -0.263643
-5.388025 -8.441240 0.524825
-0.702632 -1.100366 -0.253776
-5.389625 -8.437252 0.875915
-0.706293 -1.105250 -0.207745
-5.399550 -8.446289 1.230880
-1.365764 -2.135586 -0.311254
-5.393747 -8.433968 1.585620
-1.404444 -2.195224 -0.227999
-5.370981 -8.391914 1.936711
-1.353721 -2.114315 -0.131573
-5.378325 -8.396934 2.302149
-1.365448 -2.131812 -0.044189
-5.361308 -8.367149 2.662730
-0.513901 -0.799563 -0.254678
-1.444479 -2.247419 0.046633
-0.617605 -0.960542 -0.263643
-5.433665 -8.447577 0.526395
-0.706469 -1.097907 -0.253776
-5.434142 -8.441842 0.878356
-0.723854 -1.124494 -0.211812
-5.426455 -8.426668 1.230637
-1.351337 -2.097669 -0.306380
-5.433855 -8.431693 1.588749
-1.353801 -2.099883 -0.218587
-5.400907 -8.377357 1.937475
-1.354229 -2.099743 -0.130945
-5.415650 -8.393789 2.306198
-1.378304 -2.135433 -0.044364
-5.405154 -8.371106 2.669977
-0.506051 -0.781637 -0.249502
-1.457751 -2.250755 0.046807
-0.615655 -0.950203 -0.261393
-5.466378 -8.433586 0.526709
-0.710105 -1.095558 -0.253776
-5.470778 -8.437149 0.879750
-0.727775 -1.121961 -0.211812
-5.468803 -8.427657 1.233562
-1.350004 -2.079619 -0.304430
-5.477241 -8.434211 1.592816
-1.365097 -2.102066 -0.219284
-5.442952 -8.378209 1.942054
-1.363727 -2.098352 -0.131154
-5.448103 -8.379735 2.307548
-1.390110 -2.137315 -0.044504
-5.448038 -8.373238 2.676707
-0.512999 -0.786338 -0.251572
-1.475434 -2.260724 0.047121
-0.628557 -0.962734 -0.265442
-5.503427 -8.426161 0.527442
-0.720367 -1.102935 -0.256066
-5.516541 -8.443021 0.882365
-0.734929 -1.124374 -0.212751
-5.514484 -8.433438 1.237218
-1.360515 -2.079878 -0.305161
-5.510975 -8.421652 1.594067
-1.374609 -2.100622 -0.219632
-5.485068 -8.378870 1.946633
-1.375421 -2.100263 -0.131573
-5.482661 -8.368817 2.309798
-1.397563 -2.132449 -0.044504
-5.479352 -8.357400 2.677742
-0.517863 -0.787771 -0.252607
-1.485515 -2.258902 0.047191
-0.636198 -0.967046 -0.267242
-5.543787 -8.423582 0.528489
-0.717736 -1.090574 -0.253776
-5.545981 -8.423711 0.882365
-0.737763 -1.120152 -0.212438
-5.551532 -8.425741 1.238924
-1.397264 -2.119867 -0.311742
-5.554473 -8.423804 1.598135
-1.374255 -2.084168 -0.218412
-5.520768 -8.369505 1.948923
-1.382744 -2.095449 -0.131573
-5.522576 -8.365891 2.314296
-1.404998 -2.127558 -0.044504
-5.510621 -8.341446 2.678777
-0.527010 -0.795622 -0.255713
-1.494495 -2.255369 0.047226
-0.641723 -0.968068 -0.268142
-5.569845 -8.399185 0.528175
-0.734559 -1.107697 -0.258355
-5.585263 -8.419244 0.883933
-0.739484 -1.114278 -0.211812
-5.591889 -8.422851 1.241361
-1.404655 -2.114977 -0.311742
-5.594777 -8.420815 1.601263
-1.378215 -2.074379 -0.217889
-5.552123 -8.353453 1.949686
-1.394473 -2.097262 -0.131991
-5.558221 -8.356297 2.316996
-1.416847 -2.129299 -0.044643
-5.545055 -8.330202 2.681365
-0.525495 -0.787350 -0.253643
-1.501248 -2.248476 0.047191
-0.638604 -0.956099 -0.265442
-0.735149 -1.100229 -0.257211
-5.631226 -8.424543 0.886548
-0.741173 -1.108406 -0.211187
-5.632294 -8.419779 1.243799
-1.471646 -2.199148 -0.324904
-5.636223 -8.419291 1.604705
-1.390989 -2.077834 -0.218761
-5.589986 -8.347073 1.952739
-1.397339 -2.085744 -0.131573
-5.602543 -8.359510 2.323294
-1.420930 -2.119358 -0.044539
-5.590242 -8.334859 2.689130
-0.526084 -0.782305 -0.252607
-1.515785 -2.253177 0.047401
-0.645201 -0.958715 -0.266792
-1.405414 -2.087539 0.131887
-0.745564 -1.107427 -0.259500
-5.669503 -8.418056 0.887943
-0.750556 -1.114003 -0.212751
-5.672745 -8.416528 1.246236
-1.388312 -2.059033 -0.304917
-5.676625 -8.415943 1.607834
-1.447255 -2.145644 -0.226431
-5.636659 -8.353548 1.958845
-1.402376 -2.077543 -0.131363
-5.634961 -8.344747 2.324644
-1.422723 -2.106100 -0.044364
-5.642015 -8.348908 2.700000
-0.535313 -0.790060 -0.255713
-0.655106 -0.966134 -0.269491
-1.401480 -2.066092 0.130840
-0.739506 -1.090195 -0.256066
-5.704447 -8.406458 0.888814
-0.756659 -1.114645 -0.213377
-5.711011 -8.409813 1.248186
-1.426725 -2.100151 -0.311742
-5.711518 -8.404245 1.609398
-1.530888 -2.252634 -0.238284
-5.670199 -8.340315 1.960372
-1.414112 -2.079242 -0.131782
-5.680498 -8.349195 2.331393
-1.423315 -2.091202 -0.044155
-5.686348 -8.351519 2.707247
-0.531532 -0.778613 -0.252607
-1.406298 -2.059240 0.043526
-0.651879 -0.954187 -0.266792
-1.390653 -2.034804 0.129165
-0.745522 -1.090849 -0.256829
-5.765242 -8.432546 0.893695
-0.763891 -1.116889 -0.214315
-5.748179 -8.401295 1.249892
-1.407138 -2.055844 -0.305892
-5.747517 -8.394037 1.611275
-1.518481 -2.217685 -0.235146
-5.719249 -8.349627 1.967241
-1.428135 -2.084178 -0.132410
-5.728339 -8.356640 2.339041
-1.428344 -2.082923 -0.044085
-5.714371 -8.330027 2.706730
-0.543005 -0.789487 -0.256748
-1.406677 -2.044434 0.043317
-0.661835 -0.961537 -0.269491
-1.385287 -2.011842 0.128014
-0.755084 -1.096193 -0.258737
-1.420687 -2.062483 0.219110
-0.763301 -1.107709 -0.213064
-5.789864 -8.399157 1.252573
-1.445860 -2.096677 -0.312717
-5.790243 -8.393435 1.615030
-1.422487 -2.061242 -0.219110
-5.754275 -8.335071 1.968767
-1.440304 -2.085503 -0.132829
-5.763012 -8.344611 2.341291
-1.442426 -2.087796 -0.044294
-5.754398 -8.325922 2.711906
-0.548096 -0.790667 -0.257784
-1.402766 -2.022831 0.042968
-0.663133 -0.955902 -0.268592
-1.392651 -2.006752 0.128014
-0.765814 -1.103094 -0.261027
-1.419148 -2.044169 0.217715
-0.774117 -1.114639 -0.214941
-5.827406 -8.387661 1.254036
-1.544169 -2.221768 -0.332216
-5.836755 -8.394862 1.619410
-1.541522 -2.216309 -0.236192
-5.795999 -8.330039 1.972583
-1.443375 -2.073653 -0.132410
-5.803577 -8.337827 2.345340
-1.452354 -2.085777 -0.044364
-5.790396 -8.312700 2.714494
-0.548778 -0.785485 -0.256748
-1.411315 -2.019316 0.043003
-0.666632 -0.953465 -0.268592
-1.387405 -1.983630 0.126862
-0.765159 -1.093979 -0.259500
-1.425488 -2.037321 0.217541
-0.777065 -1.110175 -0.214628
-5.867218 -8.379254 1.255986
-1.665051 -2.377057 -0.356346
-5.881088 -8.392826 1.623164
-1.509232 -2.153805 -0.230091
-5.840818 -8.332263 1.977926
-1.452898 -2.071873 -0.132619
-5.840813 -8.326072 2.348039
-1.468030 -2.091898 -0.044608
-5.828595 -8.302489 2.718118
-0.553740 -0.786725 -0.257784
-1.420658 -2.017648 0.043073
-0.676689 -0.960692 -0.271291
-1.388569 -1.970612 0.126339
-0.768973 -1.091302 -0.259500
-1.432591 -2.032333 0.217541
-0.785488 -1.113914 -0.215880
-5.911305 -8.379812 1.259154
-1.647014 -2.333926 -0.350740
-5.909207 -8.370634 1.622851
-1.506399 -2.133876 -0.228522
-5.885723 -8.334275 1.983269
-1.467035 -2.076576 -0.133247
-5.872090 -8.308816 2.348939
-1.445309 -2.044307 -0.043701
-5.870927 -8.301021 2.724329
-0.563188 -0.794242 -0.260890
-1.430006 -2.015938 0.043142
-0.684550 -0.964681 -0.273091
-1.401220 -1.973896 0.126862
-0.778460 -1.096616 -0.261408
-1.431601 -2.015949 0.216321
-0.790516 -1.112775 -0.216192
-5.960068 -8.386633 1.263298
-1.687356 -2.373464 -0.357565
-5.953275 -8.370881 1.626919
-1.584277 -2.227646 -0.239155
-5.919332 -8.320079 1.984795
-1.478907 -2.077952 -0.133666
-5.918012 -8.312079 2.355687
-1.453596 -2.040878 -0.043736
-5.911075 -8.296210 2.729506
-0.565957 -0.792271 -0.260890
-1.417270 -1.983276 0.042549
-0.694713 -0.971797 -0.275790
-1.402292 -1.960870 0.126339
-0.787993 -1.101876 -0.263316
-1.433992 -2.004457 0.215623
-0.784049 -1.095552 -0.213377
-6.000863 -8.381919 1.265735
-1.706034 -2.382084 -0.359758
-5.993962 -8.366108 1.630047
-1.564193 -2.183232 -0.234972
-5.955199 -8.308941 1.987085
-1.495462 -2.085762 -0.134503
-5.952667 -8.299291 2.357937
-1.456047 -2.029293 -0.043596
-5.956898 -8.299067 2.737270
-0.573232 -0.796563 -0.262960
-1.423015 -1.976693 0.042514
-0.688990 -0.956716 -0.272191
-1.412631 -1.960824 0.126653
-0.795278 -1.103898 -0.264461
-1.444475 -2.004289 0.216146
-0.784403 -1.088001 -0.212438
-6.032407 -8.364141 1.266223
-1.624905 -2.252158 -0.340990
-6.038157 -8.365957 1.634115
-1.535658 -2.127677 -0.229568
-6.004853 -8.316754 1.993954
-1.493378 -2.067576 -0.133666
-6.004427 -8.310052 2.366935
-1.471323 -2.035542 -0.043840
-6.003941 -8.303271 2.745553
-0.576009 -0.794557 -0.262960
-1.440473 -1.986283 0.042828
-0.690037 -0.951150 -0.271291
-1.417121 -1.952649 0.126444
-0.800279 -1.102704 -0.264843
-1.456145 -2.005683 0.216843
-1.468435 -2.021870 -0.395779
-6.070901 -8.355880 1.268173
-1.632756 -2.246472 -0.340990
-6.080102 -8.362404 1.637556
-1.560650 -2.146476 -0.232183
-6.033847 -8.295742 1.993954
-1.505286 -2.068811 -0.134085
-6.048307 -8.309524 2.372784
-1.485481 -2.040094 -0.044050
-6.048814 -8.304122 2.752800
-0.569529 -0.780160 -0.258819
-1.455307 -1.992800 0.043073
-0.706982 -0.967739 -0.276690
-1.425604 -1.951413 0.126653
-0.801615 -1.096874 -0.264080
-1.463964 -2.002452 0.217018
-1.483295 -2.028151 -0.397969
-6.116160 -8.359735 1.271829
-1.637852 -2.237841 -0.340503
-6.112177 -8.351232 1.639121
-1.638380 -2.237743 -0.242642
-6.084526 -8.307364 2.001586
-1.519221 -2.073474 -0.134713
-6.081590 -8.297279 2.375033
-1.504887 -2.053158 -0.044434
-6.084010 -8.297544 2.756941
-0.569959 -0.775055 -0.257784
-1.464276 -1.991185 0.043142
-0.705568 -0.959111 -0.274890
-1.434775 -1.949641 0.126862
-0.813586 -1.105136 -0.266751
-1.466219 -1.990912 0.216321
-1.502898 -2.040717 -0.401411
-6.195655 -8.409726 1.282553
-1.654686 -2.245182 -0.342453
-6.181147 -8.383904 1.649758
-1.639085 -2.222389 -0.241596
-6.123693 -8.302941 2.005403
-1.524903 -2.066818 -0.134608
-6.125273 -8.299018 2.381332
-1.528673 -2.070415 -0.044922
-6.104902 -8.265378 2.753317
-0.565628 -0.763845 -0.254678
-1.464076 -1.976421 0.042933
-0.708912 -0.956642 -0.274890
-1.445140 -1.949435 0.127176
-0.818416 -1.104009 -0.267133
-1.468066 -1.979638 0.215623
-1.499419 -2.021180 -0.398595
-1.731143 -2.331836 -0.356590
-16.697229 -22.482836 4.435544
-1.602494 -2.157759 -0.235146
-6.150298 -8.278364 2.004639
-1.541640 -2.074306 -0.135445
-6.163506 -8.290096 2.384931
-1.537085 -2.066671 -0.044957
-6.152167 -8.268816 2.761599
-0.563671 -0.755672 -0.252607
-1.473358 -1.974504 0.043003
-0.706418 -0.946353 -0.272641
-1.456717 -1.950780 0.127595
-0.821090 -1.099572 -0.266751
-1.513123 -2.025580 0.221201
-1.511195 -2.022264 -0.399847
-1.773749 -2.371882 -0.363658
-16.792170 -22.446564 4.439924
-1.663722 -2.223944 -0.242990
-6.200331 -8.285137 2.011509
-1.541689 -2.059319 -0.134817
-6.206423 -8.287251 2.390330
-1.556279 -2.077296 -0.045306
-6.198373 -8.270479 2.769364
-0.584873 -0.778412 -0.260890
-1.486249 -1.977341 0.043177
-0.719086 -0.956342 -0.276240
-1.461116 -1.942491 0.127386
-0.820202 -1.090424 -0.265225
-1.592060 -2.115808 0.231660
-1.528937 -2.031180 -0.402662
-18.446529 -24.497164 3.765275
-1.774851 -2.356163 -0.362196
-16.856161 -22.368877 4.436169
-1.645097 -2.183117 -0.239155
-6.241030 -8.279122 2.015325
-1.556083 -2.063493 -0.135445
-6.240010 -8.271757 2.392130
-1.565930 -2.075043 -0.045376
-6.245827 -8.273460 2.777646
-0.594582 -0.785608 -0.263995
-1.495556 -1.975329 0.043247
-0.729480 -0.963147 -0.278939
-1.469093 -1.938971 0.127490
-0.888027 -1.172055 -0.285832
-1.556111 -2.053075 0.225385
-1.543179 -2.035275 -0.404540
-1.789064 -2.357860 -0.363414
-16.974741 -22.363401 4.446806
-1.690049 -2.226558 -0.244559
-6.279391 -8.269794 2.018378
-1.577774 -2.077135 -0.136702
-6.272381 -8.254580 2.393479
-1.579214 -2.077524 -0.045551
-6.287532 -8.268523 2.783340
-0.585608 -0.768164 -0.258819
-1.502442 -1.970097 0.043247
-0.743475 -0.974539 -0.282988
-1.483123 -1.943357 0.128118
-0.908788 -1.190797 -0.291175
-1.556269 -2.037725 -0.406104
-1.810544 -2.368950 -0.366096
-17.088694 -22.351089 4.456193
-1.694568 -2.215601 -0.244036
-6.322531 -8.266538 2.022957
-1.587442 -2.074787 -0.136911
-6.333138 -8.274416 2.405627
-1.584025 -2.068824 -0.045481
-6.323403 -8.255730 2.786446
-0.583712 -0.759884 -0.256748
-0.742123 -0.965757 -0.281189
-1.497201 -1.947669 0.128746
-0.929901 -1.209247 -0.296517
-1.567341 -2.036704 -0.407043
-18.246847 -23.711132 3.673630
-1.827278 -2.373626 -0.367802
-1.709587 -2.219142 -0.245082
-6.364771 -8.258860 2.026773
-1.599913 -2.075282 -0.137330
-6.375322 -8.266582 2.410126
-1.594901 -2.068033 -0.045586
-6.362802 -8.247372 2.791105
-0.607640 -0.785345 -0.266066
-10.061050 -12.998713 0.286918
-0.737306 -0.952244 -0.278040
-1.513773 -1.955064 0.129584
-0.948543 -1.224619 -0.301097
-1.580492 -2.039027 -0.408607
-18.211990 -23.487221 3.649256
-1.845699 -2.379461 -0.369752
-1.745415 -2.249365 -0.249091
-6.412822 -8.261406 2.032879
-1.612048 -2.075994 -0.137748
-6.424462 -8.270439 2.417774
-1.624191 -2.090879 -0.046214
-6.403407 -8.240366 2.796281
-0.610378 -0.783219 -0.266066
-0.745253 -0.955942 -0.279839
-1.540240 -1.974967 0.131259
-1.606134 -2.058719 -0.507552
-1.601828 -2.052462 -0.412361
-1.774158 -2.271636 -0.353909
-6.578228 -8.419748 1.692308
-1.763072 -2.255817 -0.250486
-6.440183 -8.240094 2.032879
-1.620153 -2.072211 -0.137853
-6.453053 -8.250625 2.418224
-1.667214 -2.130869 -0.047226
-6.445232 -8.234695 2.801975
-0.605816 -0.772071 -0.262960
-0.755806 -0.962531 -0.282539
-17.566151 -22.362734 1.490319
-1.627505 -2.071909 -0.512131
-1.682230 -2.140038 -0.431133
-1.872899 -2.380884 -0.371945
-6.617351 -8.409153 1.694811
-1.805042 -2.293799 -0.255366
-6.496836 -8.253046 2.041656
-1.633555 -2.074388 -0.138376
-6.498698 -8.249480 2.424523
-1.674642 -2.125037 -0.047226
-6.494267 -8.237940 2.810775
-0.596529 -0.754796 -0.257784
-17.647919 -22.322096 0.496695
-0.759161 -0.959887 -0.282539
-17.693676 -22.363934 1.494506
-1.682235 -2.126261 -0.527014
-1.687237 -2.131056 -0.430508
-1.854077 -2.340102 -0.366583
-6.649117 -8.389100 1.695437
-1.796949 -2.267186 -0.253100
-6.542684 -8.251853 2.046999
-1.644510 -2.073368 -0.138690
-6.537142 -8.238959 2.428122
-6.530191 -8.224298 2.813881
-0.606379 -0.761777 -0.260890
-17.735691 -22.272875 0.496975
-0.767364 -0.963328 -0.284338
-17.810049 -22.358250 1.498065
-1.687200 -2.117305 -0.526251
-1.694666 -2.125153 -0.430508
-20.202808 -25.325745 3.977816
-1.884521 -2.361545 -0.370970
-6.691685 -8.385533 1.699191
-1.811067 -2.268685 -0.253972
-6.571449 -8.228965 2.046999
-1.662956 -2.081659 -0.139632
-6.584111 -8.238925 2.434870
-29.510622 -36.927662 -0.825115
-6.576729 -8.226740 2.822163
-0.613868 -0.765685 -0.262960
-17.814457 -22.220181 0.497114
-0.772993 -0.963818 -0.285238
-17.900484 -22.311522 1.499111
-1.702941 -2.121062 -0.430821
-20.162378 -25.103838 3.953442
-1.956995 -2.435753 -0.383645
-6.740716 -8.386758 1.704197
-1.710362 -2.127260 -0.238807
-6.620844 -8.234668 2.053868
-1.669850 -2.076133 -0.139632
-6.621169 -8.229192 2.438469
-6.623580 -8.226304 2.829928
-0.611551 -0.757632 -0.260890
-17.957237 -22.238760 0.498929
-0.778802 -0.964146 -0.286138
-17.985792 -22.258224 1.499739
-5.436581 -6.725611 -1.681027
-1.719029 -2.125857 -0.433011
-20.080088 -24.823412 3.920294
-1.925527 -2.379526 -0.375845
-6.787350 -8.384673 1.708578
-1.816830 -2.243599 -0.252577
-6.668281 -8.231705 2.059211
-1.683736 -2.077757 -0.140156
-6.663352 -8.222682 2.443418
-6.660770 -8.213638 2.833551
-0.614323 -0.755386 -0.260890
-18.084053 -22.228643 0.500186
-0.792171 -0.973377 -0.289737
-18.097513 -22.229324 1.502251
-5.463675 -6.708684 -1.681790
-1.746772 -2.144045 -0.438017
-20.090672 -24.651165 3.904694
-1.869009 -2.292447 -0.363171
-6.800557 -8.338308 1.704197
-1.852751 -2.270888 -0.256412
-6.708339 -8.219375 2.062264
-1.693866 -2.074666 -0.140365
-6.710698 -8.219339 2.449717
-18.277227 -22.378185 -0.504340
-6.704277 -8.205624 2.839245
-0.621985 -0.759106 -0.262960
-18.190762 -22.193138 0.500884
-0.795733 -0.970467 -0.289737
-18.224466 -22.218437 1.506020
-5.494529 -6.698679 -1.684080
-6.563525 -7.996260 -1.638495
-1.947958 -2.371483 -0.376820
-6.790944 -8.264486 1.694185
-1.880905 -2.289036 -0.259201
-6.759428 -8.223209 2.069133
-1.706172 -2.074912 -0.140784
-6.760588 -8.218766 2.456916
-18.394701 -22.354279 -0.505317
-6.740444 -8.188456 2.841833
-0.624631 -0.756930 -0.262960
-18.278299 -22.141846 0.501163
-0.804079 -0.973694 -0.291537
-18.317177 -22.173162 1.507276
-5.529133 -6.693081 -1.687515
-6.601468 -7.985478 -1.640998
-1.999245 -2.416674 -0.385107
-6.842418 -8.268126 1.699817
-1.812668 -2.190361 -0.248742
-6.800611 -8.214687 2.072949
-1.724869 -2.082788 -0.141726
-6.807882 -8.217629 2.463664
-18.513454 -22.339205 -0.506434
-6.791182 -8.191646 2.851151
-0.629739 -0.757717 -0.263995
-18.401501 -22.133265 0.502420
-0.804981 -0.967884 -0.290637
-18.443001 -22.167437 1.511253
-5.552461 -6.673742 -1.687515
-6.630567 -7.963904 -1.641311
-19.879381 -23.868454 3.814023
-6.891474 -8.268469 1.704823
-1.792239 -2.150349 -0.244908
-6.841816 -8.205976 2.076765
-1.741084 -2.087490 -0.142458
-6.845264 -8.204288 2.466813
-6.843258 -8.196066 2.860986
-0.629900 -0.752551 -0.262960
-8.639805 -10.318441 0.234909
-0.808354 -0.965069 -0.290637
-18.579275 -22.173346 1.516068
-5.580765 -6.660337 -1.689041
-6.663403 -7.946765 -1.642562
-19.799284 -23.604242 3.782825
-7.016684 -8.362158 -1.340319
-6.940615 -8.268571 1.709829
-1.930391 -2.299735 -0.262687
-6.888094 -8.203094 2.082108
-6.880130 -8.187804 2.469063
-6.887989 -8.191350 2.867715
-0.652445 -0.773981 -0.271242
-8.630648 -10.234716 0.233688
-0.819257 -0.971178 -0.293336
-18.691338 -22.157410 1.519208
-5.598918 -6.634814 -1.687515
-6.692374 -7.924967 -1.642875
-7.064873 -8.363107 -1.344219
-6.980747 -8.260597 1.712958
-6.936969 -8.202985 2.088214
-7.148874 -8.450571 -0.580092
-6.922347 -8.182797 2.474462
-6.925101 -8.180260 2.871856
-0.630008 -0.742355 -0.260890
-0.830042 -0.977368 -0.296036
-18.847456 -22.192736 1.525907
-5.625972 -6.622196 -1.689041
-6.728854 -7.914771 -1.645378
-7.113142 -8.363829 -1.348119
-7.028582 -8.261476 1.717963
-6.971770 -8.188905 2.090503
-7.227363 -8.486119 -0.584174
-6.982296 -8.198370 2.486159
-6.960962 -8.167542 2.875480
-0.642506 -0.752012 -0.265031
-18.857014 -22.063120 0.506608
-0.838344 -0.980535 -0.297835
-18.946905 -22.160471 1.528001
-5.653006 -6.609471 -1.690568
-6.762771 -7.901418 -1.647255
-7.153749 -8.355274 -1.350556
-7.068790 -8.253126 1.721092
-7.153157 -8.348681 -0.961851
-7.003996 -8.171704 2.092030
-7.174863 -8.368098 -0.577684
-7.022130 -8.189964 2.490658
-6.996812 -8.154677 2.879103
-0.647515 -0.752806 -0.266066
-0.836506 -0.971842 -0.296036
-5.688983 -6.607053 -1.694765
-6.799251 -7.890920 -1.649758
-7.196970 -8.349548 -1.353481
-7.106439 -8.241607 1.723595
-7.197721 -8.344528 -0.964117
-7.056707 -8.178161 2.099662
-7.152982 -8.286807 -0.573707
-7.068350 -8.188760 2.497406
-7.207589 -8.347128 -0.192500
-7.060437 -8.173827 2.894114
-0.655463 -0.756153 -0.268137
-7.239464 -8.348633 0.192884
-0.842786 -0.971567 -0.296935
-7.242571 -8.349268 0.579254
-5.714311 -6.585160 -1.694765
-6.837271 -7.873704 -1.651635
-7.248658 -8.341568 -1.356893
-7.170424 -8.251538 1.731417
-7.257158 -8.348407 -0.967777
-7.118977 -8.186561 2.108821
-7.233249 -8.315035 -0.577580
-7.102442 -8.161792 2.497856
-7.265840 -8.349561 -0.193198
-7.112066 -8.169971 2.902397
-0.660639 -0.756771 -0.269172
-7.280260 -8.339644 0.193233
-0.853693 -0.977574 -0.299635
-7.288753 -8.343489 0.580615
-5.739847 -6.568130 -1.695529
-6.871145 -7.859910 -1.653512
-19.171726 -21.922838 3.575891
-7.281508 -8.323461 -1.357868
-7.209590 -8.238350 1.733920
-7.296755 -8.335016 -0.969172
-7.164189 -8.183588 2.114164
-7.285782 -8.319552 -0.579568
-7.144878 -8.155785 2.503255
-7.300212 -8.330162 -0.193338
-7.169831 -8.178506 2.914303
-0.658044 -0.748772 -0.267101
-7.317249 -8.323192 0.193442
-0.867396 -0.986295 -0.303234
-7.334984 -8.337490 0.581976
-5.762893 -6.550535 -1.695910
-6.911592 -7.850703 -1.656641
-19.208776 -21.811092 3.568578
-7.336761 -8.327785 -1.362743
-7.269650 -8.248701 1.741429
-7.332393 -8.316967 -0.970043
-7.212186 -8.180620 2.119888
-7.329310 -8.310547 -0.580720
-7.193933 -8.154176 2.510454
-7.339832 -8.316624 -0.193617
-7.190664 -8.144739 2.911197
-0.663345 -0.749248 -0.268137
-7.351562 -8.303587 0.193582
-0.870834 -0.983261 -0.303234
-7.377285 -8.326786 0.583023
-5.793375 -6.536715 -1.697819
-6.940318 -7.825320 -1.656641
-19.284790 -21.743912 3.568578
-9.932156 -11.194723 -1.837546
-7.322001 -8.249868 1.747060
-7.407677 -8.343471 -0.976144
-7.242122 -8.154131 2.119888
-7.366354 -8.291094 -0.581243
-7.257428 -8.165627 2.522151
-7.395385 -8.320848 -0.194315
-7.231888 -8.134027 2.916373
-0.658243 -0.738276 -0.265031
-7.408566 -8.306434 0.194280
-0.871837 -0.977154 -0.302334
-7.410295 -8.305454 0.583337
-5.831845 -6.534029 -1.702398
-7.429621 -8.321266 0.975970
-6.975488 -7.809884 -1.658518
-7.434402 -8.320768 1.370055
-9.996928 -11.184888 -1.841933
-7.361284 -8.236044 1.749563
-17.630428 -19.718557 -2.314159
-7.283629 -8.143435 2.123704
-19.482279 -21.774450 -1.531246
-7.301484 -8.157665 2.527550
-7.282145 -8.133202 2.925173
-0.676303 -0.753223 -0.271242
-19.572123 -21.798180 0.511356
-0.873770 -0.972808 -0.301884
-7.451258 -8.292906 0.584279
-5.855928 -6.515093 -1.702780
-7.487929 -8.327874 0.979805
-7.014555 -7.801400 -1.661647
-7.467264 -8.301973 1.371030
-10.002098 -11.116260 -1.836084
-7.400560 -8.222043 1.752066
-17.744478 -19.707237 -2.320086
-7.326359 -8.136744 2.128284
-19.585121 -21.743856 -1.533653
-7.346760 -8.153677 2.533849
-7.341537 -8.142167 2.937596
-0.676207 -0.748110 -0.270207
-19.666870 -21.750492 0.511844
-0.888926 -0.982759 -0.305933
-19.709454 -21.782297 1.539515
-5.873549 -6.491270 -1.701635
-7.049702 -7.785652 -1.663524
-19.724657 -21.776173 3.607577
-10.299425 -11.366656 -1.883369
-7.437178 -8.204940 1.753943
-17.834572 -19.668797 -2.322875
-7.367902 -8.125666 2.132100
-19.694452 -21.712343 -1.536270
-7.385653 -8.139527 2.537448
-7.391991 -8.140804 2.946396
-0.668539 -0.734199 -0.266066
-19.783066 -21.726067 0.512891
-0.900225 -0.988294 -0.308633
-19.825724 -21.757654 1.542655
-5.917139 -6.491463 -1.707359
-7.083513 -7.765599 -1.664776
-19.816605 -21.724789 3.610502
-10.135657 -11.107748 -1.846321
-7.455117 -8.167258 1.751440
-17.924616 -19.629963 -2.325664
-7.442655 -8.147889 2.145075
-7.427267 -8.125349 2.541497
-7.422971 -8.117802 2.947431
-0.671097 -0.731861 -0.266066
-19.922041 -21.718252 0.514427
-0.901206 -0.982116 -0.307733
-19.955566 -21.747179 1.546842
-5.941091 -6.472215 -1.707741
-7.115923 -7.746646 -1.666027
-19.936392 -21.695860 3.617814
-10.469164 -11.389122 -1.899456
-7.470212 -8.126643 1.748312
-17.971449 -19.543808 -2.322875
-7.484341 -8.136311 2.148891
-19.908823 -21.635523 -1.540875
-7.475382 -8.120880 2.548245
-7.474819 -8.117421 2.956749
-0.689375 -0.746546 -0.272278
-20.018372 -21.678511 0.515055
-0.909747 -0.984848 -0.309533
-20.031351 -21.677395 1.546842
-5.968977 -6.457203 -1.709267
-7.149620 -7.731708 -1.667904
-20.059452 -21.685005 3.627076
-10.520357 -11.368911 -1.901893
-7.522689 -8.126611 1.753943
-18.096418 -19.542356 -2.330196
-7.527288 -8.128733 2.153470
-20.042894 -21.636786 -1.545690
-7.528763 -8.124635 2.557244
-7.510987 -8.099781 2.959855
-0.686586 -0.738596 -0.270207
-20.104815 -21.620216 0.515335
-0.913179 -0.981667 -0.309533
-20.134115 -21.636576 1.548935
-6.001057 -6.448872 -1.712320
-7.181948 -7.712488 -1.669156
-20.132320 -21.611946 3.626588
-10.660125 -11.439587 -1.919930
-7.577948 -8.129202 1.760201
-18.250784 -19.578430 -2.341701
-7.579718 -8.128253 2.160340
-20.167345 -21.619265 -1.549459
-7.582339 -8.125372 2.565792
-7.573496 -8.110223 2.973313
-0.689160 -0.736195 -0.270207
-20.232096 -21.605375 0.516661
-0.919265 -0.981318 -0.310432
-20.250490 -21.609884 1.552075
-6.024875 -6.429318 -1.712702
-7.230448 -7.710424 -1.674162
-20.275545 -21.613930 3.638775
-10.672820 -11.373358 -1.915055
-7.619800 -8.117101 1.763330
-18.329927 -19.526218 -2.343095
-7.616109 -8.110332 2.162629
-20.363022 -21.676842 -1.558670
-7.626668 -8.115898 2.571191
-33.746777 -35.898983 -0.860020
-7.621610 -8.104849 2.981078
-0.686425 -0.728162 -0.268137
-20.345804 -21.575356 0.517638
-0.926696 -0.982355 -0.311782
-20.429972 -21.649466 1.560030
-6.048626 -6.409677 -1.713083
-7.254605 -7.682265 -1.673536
-20.380854 -21.574772 3.644138
-9.886218 -10.461700 -1.767349
-7.661657 -8.104809 1.766458
-8.856814 -9.369094 -1.127970
-7.652465 -8.092258 2.164919
-20.386412 -21.550489 -1.554692
-7.662989 -8.097720 2.573890
-7.664469 -8.093623 2.986772
-0.694283 -0.731366 -0.270207
-20.448538 -21.533199 0.518336
-0.930120 -0.979115 -0.311782
-20.497166 -21.569334 1.559402
-6.080430 -6.398486 -1.715755
-7.285460 -7.661191 -1.674475
-20.483404 -21.532263 3.649012
-9.862467 -10.363852 -1.756625
-7.722588 -8.112353 1.773967
-7.713160 -8.099618 2.174078
-20.516619 -21.537041 -1.558879
-7.714064 -8.094904 2.581538
-34.134544 -35.807262 -0.863510
-7.704673 -8.079401 2.991431
-0.696831 -0.728938 -0.270207
-20.562273 -21.502159 0.519314
-0.934879 -0.977270 -0.312232
-20.682802 -21.613092 1.567776
-6.113587 -6.388569 -1.718807
-7.321721 -7.645700 -1.676665
-20.627108 -21.532299 3.661199
-10.967139 -11.444426 -1.946254
-7.769997 -8.105312 1.778347
-8.964746 -9.351622 -1.133373
-7.773999 -8.106650 2.183237
-20.619326 -21.494120 -1.560972
-7.757113 -8.083396 2.586487
-7.748886 -8.069179 2.997642
-0.704731 -0.732068 -0.272278
-20.725979 -21.522438 0.521548
-0.932877 -0.968387 -0.310432
-20.719315 -21.500496 1.564845
-6.138575 -6.370017 -1.719571
-7.353851 -7.625784 -1.677916
-20.740734 -21.500170 3.668024
-10.855392 -11.248944 -1.919442
-7.814706 -8.095194 1.782102
-18.739147 -19.411737 -2.360526
-7.824071 -8.102061 2.189342
-20.749731 -21.479477 -1.565159
-7.812369 -8.084293 2.595485
-20.968794 -21.691076 -0.526609
-7.809234 -8.075411 3.010066
-0.718039 -0.740700 -0.276419
-20.820469 -21.470057 0.522036
-0.957961 -0.987505 -0.317631
-20.829435 -21.471813 1.567776
-6.162140 -6.349960 -1.719952
-7.394188 -7.614236 -1.681045
-20.835016 -21.447578 3.671436
-10.750713 -11.062927 -1.894094
-7.856651 -8.084818 1.785543
-18.876234 -19.417633 -2.369242
-7.865989 -8.088776 2.193159
-20.877502 -21.461317 -1.569137
-7.873159 -8.090492 2.606283
-21.088024 -21.670147 -0.527796
-7.862922 -8.077156 3.020418
-0.712523 -0.729895 -0.273313
-20.933460 -21.443823 0.523084
-0.958508 -0.981534 -0.316731
-20.946133 -21.441830 1.570916
-6.188385 -6.332623 -1.721097
-7.422156 -7.592504 -1.681671
-20.969870 -21.443655 3.682648
-10.709604 -10.947750 -1.880444
-7.898640 -8.071465 1.788672
-18.943895 -19.351627 -2.369242
-7.917491 -8.087900 2.200028
-20.965324 -21.409088 -1.570393
-7.924491 -8.089396 2.614381
-21.199924 -21.633541 -0.528703
-7.905944 -8.064835 3.026112
-0.709524 -0.722017 -0.271242
-5.274209 -5.363327 -1.736622
-21.048864 -21.397058 1.573010
-6.213481 -6.316265 -1.722242
-25.960909 -26.381159 3.238184
-7.452772 -7.570769 -1.682609
-21.061308 -21.387297 3.685573
-11.137818 -11.306269 -1.948691
-7.960044 -8.077609 1.796181
-19.081266 -19.356325 -2.377957
-7.942919 -8.057417 2.199265
-21.110048 -21.406879 -1.575626
-7.958152 -8.067236 2.616181
-21.345541 -21.630577 -0.530448
-7.948977 -8.052312 3.031806
-0.725756 -0.733140 -0.276419
-5.288784 -5.340730 -1.735272
-6.247644 -6.304607 -1.725295
-7.487426 -7.550416 -1.684174
-21.172178 -21.350296 3.691910
-11.275082 -11.365970 -1.965753
-8.010455 -8.072208 1.801187
-19.196440 -19.337677 -2.383884
-7.994531 -8.050540 2.205370
-8.004150 -8.054602 2.621579
-21.491394 -21.626856 -0.532194
-7.986570 -8.034106 3.035430
-0.728311 -0.730602 -0.276419
-5.298688 -5.311653 -1.732123
-6.275162 -6.288317 -1.726821
-7.531881 -7.542408 -1.688241
-21.326048 -21.348392 3.705072
-11.386826 -11.394776 -1.977940
-8.069304 -8.074938 1.808070
-19.314529 -19.321281 -2.390159
-8.067008 -8.067008 2.217582
-21.401121 -21.393652 -1.585884
-8.055652 -8.050031 2.629228
-8.056935 -8.048503 3.051477
-0.739069 -0.736236 -0.279525
-12.523721 -12.475721 0.308559
-5.319035 -5.296803 -1.733023
-6.298465 -6.267759 -1.727203
-7.559652 -7.520175 -1.688867
-21.422062 -21.302750 3.709459
-11.438627 -11.370948 -1.980377
-8.114253 -8.063432 1.811824
-19.441229 -19.312714 -2.397480
-8.118786 -8.065117 2.224452
-21.508795 -21.359156 -1.588606
-8.112727 -8.053478 2.639126
-8.116526 -8.051621 3.063382
-0.725028 -0.717475 -0.273313
-13.360459 -13.216663 0.328035
-5.345806 -5.286425 -1.735722
-12.735824 -12.594354 0.938698
-6.315027 -6.242698 -1.726058
-7.601315 -7.509012 -1.692308
-21.535841 -21.266895 3.716284
-11.509326 -11.361633 -1.985739
-8.155005 -8.050357 1.814953
-19.519342 -19.262136 -2.399223
-8.172046 -8.061544 2.231320
-21.634411 -21.334435 -1.592374
-8.165772 -8.049734 2.647224
-8.154189 -8.035509 3.067523
-0.735795 -0.723064 -0.276419
-13.375687 -13.144253 0.327337
-5.371648 -5.276862 -1.738422
-12.736962 -12.507836 0.935558
-6.347987 -6.231620 -1.729111
-7.636043 -7.493448 -1.694498
-21.637423 -21.225945 3.721646
-11.578121 -11.353983 -1.991102
-8.202806 -8.041201 1.819333
-19.626310 -19.232924 -2.404104
-8.198734 -8.034400 2.231320
-21.687920 -21.245804 -1.591118
-8.210520 -8.040338 2.653073
-12.613537 -12.347774 -0.308105
-8.197374 -8.021861 3.073217
-0.738315 -0.720491 -0.276419
-12.602141 -12.293628 0.307302
-5.386768 -5.253057 -1.737072
-12.819901 -12.497319 0.938279
-6.383759 -6.223127 -1.732927
-7.673362 -7.475059 -1.696688
-21.826000 -21.254528 3.740658
-11.631040 -11.322543 -1.993051
-8.257706 -8.035880 1.824965
-19.721878 -19.192091 -2.407590
-8.256270 -8.031678 2.238953
-21.837240 -21.235785 -1.596352
-8.267880 -8.037357 2.662071
-12.412044 -12.061761 -0.302101
-8.237809 -8.002529 3.077358
-0.743600 -0.720599 -0.277454
-12.883404 -12.480526 0.313096
-5.410671 -5.239644 -1.738872
-13.463279 -13.033164 0.982032
-6.404032 -6.199441 -1.732546
-7.710766 -7.459216 -1.699191
-22.002802 -21.277567 3.758207
-11.690471 -11.301193 -1.996464
-8.319798 -8.039951 1.832474
-19.831736 -19.164669 -2.412820
-8.306849 -8.024634 2.245059
-21.934219 -21.181633 -1.598026
-8.301494 -8.013862 2.663871
-12.776398 -12.329405 -0.309920
-8.307402 -8.013965 3.092888
-0.740543 -0.712641 -0.275383
-13.307345 -12.801472 0.322311
-5.435951 -5.227479 -1.741121
-13.186834 -12.681111 0.958795
-6.424216 -6.175689 -1.732164
-7.746728 -7.441833 -1.701381
-22.076941 -21.200634 3.758207
-11.733610 -11.267863 -1.997439
-8.352114 -8.017789 1.833725
-19.970388 -19.164301 -2.421535
-8.377312 -8.036361 2.256507
-22.085867 -21.179588 -1.603679
-8.365999 -8.022706 2.676018
-13.385966 -12.832198 -0.323672
-8.363222 -8.014441 3.103758
-0.756866 -0.723530 -0.280560
-13.031670 -12.453333 0.314632
-5.453256 -5.209424 -1.741121
-12.584702 -12.022001 0.912111
-6.460279 -6.169266 -1.736362
-7.782797 -7.427013 -1.703884
-22.175848 -21.154716 3.763082
-11.773783 -11.231635 -1.997926
-8.418685 -8.028219 1.842485
-20.033831 -19.097971 -2.421535
-8.423811 -8.027499 2.261850
-13.013620 -12.397036 -0.941943
-8.415133 -8.016425 2.683216
-12.605912 -12.004449 -0.303846
-8.402346 -7.998651 3.108417
-0.742451 -0.705053 -0.274348
-13.136704 -12.470629 0.316168
-5.471915 -5.192653 -1.741571
-12.945368 -12.280406 0.935139
-6.491748 -6.156133 -1.739033
-7.803082 -7.397087 -1.702946
-22.361149 -21.190296 3.782581
-11.827331 -11.204117 -2.000364
-8.458132 -8.009650 1.844988
-20.192970 -19.115589 -2.432691
-8.468896 -8.014237 2.266429
-22.345594 -21.138567 -1.612052
-8.474210 -8.016463 2.693114
-13.057462 -12.347835 -0.313690
-8.455486 -7.993161 3.117734
-0.750653 -0.707627 -0.276419
-5.490909 -5.172564 -1.741571
-12.568626 -11.835792 0.904784
-6.517125 -6.134991 -1.739796
-7.835894 -7.373854 -1.704197
-11.888559 -11.179733 -2.003776
-8.519095 -8.008361 1.851871
-20.315172 -19.090565 -2.438966
-8.512519 -7.996588 2.270246
-8.519161 -8.000024 2.698063
-8.503037 -7.979303 3.124464
-0.758884 -0.710151 -0.278489
-5.512678 -5.155065 -1.742471
-12.796588 -11.966462 0.918182
-6.544238 -6.117567 -1.741323
-7.874417 -7.355872 -1.706700
-13.327591 -12.445590 2.238984
-11.942019 -11.151713 -2.006213
-8.564326 -7.994750 1.855626
-20.434122 -19.068474 -2.445241
-8.566222 -7.990930 2.277115
-13.375657 -12.473001 -0.958481
-8.561287 -7.983529 2.702562
-13.098680 -12.210449 -0.312573
-8.569000 -7.985131 3.138440
-0.766895 -0.712892 -0.280560
-5.534026 -5.140735 -1.743821
-13.029358 -12.103391 0.931999
-6.570244 -6.101176 -1.742849
-13.266105 -12.314690 1.583620
-7.908903 -7.339125 -1.708890
-22.659704 -21.019880 3.795012
-12.010953 -11.141751 -2.011575
-8.616864 -7.990483 1.861258
-13.474877 -12.490988 -1.607500
-8.621475 -7.989168 2.284747
-13.024270 -12.064827 -0.930429
-8.614878 -7.980256 2.711110
-8.630874 -7.989481 3.151381
-0.757900 -0.699860 -0.276419
-13.785617 -12.725456 0.327477
-5.563932 -5.134249 -1.747870
-22.866365 -21.093090 1.630370
-6.601984 -6.090003 -1.745902
-13.154540 -12.130162 1.565492
-7.946269 -7.324907 -1.711706
-22.784758 -20.995741 3.804274
-8.869788 -8.170486 -1.480713
-8.685390 -7.997824 1.870018
-8.855458 -8.154429 -1.053190
-8.691254 -8.000422 2.296196
-8.884363 -8.175318 -0.632742
-8.679970 -7.984440 2.722808
-8.965768 -8.244449 -0.212605
-8.658711 -7.959303 3.151381
-0.768882 -0.705044 -0.279525
-9.024404 -8.272244 0.213687
-5.593314 -5.125328 -1.751469
-12.795421 -11.720736 0.909390
-6.628993 -6.072225 -1.747429
-13.093943 -11.989983 1.553290
-7.965961 -7.291789 -1.710455
-13.570054 -12.417247 2.258483
-8.892396 -8.134116 -1.479738
-8.736579 -7.988785 1.875024
-8.907394 -8.144980 -1.055979
-8.736517 -7.985930 2.300775
-8.924643 -8.155035 -0.633579
-8.735126 -7.979064 2.731356
-8.920659 -8.145682 -0.210860
-8.710697 -7.951171 3.160181
-0.771338 -0.702356 -0.279525
-8.934922 -8.133004 0.210895
-5.605406 -5.100526 -1.749669
-8.950509 -8.141484 0.634102
-6.660314 -6.058298 -1.750100
-9.005284 -8.188434 1.064869
-8.008906 -7.279882 -1.714209
-8.929551 -8.111034 -1.481200
-8.779037 -7.971519 1.878152
-8.915121 -8.095087 -1.053539
-8.787601 -7.976495 2.306881
-8.926431 -8.099673 -0.631695
-8.784576 -7.968162 2.738104
-8.960891 -8.125237 -0.211139
-8.777044 -7.955749 3.174157
-0.776651 -0.702251 -0.280560
-8.966225 -8.104447 0.210965
-5.628958 -5.086156 -1.751469
-8.992215 -8.122239 0.635045
-6.687249 -6.040273 -1.751627
-9.010153 -8.135586 1.062080
-8.037201 -7.254530 -1.714835
-9.005036 -8.125262 1.489244
-9.055098 -8.167566 -1.497287
-8.833215 -7.964639 1.883784
-8.928525 -8.050578 -1.051795
-8.841639 -7.969434 2.313750
-8.941296 -8.056433 -0.630753
-8.832607 -7.955711 2.744403
-8.969878 -8.076515 -0.210685
-8.837787 -7.954787 3.186063
-0.793472 -0.712442 -0.285736
-8.964694 -8.046388 0.210267
-5.651030 -5.070381 -1.752819
-8.998211 -8.070797 0.633475
-6.702448 -6.011651 -1.750100
-9.014759 -8.082806 1.059291
-8.081597 -7.243571 -1.718902
-9.046651 -8.105701 1.491437
-9.065807 -8.120018 -1.494362
-8.899227 -7.968014 1.891919
-8.981809 -8.041954 -1.054759
-8.869403 -7.938522 2.313750
-8.984246 -8.038491 -0.631800
-8.892281 -7.953409 2.754301
-8.983109 -8.031827 -0.210336
-8.892868 -7.948350 3.195898
-0.775767 -0.691669 -0.278489
-9.010641 -8.031012 0.210685
-5.674515 -5.055808 -1.754618
-9.005445 -8.020742 0.632009
-6.732186 -5.996053 -1.752390
-9.017622 -8.028767 1.056328
-8.112737 -7.220568 -1.720154
-9.039294 -8.042407 1.485587
-9.129695 -8.119985 -1.500212
-8.953559 -7.960526 1.897550
-9.032161 -8.030410 -1.057374
-8.944016 -7.949251 2.325962
-9.039126 -8.030960 -0.633684
-8.953501 -7.952085 2.764648
-9.038007 -8.024318 -0.210965
-8.922003 -7.918541 3.196415
-0.801319 -0.709446 -0.286772
-9.053595 -8.012763 0.211035
-5.697967 -5.041136 -1.756418
-9.061813 -8.014398 0.633998
-6.766312 -5.984223 -1.755824
-9.063507 -8.013073 1.058419
-8.142332 -7.196132 -1.721092
-9.080701 -8.022633 1.487781
-9.214525 -8.137999 -1.509474
-8.999063 -7.944912 1.901305
-9.091502 -8.026524 -1.061034
-9.007037 -7.949160 2.335121
-9.089572 -8.019176 -0.635254
-9.008974 -7.945274 2.773197
-9.092960 -8.016526 -0.211593
-8.982925 -7.916728 3.208321
-0.806692 -0.709196 -0.287807
-9.110048 -8.006192 0.211698
-5.715528 -5.021215 -1.756418
