# This PCD file was generated using the MATLAB® pcwrite function
# from Computer Vision Toolbox®.
# .PCD v.7 - Point Cloud Data file format
VERSION .7
FIELDS x y z
SIZE 4 4 4
TYPE F F F
COUNT 1 1 1
WIDTH 1637
HEIGHT 1
VIEWPOINT 0 0 0 1 0 0 0
POINTS 1637
DATA ascii
9.000734 0.172824 -1.105355
10.992052 0.207221 -0.961851
13.952415 0.260594 -0.731343
5.099358 0.086340 -1.366565
35.849506 0.600729 0.625843
5.740200 0.095186 -1.325412
45.723095 0.750217 2.396569
6.550498 0.107479 -1.273459
45.617718 0.740524 3.991559
7.620021 0.122368 -1.207049
45.607700 0.724439 5.600628
8.997313 0.141340 -1.104867
10.968802 0.168480 -0.959759
13.969216 0.212128 -0.732180
5.091913 0.067546 -1.364494
35.843388 0.475472 0.625704
5.748291 0.075249 -1.327211
6.546922 0.083418 -1.272696
7.620419 0.094440 -1.207049
45.582161 0.564899 5.597216
9.005692 0.110031 -1.105842
45.499508 0.547969 7.206937
10.957371 0.130057 -0.958713
45.493351 0.532013 8.843616
13.953923 0.160746 -0.731343
5.080527 0.049659 -1.361388
35.812897 0.343797 0.625145
5.740734 0.054108 -1.325412
6.562879 0.060708 -1.275749
7.596998 0.067626 -1.203294
45.603775 0.397968 5.599653
9.029855 0.077229 -1.108767
45.461636 0.388814 7.200679
10.945805 0.091705 -0.957667
45.416401 0.372552 8.828351
13.958394 0.112072 -0.731552
45.328251 0.356028 10.465173
5.092260 0.031998 -1.364494
35.801842 0.224967 0.624936
5.729189 0.034998 -1.322712
6.539492 0.037668 -1.271170
7.597180 0.042431 -1.203294
45.545292 0.246425 5.592340
9.014181 0.047203 -1.106817
45.450859 0.230049 7.198802
10.973951 0.053629 -0.960108
45.374195 0.221742 8.819956
13.918744 0.065598 -0.729459
5.103930 0.015144 -1.367600
35.758415 0.099861 0.624168
5.729277 0.014997 -1.322712
6.563140 0.016038 -1.275749
7.605184 0.015926 -1.204545
45.537933 0.087435 5.591366
8.974588 0.015665 -1.101943
45.435585 0.071358 7.196299
10.966099 0.017223 -0.959410
45.378620 0.063370 8.820719
13.934866 0.017028 -0.730296
5.092360 -0.002666 -1.364494
35.770546 -0.024973 0.624377
5.729294 -0.005000 -1.322712
6.523891 -0.006832 -1.268117
7.589391 -0.010597 -1.202043
45.545902 -0.071543 5.592340
8.998409 -0.015705 -1.104867
45.423706 -0.087207 7.194422
10.982031 -0.021084 -0.960805
45.327518 -0.094934 8.810797
13.922857 -0.031590 -0.729668
5.076865 -0.020380 -1.360353
35.754242 -0.149768 0.624098
5.725344 -0.024982 -1.321812
6.519901 -0.029587 -1.267353
7.593258 -0.037108 -1.202668
45.537434 -0.230488 5.591366
8.998301 -0.047115 -1.104867
45.403366 -0.245658 7.191293
10.942042 -0.059203 -0.957319
45.358322 -0.253331 8.816903
13.922662 -0.080190 -0.729668
45.231415 -0.268412 10.442677
5.088354 -0.038188 -1.363459
35.813492 -0.275033 0.625145
5.729120 -0.044997 -1.322712
6.539390 -0.052503 -1.271170
7.573328 -0.063448 -1.199540
45.524445 -0.389340 5.589904
8.986171 -0.078421 -1.103405
45.370636 -0.403863 7.186287
10.933801 -0.097326 -0.956621
45.321823 -0.411339 8.810033
13.934280 -0.128899 -0.730296
5.088190 -0.055950 -1.363459
5.709441 -0.064774 -1.318213
45.873997 -0.528454 2.404314
6.535241 -0.075284 -1.270406
7.577012 -0.089930 -1.200165
45.419590 -0.547004 5.577229
9.001722 -0.109982 -1.105355
45.376850 -0.562331 7.187539
10.957278 -0.137700 -0.958713
45.296555 -0.569243 8.805454
13.909781 -0.177233 -0.729040
45.228436 -0.584177 10.442677
5.076361 -0.074429 -1.360353
5.724769 -0.084935 -1.321812
6.542773 -0.099355 -1.271933
7.576632 -0.117701 -1.200165
45.409462 -0.705421 5.576254
8.985404 -0.141154 -1.103405
45.366711 -0.720597 7.186287
10.928839 -0.175500 -0.956273
45.294167 -0.735260 8.805454
13.869097 -0.227558 -0.726946
45.225990 -0.749944 10.442677
5.099248 -0.092569 -1.366565
5.720522 -0.105845 -1.320913
6.514906 -0.121680 -1.266590
7.580124 -0.144222 -1.200791
45.378784 -0.871317 5.572842
8.968979 -0.172213 -1.101455
45.324417 -0.878187 7.180030
10.932145 -0.213725 -0.956621
45.291321 -0.893361 8.805454
13.896174 -0.276525 -0.728412
45.223255 -0.899915 10.442677
5.079599 -0.109063 -1.361388
29.216705 -0.632409 0.510099
5.716243 -0.124729 -1.320013
6.514466 -0.143284 -1.266590
7.563806 -0.169005 -1.198288
45.391529 -1.022151 5.574792
8.968359 -0.201954 -1.101455
45.321255 -1.028483 7.180030
10.915442 -0.249612 -0.955227
45.256706 -1.042824 8.799348
13.871221 -0.322049 -0.727156
45.220020 -1.049875 10.442677
26.090889 -0.610310 -0.455543
5.067622 -0.125620 -1.358282
29.014542 -0.724301 0.506608
5.723591 -0.143880 -1.321812
6.521776 -0.166223 -1.268117
7.547406 -0.193681 -1.195785
45.332321 -1.171234 5.567967
8.959661 -0.233052 -1.100480
45.317390 -1.186678 7.180030
10.902554 -0.287398 -0.954181
45.205688 -1.199543 8.790189
13.885984 -0.370893 -0.727993
45.216084 -1.207716 10.442677
5.067127 -0.144193 -1.358282
28.879768 -0.826863 0.504305
5.719129 -0.164745 -1.320913
6.536823 -0.190583 -1.271170
7.546645 -0.221343 -1.195785
45.351532 -1.338080 5.570892
8.966684 -0.266125 -1.101455
45.308788 -1.352648 7.179404
10.901426 -0.327355 -0.954181
45.224541 -1.365934 8.794769
13.892517 -0.422028 -0.728412
5.085873 -0.163384 -1.363459
28.848560 -0.931803 0.503816
5.722382 -0.185832 -1.321812
6.524344 -0.213015 -1.268880
7.545784 -0.249001 -1.195785
45.286804 -1.502318 5.563580
8.945809 -0.298326 -1.099018
10.896235 -0.365273 -0.953832
13.811115 -0.467815 -0.724225
5.069828 -0.180586 -1.359318
28.733219 -1.028492 0.501861
5.729488 -0.206086 -1.323612
6.507865 -0.235221 -1.265827
45.344780 -1.646868 3.969769
7.568556 -0.276204 -1.199540
45.309055 -1.661408 5.566992
8.976453 -0.330720 -1.102918
45.471664 -1.683264 7.206937
10.878965 -0.402716 -0.952438
45.268833 -1.683668 8.805454
13.853308 -0.517662 -0.726528
5.073027 -0.198433 -1.360353
28.665514 -1.126271 0.500744
5.709262 -0.225316 -1.319113
45.378353 -1.790853 2.380030
6.514852 -0.258247 -1.267353
45.338753 -1.805141 3.969769
7.563599 -0.302463 -1.198914
45.251415 -1.817485 5.560655
8.955472 -0.359689 -1.100480
45.465828 -1.834044 7.206937
10.869530 -0.440366 -0.951741
45.262680 -1.841675 8.805454
13.847424 -0.565853 -0.726318
5.060760 -0.214763 -1.357247
28.609676 -1.219110 0.499837
5.720165 -0.244747 -1.321812
45.396111 -1.942347 2.381286
6.506114 -0.279512 -1.265827
45.332520 -1.955480 3.969769
7.538872 -0.326518 -1.195159
45.284801 -1.969258 5.565530
8.946297 -0.389039 -1.099505
45.459499 -1.984805 7.206937
10.856068 -0.475885 -0.950695
45.185719 -1.988654 8.791716
13.829509 -0.611064 -0.725481
5.071599 -0.232074 -1.360353
28.533564 -1.310673 0.498580
5.711536 -0.263355 -1.320013
45.397038 -2.101167 2.381705
6.520840 -0.301812 -1.268880
45.325787 -2.105797 3.969769
7.545640 -0.351884 -1.196411
45.254227 -2.118303 5.562604
8.952816 -0.420638 -1.100480
45.452293 -2.143476 7.206937
10.858320 -0.513965 -0.951043
45.178875 -2.138484 8.791716
13.815436 -0.656353 -0.724853
5.078433 -0.251042 -1.362424
28.520826 -1.409871 0.498441
5.698904 -0.282711 -1.317313
45.321602 -2.256243 2.378146
6.527534 -0.326102 -1.270406
45.317764 -2.271910 3.969769
7.544300 -0.379538 -1.196411
45.198975 -2.273864 5.556755
8.951293 -0.451887 -1.100480
45.444534 -2.302121 7.206937
10.856461 -0.551864 -0.951043
45.045242 -2.297658 8.767292
13.832886 -0.708005 -0.725900
5.077525 -0.268768 -1.362424
28.527447 -1.515032 0.498650
5.705613 -0.304011 -1.319113
45.328979 -2.423193 2.378983
6.506751 -0.347837 -1.266590
45.309555 -2.430085 3.969769
7.546875 -0.406082 -1.197037
45.182407 -2.439083 5.555780
8.937684 -0.484048 -1.099018
45.435791 -2.468668 7.206937
10.854468 -0.589757 -0.951043
45.084000 -2.457446 8.776451
13.818363 -0.755633 -0.725272
5.076557 -0.286490 -1.362424
5.696735 -0.323484 -1.317313
45.316261 -2.581178 2.378774
6.497656 -0.370101 -1.265064
45.268974 -2.586412 3.966981
7.537522 -0.431971 -1.195785
45.173622 -2.596784 5.555780
8.939903 -0.515472 -1.099505
45.111362 -2.609004 7.156878
10.844386 -0.627182 -0.950346
13.843556 -0.805487 -0.726737
5.063955 -0.303515 -1.359318
28.590033 -1.718592 0.499942
5.703351 -0.343836 -1.319113
45.279064 -2.737659 2.377309
6.496325 -0.392780 -1.265064
45.255692 -2.744173 3.966632
7.524138 -0.457560 -1.193908
45.203911 -2.756871 5.560655
8.938049 -0.546675 -1.099505
45.220280 -2.773713 7.175650
10.830199 -0.664301 -0.949300
13.864582 -0.855281 -0.727993
45.048653 -2.786863 10.420183
5.062865 -0.321190 -1.359318
28.583858 -1.818379 0.499942
5.686558 -0.362750 -1.315514
6.502752 -0.415956 -1.266590
7.542208 -0.485089 -1.197037
39.900841 -2.573278 4.909385
8.951935 -0.578896 -1.101455
39.891926 -2.586687 6.331530
10.839744 -0.702875 -0.950346
13.833611 -0.901853 -0.726528
45.011425 -2.942315 10.413884
5.065567 -0.339119 -1.360353
5.681369 -0.382336 -1.314614
45.238922 -3.052352 2.376262
6.505177 -0.438916 -1.267353
7.524702 -0.510344 -1.194534
45.183563 -3.072383 5.560655
8.930055 -0.608790 -1.099018
45.050037 -3.079103 7.151872
10.837224 -0.740708 -0.950346
13.830378 -0.950136 -0.726528
5.052791 -0.355984 -1.357247
28.791882 -2.033525 0.503816
5.703326 -0.403817 -1.320013
45.220024 -3.209681 2.375843
6.484023 -0.460231 -1.263537
45.180752 -3.214819 3.962797
7.530756 -0.537169 -1.195785
45.081478 -3.223572 5.549443
8.931834 -0.640242 -1.099505
45.031136 -3.235772 7.150620
10.846497 -0.779389 -0.951392
45.026413 -3.243332 8.774924
13.862833 -1.000996 -0.728412
44.919819 -3.251415 10.397688
5.055370 -0.373905 -1.358282
28.852413 -2.139041 0.505003
5.686335 -0.422568 -1.316414
45.200573 -3.366915 2.375425
6.478461 -0.482570 -1.262774
45.125546 -3.369246 3.958962
7.524896 -0.563158 -1.195159
45.097668 -3.382995 5.552855
8.921627 -0.670821 -1.098530
44.995926 -3.391158 7.146866
10.819869 -0.815449 -0.949300
45.005028 -3.399744 8.773016
13.859254 -1.049381 -0.728412
44.908195 -3.408195 10.397688
5.046330 -0.390952 -1.356212
28.984329 -2.250578 0.507446
5.684825 -0.442414 -1.316414
45.196510 -3.525296 2.375843
6.496310 -0.506708 -1.266590
45.113510 -3.526743 3.958962
7.530761 -0.590039 -1.196411
45.049961 -3.537597 5.548468
8.935063 -0.703205 -1.100480
45.007446 -3.550067 7.150620
10.805037 -0.852272 -0.948254
44.961575 -3.554345 8.766911
13.879399 -1.099645 -0.729668
44.896023 -3.564933 10.397688
5.041083 -0.408253 -1.355177
29.060009 -2.358533 0.508912
5.698785 -0.463519 -1.320013
45.171986 -3.682066 2.375215
6.490588 -0.529062 -1.265827
45.124752 -3.686144 3.961054
7.508968 -0.614711 -1.193282
45.037338 -3.694830 5.548468
8.912769 -0.732763 -1.098043
44.982967 -3.706177 7.148743
10.821856 -0.891620 -0.949998
44.972370 -3.713206 8.771490
13.851591 -1.146110 -0.728412
44.883308 -3.721627 10.397688
5.051178 -0.426823 -1.358282
29.183107 -2.471092 0.511216
5.673831 -0.481432 -1.314614
45.138958 -3.838031 2.374169
6.476964 -0.550717 -1.263537
45.111610 -3.843636 3.961054
7.522522 -0.642263 -1.195785
45.020210 -3.851678 5.547980
8.902246 -0.763192 -1.097068
44.957947 -3.862159 7.146866
10.834557 -0.930754 -0.951392
44.947399 -3.869157 8.769200
13.835567 -1.193424 -0.727784
44.870045 -3.878277 10.397688
5.057355 -0.445130 -1.360353
29.281872 -2.582432 0.513101
5.679880 -0.501920 -1.316414
45.109371 -3.994163 2.373331
6.463269 -0.572284 -1.261248
45.062199 -3.997913 3.957916
7.504494 -0.667118 -1.193282
45.006489 -4.008804 5.547980
8.915346 -0.795673 -1.099018
44.959930 -4.020476 7.149369
10.819335 -0.967503 -0.950346
44.890598 -4.022174 8.760804
13.819382 -1.240641 -0.727156
44.856232 -4.034879 10.397688
5.044227 -0.461724 -1.357247
29.388172 -2.695221 0.515125
5.670331 -0.521030 -1.314614
45.111061 -4.153064 2.374169
6.453412 -0.594121 -1.259721
45.036060 -4.154086 3.956871
7.502119 -0.693309 -1.193282
44.980362 -4.164784 5.546518
8.908561 -0.826422 -1.098530
44.933823 -4.176294 7.147491
10.811925 -1.004895 -0.949998
44.856735 -4.177027 8.756989
13.818944 -1.289243 -0.727365
25.785236 -2.414721 -0.452052
5.035058 -0.476840 -1.355177
29.495026 -2.798489 0.517150
5.672546 -0.539210 -1.315514
45.077908 -4.292871 2.373122
6.463240 -0.615509 -1.262011
45.026760 -4.295929 3.957219
7.495972 -0.716499 -1.192657
44.974960 -4.306830 5.547493
8.913825 -0.855163 -1.099505
44.900818 -4.315547 7.144363
10.800600 -1.039979 -0.949300
44.894203 -4.322820 8.766911
13.786993 -1.329965 -0.725900
44.828487 -4.332286 10.397688
5.044813 -0.496426 -1.358282
29.580601 -2.910829 0.518825
5.658994 -0.557861 -1.312814
45.086502 -4.452551 2.374378
6.464849 -0.639580 -1.262774
45.026569 -4.462503 3.958614
7.481501 -0.742797 -1.190779
44.947800 -4.462619 5.546031
8.894983 -0.884702 -1.097555
44.909069 -4.474605 7.148118
10.777078 -1.075695 -0.947557
44.815548 -4.481086 8.754699
13.789974 -1.381284 -0.726318
5.046893 -0.514425 -1.359318
29.712969 -3.033852 0.521338
5.641402 -0.577012 -1.309215
45.053986 -4.616143 2.373540
6.454764 -0.661343 -1.261248
45.014687 -4.620055 3.958962
7.482792 -0.769312 -1.191405
44.939041 -4.628144 5.547006
8.887732 -0.916890 -1.097068
44.908085 -4.640800 7.150620
10.812895 -1.117404 -0.951043
44.823067 -4.639920 8.759278
13.769176 -1.427764 -0.725481
44.796337 -4.652958 10.397688
5.033539 -0.530823 -1.356212
29.809582 -3.148895 0.523223
5.678112 -0.600802 -1.318213
45.033627 -4.772962 2.373331
6.456321 -0.684284 -1.262011
44.994320 -4.776737 3.958614
7.495776 -0.797098 -1.193908
44.910770 -4.783721 5.545543
8.872634 -0.946645 -1.095605
44.852325 -4.793331 7.144363
10.793079 -1.153448 -0.949649
44.845638 -4.800532 8.766911
13.732334 -1.472412 -0.723806
44.779823 -4.809298 10.397688
5.035497 -0.548809 -1.357247
29.925632 -3.266819 0.525457
5.660482 -0.618924 -1.314614
45.085052 -4.929653 2.376890
6.446087 -0.705961 -1.260484
7.481166 -0.821964 -1.192031
44.909580 -4.942197 5.547493
8.861382 -0.976740 -1.094630
44.844040 -4.942906 7.145614
10.788988 -1.191115 -0.949649
44.762260 -4.949707 8.753936
13.727111 -1.520337 -0.723806
5.022032 -0.565086 -1.354141
30.045790 -3.380796 0.527761
5.666145 -0.638564 -1.316414
45.043755 -5.084311 2.375634
6.451386 -0.729340 -1.262011
45.169731 -5.114500 3.977091
7.478399 -0.846768 -1.192031
44.865330 -5.087964 5.544080
8.893599 -1.010153 -1.099018
44.806881 -5.097178 7.142486
10.792683 -1.229671 -0.950346
44.761204 -5.099895 8.756989
13.729932 -1.566756 -0.724225
5.031645 -0.583071 -1.357247
30.141068 -3.498103 0.529646
5.636782 -0.655189 -1.310115
45.025734 -5.241512 2.375634
6.448932 -0.750730 -1.262011
45.168354 -5.266105 3.978485
7.471474 -0.872409 -1.191405
44.882790 -5.248693 5.548468
8.886075 -1.040729 -1.098530
44.800594 -5.254933 7.144363
10.796461 -1.266382 -0.951043
44.793831 -5.262065 8.766911
13.708510 -1.612806 -0.723388
5.018069 -0.599257 -1.354141
30.271631 -3.620391 0.532159
5.653809 -0.677179 -1.314614
45.030960 -5.401504 2.376890
6.454070 -0.774171 -1.263537
45.122002 -5.420413 3.976045
7.468383 -0.898484 -1.191405
44.876019 -5.406755 5.549930
8.874504 -1.070790 -1.097555
44.781975 -5.411284 7.144363
10.772194 -1.301671 -0.949300
44.775188 -5.418393 8.766911
13.710728 -1.661608 -0.723806
5.035121 -0.619127 -1.359318
30.401709 -3.743633 0.534672
5.643675 -0.695956 -1.312814
44.984081 -5.555231 2.375425
6.431844 -0.794289 -1.259721
7.473043 -0.925519 -1.192657
8.847073 -1.098825 -1.094630
44.684406 -5.557817 7.131848
10.763631 -1.338773 -0.948952
44.561180 -5.550388 8.728748
13.681062 -1.706491 -0.722550
44.496666 -5.558127 10.352697
5.006097 -0.633305 -1.352071
30.487650 -3.862298 0.536417
5.656677 -0.717614 -1.316414
44.972343 -5.713228 2.375843
6.413451 -0.814757 -1.256668
7.458010 -0.950101 -1.190779
44.529991 -5.680727 5.511907
8.858935 -1.131713 -1.096580
44.449196 -5.686189 7.097433
10.754939 -1.375832 -0.948603
13.694832 -1.756778 -0.723597
5.000024 -0.650277 -1.351035
30.632618 -3.989356 0.539210
5.642543 -0.735843 -1.313714
44.944202 -5.869142 2.375425
6.418355 -0.838156 -1.258195
44.991638 -5.883323 3.969769
7.438978 -0.974077 -1.188276
44.411484 -5.823227 5.499720
8.854931 -1.162629 -1.096580
44.299816 -5.824316 7.076783
10.734268 -1.411287 -0.947209
44.229378 -5.822908 8.671506
13.656934 -1.800394 -0.721922
5.005383 -0.668750 -1.353106
5.628351 -0.753982 -1.311015
44.943233 -6.028645 2.376471
6.438740 -0.863687 -1.262774
45.045872 -6.050416 3.976393
7.455110 -1.002671 -1.191405
44.292519 -5.964969 5.487534
8.854754 -1.194062 -1.097068
44.153923 -5.961998 7.056759
10.725327 -1.448215 -0.946860
44.111504 -5.964109 8.652425
13.682234 -1.852342 -0.723597
44.049812 -5.971426 10.262717
5.003019 -0.686218 -1.353106
30.877411 -4.240660 0.544026
5.641130 -0.775748 -1.314614
44.925877 -6.186034 2.376681
6.435686 -0.886157 -1.262774
45.048161 -6.210885 3.978485
7.455478 -1.029228 -1.192031
44.200634 -6.109758 5.478758
8.830868 -1.222242 -1.094630
10.724154 -1.486192 -0.947209
43.993183 -6.104558 8.633345
13.655902 -1.897342 -0.722550
5.015897 -0.705831 -1.357247
31.048552 -4.374642 0.547307
5.638388 -0.795434 -1.314614
44.844681 -6.334437 2.373540
6.409226 -0.905321 -1.258195
7.459664 -1.056355 -1.193282
44.092564 -6.251749 5.468034
8.822618 -1.252503 -1.094143
44.267685 -6.292342 7.081789
10.714955 -1.523056 -0.946860
43.897747 -6.247573 8.618843
13.657105 -1.946126 -0.722969
5.005754 -0.722232 -1.355177
31.223093 -4.510442 0.550658
5.631719 -0.814553 -1.313714
44.862957 -6.488831 2.375634
6.398255 -0.926563 -1.256668
7.459841 -1.082955 -1.193908
43.980103 -6.392487 5.456822
8.837835 -1.286150 -1.096580
44.148834 -6.424881 7.066145
10.701687 -1.559300 -0.946163
43.852364 -6.397367 8.614264
13.634418 -1.991477 -0.722132
4.995559 -0.738571 -1.353106
5.621276 -0.832083 -1.311915
44.855839 -6.647734 2.376471
6.406634 -0.950620 -1.258958
44.830875 -6.660028 3.965238
7.456209 -1.107687 -1.193908
43.884048 -6.527197 5.447560
8.829595 -1.314866 -1.096093
44.079247 -6.571958 7.058637
10.688296 -1.595469 -0.945466
43.753235 -6.531157 8.598999
13.643542 -2.039041 -0.722969
43.963291 -6.578202 10.262717
5.004542 -0.756866 -1.356212
44.893383 -6.797501 0.792549
5.622191 -0.852284 -1.312814
44.820518 -6.802473 2.375843
6.399564 -0.971271 -1.258195
44.808540 -6.808655 3.965238
7.424956 -1.129548 -1.189528
43.861000 -6.680342 5.447560
8.832802 -1.346876 -1.097068
44.005268 -6.718032 7.050502
10.663251 -1.627897 -0.943722
43.726288 -6.683252 8.598235
13.620545 -2.084236 -0.722132
43.940060 -6.731623 10.262717
5.009506 -0.775513 -1.358282
5.611479 -0.870709 -1.311015
44.804394 -6.960111 2.376262
6.400015 -0.994206 -1.258958
44.764812 -6.961964 3.963495
7.444390 -1.159105 -1.193282
43.845261 -6.834627 5.448535
8.804510 -1.374027 -1.094143
43.833221 -6.848424 7.026724
10.665379 -1.666340 -0.944420
43.702694 -6.835845 8.598235
13.605296 -2.130533 -0.721713
43.723774 -6.854778 10.217727
4.995320 -0.791181 -1.355177
44.884335 -7.117011 0.793247
5.616104 -0.891513 -1.312814
44.795601 -7.118972 2.377099
6.373238 -1.012843 -1.254378
44.811069 -7.129448 3.969769
7.432496 -1.183841 -1.192031
43.840736 -6.990759 5.450972
8.803580 -1.405378 -1.094630
43.781742 -6.997025 7.022344
10.675236 -1.706074 -0.945814
43.709583 -6.993317 8.604342
13.578055 -2.174852 -0.720666
43.699577 -7.007361 10.217727
4.988714 -0.807995 -1.354141
44.894749 -7.279404 0.793875
5.616805 -0.911736 -1.313714
44.762596 -7.274013 2.376681
6.377415 -1.036343 -1.255905
44.707256 -7.273029 3.962797
7.432217 -1.210413 -1.192657
43.874844 -7.153333 5.458284
8.806458 -1.437378 -1.095605
43.835030 -7.162550 7.034859
10.653485 -1.740757 -0.944420
43.735283 -7.154089 8.614264
13.605859 -2.228045 -0.722550
43.674854 -7.159858 10.217727
4.989675 -0.826035 -1.355177
44.833553 -7.430186 0.793247
5.621278 -0.932613 -1.315514
44.776340 -7.436764 2.378774
6.377632 -1.059241 -1.256668
44.758244 -7.441786 3.969595
7.416256 -1.234403 -1.190779
43.888771 -7.312967 5.463160
8.820967 -1.471376 -1.098043
43.837036 -7.320074 7.039239
10.639173 -1.778478 -0.943722
43.710045 -7.306711 8.614264
13.562541 -2.269591 -0.720666
43.649593 -7.312269 10.217727
4.986614 -0.844318 -1.355177
44.838890 -7.591980 0.793805
5.610303 -0.950926 -1.313714
44.738289 -7.591012 2.378146
6.400804 -1.087212 -1.262011
44.691383 -7.599103 3.966109
7.423366 -1.263566 -1.192657
8.784468 -1.496823 -1.094143
43.850163 -7.479692 7.045496
10.636828 -1.816276 -0.944071
43.752636 -7.478775 8.628001
13.546256 -2.317937 -0.720248
43.814575 -7.505104 10.262717
4.987444 -0.862378 -1.356212
44.814705 -7.756954 0.793875
5.595259 -0.969486 -1.311015
44.718040 -7.756300 2.378565
6.385365 -1.107535 -1.259721
44.703846 -7.761876 3.969595
7.399448 -1.286088 -1.189528
44.030888 -7.660866 5.487534
8.778923 -1.529010 -1.094143
43.927544 -7.658683 7.062391
10.634026 -1.855934 -0.944420
43.850040 -7.653057 8.652425
13.549888 -2.367271 -0.720876
43.788113 -7.658000 10.262717
4.988054 -0.881324 -1.357247
44.712524 -7.900118 0.792549
5.611031 -0.992406 -1.315514
44.682823 -7.910956 2.378146
6.377396 -1.130246 -1.258958
44.675098 -7.925672 3.969595
7.429693 -1.319417 -1.195159
44.003880 -7.814515 5.487534
8.789166 -1.562424 -1.096093
44.021118 -7.833429 7.081789
10.631405 -1.893741 -0.944768
43.918335 -7.830956 8.671506
13.505729 -2.410601 -0.718991
43.951588 -7.852715 10.307707
4.970050 -0.894253 -1.353106
5.592366 -1.008241 -1.311915
6.358356 -1.147486 -1.255905
7.386634 -1.335721 -1.188902
44.173054 -7.995752 5.511907
8.776124 -1.590145 -1.095118
10.609720 -1.924287 -0.943374
13.498090 -2.453019 -0.718991
4.966899 -0.911596 -1.353106
5.592646 -1.028461 -1.312814
6.362036 -1.171096 -1.257431
7.393583 -1.363647 -1.190779
44.144875 -8.149896 5.511907
8.770520 -1.620770 -1.095118
10.618611 -1.964210 -0.944768
44.154999 -8.175674 8.728748
13.528721 -2.507400 -0.721085
4.971282 -0.930350 -1.355177
5.585191 -1.047258 -1.311915
6.350191 -1.191848 -1.255905
7.381012 -1.387987 -1.189528
8.776513 -1.653580 -1.096580
10.584280 -1.996094 -0.942328
13.468860 -2.544968 -0.718363
4.971799 -0.948421 -1.356212
5.570017 -1.064553 -1.309215
6.342136 -1.213269 -1.255142
7.387763 -1.415974 -1.191405
8.743395 -1.678965 -1.093168
10.612467 -2.039797 -0.945466
44.482430 -8.557914 8.805073
13.479506 -2.595743 -0.719410
4.968458 -0.965770 -1.356212
5.581570 -1.086969 -1.312814
6.341716 -1.236151 -1.255905
7.382775 -1.441753 -1.191405
8.749170 -1.711762 -1.094630
10.589640 -2.073766 -0.944071
13.462524 -2.641242 -0.718991
4.953687 -0.980856 -1.353106
5.585581 -1.106988 -1.314614
6.321957 -1.255222 -1.252852
7.370203 -1.464687 -1.190154
8.755127 -1.743091 -1.096093
10.582336 -2.110718 -0.944071
13.465443 -2.688217 -0.719620
4.950407 -0.997278 -1.353106
5.581682 -1.126478 -1.314614
6.333155 -1.279289 -1.255905
7.353429 -1.488055 -1.188276
8.721752 -1.768121 -1.092681
10.551848 -2.141044 -0.941979
13.432490 -2.730430 -0.718363
4.946896 -1.014552 -1.353106
5.558628 -1.142033 -1.310115
6.324805 -1.300597 -1.255142
7.352059 -1.514511 -1.188902
8.719416 -1.799357 -1.093168
10.571627 -2.183506 -0.944420
13.438524 -2.780539 -0.719201
4.950888 -1.033393 -1.355177
5.558422 -1.162227 -1.311015
6.316383 -1.321862 -1.254378
7.362195 -1.543407 -1.191405
8.689769 -1.824886 -1.090243
10.567840 -2.221215 -0.944768
13.409193 -2.823316 -0.718154
4.947251 -1.050668 -1.355177
5.561956 -1.183245 -1.312814
6.300209 -1.341449 -1.252089
7.349034 -1.567449 -1.190154
8.718288 -1.862674 -1.094630
10.552229 -2.256423 -0.944071
13.414880 -2.873452 -0.718991
4.939777 -1.067115 -1.354141
5.557792 -1.202652 -1.312814
6.291650 -1.362602 -1.251325
7.343518 -1.593092 -1.190154
8.711734 -1.893095 -1.094630
10.540394 -2.292397 -0.943722
13.400863 -2.919411 -0.718782
4.917153 -1.080207 -1.348965
5.534528 -1.217857 -1.308315
6.286856 -1.384556 -1.251325
7.318623 -1.614461 -1.187025
8.712827 -1.925206 -1.095605
10.536219 -2.330036 -0.944071
13.386692 -2.965307 -0.718573
22.354860 -4.960047 -0.399695
4.924665 -1.099891 -1.352071
5.541653 -1.239722 -1.311015
6.301143 -1.410782 -1.255142
7.324508 -1.642591 -1.188902
8.725420 -1.959959 -1.098043
10.539684 -2.369422 -0.945117
13.356775 -3.007630 -0.717526
22.571495 -5.090846 -0.403884
4.932099 -1.119640 -1.355177
5.537292 -1.259058 -1.311015
6.280865 -1.429283 -1.252089
7.326433 -1.669904 -1.190154
8.687562 -1.983335 -1.094143
10.504157 -2.399985 -0.942677
13.326726 -3.049780 -0.716479
22.514603 -5.160668 -0.403185
4.916866 -1.134244 -1.352071
5.551850 -1.282766 -1.315514
6.275838 -1.451199 -1.252089
7.320560 -1.695468 -1.190154
8.668983 -2.010957 -1.092681
10.456900 -2.427626 -0.939190
13.273201 -3.086329 -0.714177
22.426340 -5.222899 -0.401929
4.909115 -1.150519 -1.351035
5.524573 -1.296794 -1.310115
6.263089 -1.471301 -1.250562
7.314597 -1.721012 -1.190154
8.681232 -2.045758 -1.095118
10.491024 -2.474174 -0.943025
13.075745 -3.088566 -0.704128
22.337915 -5.284576 -0.400672
4.905069 -1.167648 -1.351035
5.520012 -1.316071 -1.310115
6.277012 -1.497711 -1.254378
7.304702 -1.745615 -1.189528
8.662455 -2.073276 -1.093655
10.470698 -2.507994 -0.941979
12.987197 -3.115553 -0.699941
22.408775 -5.384007 -0.402278
4.904719 -1.185670 -1.352071
5.504021 -1.332580 -1.307415
6.248849 -1.514065 -1.249799
7.294725 -1.770171 -1.188902
8.643592 -2.100689 -1.092193
10.481239 -2.549237 -0.943722
12.972362 -3.159922 -0.699732
4.915560 -1.206468 -1.356212
5.506905 -1.353645 -1.309215
6.270216 -1.542434 -1.255142
7.269321 -1.790899 -1.185773
8.636207 -2.130848 -1.092193
10.445197 -2.579122 -0.941282
12.980641 -3.209980 -0.700778
9.921250 -2.458937 2.738823
4.903821 -1.221751 -1.354141
5.505928 -1.373803 -1.310115
6.238126 -1.557653 -1.249799
7.263025 -1.816262 -1.185773
8.644121 -2.164839 -1.094143
10.443861 -2.617504 -0.941979
12.934488 -3.246519 -0.698894
4.884542 -1.235072 -1.350000
5.504877 -1.393970 -1.311015
6.240263 -1.581347 -1.251325
7.287276 -1.849379 -1.190779
8.636512 -2.194999 -1.094143
10.419214 -2.650015 -0.940585
12.903722 -3.286719 -0.697848
4.891429 -1.254995 -1.353106
5.496203 -1.412208 -1.310115
6.234706 -1.603120 -1.251325
7.257821 -1.868894 -1.187025
8.613420 -2.221168 -1.092193
10.402182 -2.684377 -0.939888
12.899906 -3.333741 -0.698266
4.898236 -1.274982 -1.356212
5.487468 -1.430401 -1.309215
6.232872 -1.625865 -1.252089
7.251253 -1.894217 -1.187025
8.628658 -2.257249 -1.095118
10.388894 -2.719662 -0.939539
12.853415 -3.369632 -0.696382
9.913978 -2.604582 2.746588
4.897491 -1.293059 -1.357247
5.486210 -1.450544 -1.310115
6.238546 -1.650625 -1.254378
7.248415 -1.920529 -1.187651
8.613052 -2.285319 -1.094143
10.348526 -2.747729 -0.936750
12.822272 -3.409346 -0.695336
9.365232 -2.491896 2.237363
4.892948 -1.310146 -1.357247
5.473585 -1.467667 -1.308315
6.183445 -1.659163 -1.244456
7.237852 -1.944793 -1.187025
8.585853 -2.310212 -1.091706
10.138790 -2.729961 -0.918622
12.818007 -3.456164 -0.695754
9.974352 -2.693154 2.768328
4.869701 -1.322156 -1.352071
5.476210 -1.487853 -1.310115
6.204137 -1.687952 -1.249799
7.238987 -1.970860 -1.188276
8.574314 -2.337626 -1.091218
9.913930 -2.706565 -0.899099
12.798769 -3.496545 -0.695336
9.892221 -2.708061 2.748141
4.846663 -1.333174 -1.346894
5.455952 -1.502820 -1.306516
6.206076 -1.710603 -1.251325
7.197789 -1.986657 -1.182645
8.581409 -2.371773 -1.093168
9.682145 -2.677819 -0.878878
11.053802 -3.059258 2.229413
12.786485 -3.541200 -0.695336
9.812323 -2.719353 2.350739
22.189030 -6.153563 -0.401929
4.860589 -1.355272 -1.352071
5.458181 -1.523952 -1.308315
6.188723 -1.729087 -1.249036
7.198419 -2.013898 -1.183896
8.561608 -2.398500 -1.091706
9.511590 -2.666424 -0.864236
11.058178 -3.102067 2.232466
12.774046 -3.585811 -0.695336
22.140463 -6.223403 -0.401440
4.859546 -1.373281 -1.353106
5.456579 -1.544056 -1.309215
6.193983 -1.753888 -1.251325
7.183744 -2.036858 -1.182645
8.549365 -2.427286 -1.091218
9.498392 -2.698520 -0.863888
12.769136 -3.632566 -0.695754
4.854723 -1.390236 -1.353106
5.451156 -1.563094 -1.309215
6.176501 -1.772250 -1.249036
7.195576 -2.067376 -1.185773
8.525578 -2.452724 -1.089268
9.485085 -2.730557 -0.863539
12.764054 -3.679329 -0.696173
22.192539 -6.405548 -0.403185
4.838708 -1.403943 -1.350000
5.438181 -1.579937 -1.307415
6.177817 -1.795991 -1.250562
22.505531 -6.546980 2.050600
7.184522 -2.091376 -1.185148
8.524589 -2.484691 -1.090243
9.456369 -2.758071 -0.861796
11.100472 -3.239697 2.247730
12.739631 -3.720502 -0.695545
9.754691 -2.850623 2.346240
4.837485 -1.421915 -1.351035
5.436372 -1.600011 -1.308315
6.171511 -1.817545 -1.250562
7.162020 -2.111973 -1.182645
8.515863 -2.514432 -1.090243
9.454328 -2.793321 -0.862493
11.036381 -3.262840 2.237045
12.734226 -3.767215 -0.695964
9.135523 -2.704331 2.199572
4.836195 -1.439895 -1.352071
5.423283 -1.616751 -1.306516
6.168891 -1.840199 -1.251325
7.177318 -2.143744 -1.186399
8.457585 -2.529354 -1.083906
9.538048 -2.854295 -0.871035
12.698040 -3.804764 -0.694708
9.663620 -2.897387 2.329143
22.028479 -6.608860 -0.401440
4.842237 -1.460113 -1.355177
5.432531 -1.640178 -1.310115
6.166189 -1.862856 -1.252089
7.154665 -2.164209 -1.183896
8.342312 -2.526638 -1.070257
9.549001 -2.893928 -0.872952
12.692327 -3.851385 -0.695126
4.840806 -1.478135 -1.356212
13.425191 -4.101931 0.245032
5.419319 -1.656852 -1.308315
13.452049 -4.112704 0.737204
6.163404 -1.885518 -1.252852
13.431152 -4.111443 1.228896
7.143289 -2.188013 -1.183270
13.395715 -4.105709 1.720308
8.193002 -2.512672 -1.052220
13.342659 -4.091996 2.210419
9.531221 -2.924904 -0.872255
13.347567 -4.098598 2.714067
12.682624 -3.896839 -0.695336
9.354441 -2.876015 2.259408
13.435214 -4.130645 -0.245346
13.305521 -4.093313 3.730100
4.828235 -1.492742 -1.354141
13.434441 -4.153516 0.245451
5.417518 -1.675966 -1.309215
13.403266 -4.149004 0.735320
6.149282 -1.904697 -1.251325
13.416719 -4.158301 1.228896
7.124673 -2.208180 -1.181393
13.351689 -4.140700 1.716408
8.029160 -2.491584 -1.032233
13.350932 -4.145575 2.214174
9.539981 -2.964068 -0.873998
12.669631 -3.938874 -0.695336
13.565824 -4.222686 -0.247999
4.815883 -1.506437 -1.352071
5.415354 -1.696031 -1.310115
6.161667 -1.930949 -1.255142
7.124461 -2.235402 -1.182645
7.914359 -2.486279 -1.018584
9.529576 -2.997351 -0.873998
11.188112 -3.519012 2.279786
12.659616 -3.984275 -0.695545
22.030626 -6.942003 -0.403185
4.817696 -1.526412 -1.354141
5.398255 -1.711390 -1.307415
6.132093 -1.946392 -1.250562
7.108689 -2.259106 -1.181393
7.792126 -2.477797 -1.003960
9.538040 -3.036641 -0.875741
12.625898 -4.024582 -0.694498
10.281812 -3.279368 2.491558
10.346733 -3.302063 2.910161
4.812338 -1.543220 -1.354141
5.388235 -1.729973 -1.306516
6.140215 -1.972590 -1.253615
7.108283 -2.286326 -1.182645
7.624272 -2.455227 -0.983486
9.519796 -3.067473 -0.875044
12.619377 -4.071084 -0.694917
10.266595 -3.314041 2.490658
22.076777 -7.126349 -0.404931
4.825297 -1.565972 -1.359318
5.397296 -1.752647 -1.310115
6.107153 -1.985513 -1.248273
7.111932 -2.313552 -1.184522
7.593438 -2.473120 -0.980561
9.541232 -3.111185 -0.878007
10.904266 -3.555640 2.229413
12.594415 -4.109191 -0.694289
10.294451 -3.360768 2.500106
22.025154 -7.194676 -0.404442
4.790709 -1.572326 -1.351035
26.045355 -8.553204 0.478510
5.391146 -1.771476 -1.310115
65.832001 -21.631731 3.631593
6.089345 -2.002075 -1.245983
7.111318 -2.340833 -1.185773
7.588529 -2.500853 -0.981048
9.515725 -3.137816 -0.876612
12.606545 -4.161895 -0.695754
9.512892 -3.142405 2.312947
22.027758 -7.276454 -0.404931
10.326856 -3.413281 2.914303
4.781525 -1.587821 -1.350000
5.381543 -1.788115 -1.309215
6.130754 -2.039431 -1.255905
7.081025 -2.356916 -1.182019
10.656208 -3.548981 1.379074
7.583962 -2.527260 -0.981536
9.499044 -3.169121 -0.876089
12.588886 -4.202412 -0.695545
10.433992 -3.485091 2.539697
21.956705 -7.338089 -0.404093
9.695620 -3.242227 2.739341
4.787221 -1.607358 -1.353106
5.378963 -1.808131 -1.310115
6.112793 -2.055995 -1.253615
7.054034 -2.375315 -1.178890
7.544996 -2.543570 -0.977636
9.508690 -3.209268 -0.878007
9.672850 -3.264673 1.984414
12.559002 -4.241217 -0.694708
21.930958 -7.414688 -0.404093
9.687902 -3.277289 2.740376
4.792273 -1.628623 -1.356212
5.379998 -1.829406 -1.311915
6.116367 -2.082181 -1.255905
7.015364 -2.390958 -1.173884
7.547345 -2.573736 -0.979098
9.523828 -3.251452 -0.880447
9.675681 -3.305181 1.987467
12.547153 -4.288512 -0.694917
10.607927 -3.627768 2.588287
21.923864 -7.497667 -0.404442
4.779251 -1.642830 -1.354141
5.362201 -1.845307 -1.309215
6.079361 -2.093292 -1.249799
6.928540 -2.388393 -1.160744
7.511590 -2.592315 -0.975686
17.732738 -6.123186 2.971317
9.516187 -3.285977 -0.880796
12.566085 -4.344030 -0.696801
10.086894 -3.488958 2.464114
9.509035 -3.292799 2.696377
4.766188 -1.656965 -1.352071
9.741887 -3.388672 0.180039
5.370451 -1.869138 -1.312814
9.732609 -3.389253 0.540107
6.068310 -2.113209 -1.249036
9.678185 -3.372195 0.896658
6.849280 -2.387853 -1.148855
9.416644 -3.284752 1.224543
7.524986 -2.626369 -0.978611
9.480206 -3.310636 -0.878530
9.668128 -3.380049 -0.536758
10.026829 -3.507416 2.452416
9.665528 -3.382926 -0.178748
9.521186 -3.334272 2.703106
4.760375 -1.673591 -1.352071
9.639452 -3.390805 0.178364
5.360217 -1.886579 -1.311915
9.641595 -3.395342 0.535711
6.075710 -2.139595 -1.252089
9.625013 -3.391390 0.892823
6.710494 -2.365771 -1.126954
9.592325 -3.383637 1.248917
7.515772 -2.652620 -0.978611
9.411955 -3.323707 1.580927
9.461076 -3.341053 -0.877833
9.629434 -3.402397 1.985177
9.652505 -3.412444 -0.536548
9.661784 -3.417622 2.366035
9.646120 -3.413976 -0.178608
9.797215 -3.469376 2.784893
4.772707 -1.696669 -1.357247
9.625673 -3.423762 0.178329
5.349927 -1.903971 -1.311015
9.627803 -3.428307 0.535606
6.057107 -2.156839 -1.249799
9.620625 -3.427642 0.893521
6.583111 -2.346730 -1.106930
9.632809 -3.435773 1.255742
7.510207 -2.680174 -0.979098
9.229144 -3.295429 1.552143
9.460615 -3.378079 -0.878878
9.608253 -3.432687 1.983269
9.638654 -3.445445 -0.536444
9.616767 -3.439514 2.357937
9.637911 -3.448974 -0.178678
9.601348 -3.437780 2.732612
4.752212 -1.708091 -1.353106
9.630598 -3.463432 0.178643
5.343248 -1.922634 -1.311015
9.636449 -3.469335 0.536758
6.056931 -2.180629 -1.251325
9.649839 -3.476058 0.897355
6.489394 -2.338885 -1.092538
9.684248 -3.492273 1.264029
7.485867 -2.700983 -0.977149
8.043323 -2.903706 1.354410
9.473127 -3.419877 -0.881145
9.622065 -3.475543 1.988612
9.645351 -3.485857 -0.537490
9.650517 -3.489629 2.369184
17.045904 -6.167166 -0.316412
9.569307 -3.464041 2.726918
4.764377 -1.731267 -1.358282
17.143318 -6.232882 0.318402
5.325517 -1.937277 -1.308315
6.030833 -2.195044 -1.247509
6.436646 -2.345293 -1.085030
7.498772 -2.735260 -0.980073
8.040561 -2.934474 1.355661
9.461132 -3.452924 -0.881145
9.449432 -3.450522 1.955411
12.450836 -4.548968 -0.694708
10.174551 -3.719330 2.501006
17.016762 -6.223883 -0.316273
4.736544 -1.739894 -1.352071
17.025732 -6.257503 0.316622
5.318722 -1.955855 -1.308315
6.034189 -2.220149 -1.249799
6.350568 -2.339071 -1.071889
7.470553 -2.754551 -0.977636
9.728500 -3.587104 1.642249
9.452760 -3.487307 -0.881493
9.450222 -3.488245 1.958082
12.449871 -4.597938 -0.695545
10.369891 -3.831825 2.552295
17.224869 -6.364838 -0.320531
10.447873 -3.862712 2.984701
4.737686 -1.759107 -1.354141
16.980520 -6.304880 0.316168
5.337781 -1.982983 -1.314614
6.015362 -2.237093 -1.247509
6.346478 -2.361495 -1.072515
7.472539 -2.783467 -0.979098
9.756642 -3.636218 1.649132
9.455463 -3.525851 -0.882888
12.445784 -4.643386 -0.696173
9.360302 -3.494088 2.306648
17.181940 -6.417229 -0.320147
9.884198 -3.693584 2.827339
4.735444 -1.776164 -1.355177
16.962152 -6.365519 0.316238
5.316232 -1.996123 -1.311015
6.022613 -2.262552 -1.250562
6.319708 -2.376681 -1.069386
7.470209 -2.812332 -0.980073
18.572729 -6.995832 3.143395
9.428803 -3.551569 -0.881493
12.407074 -4.678347 -0.694917
9.100080 -3.433189 2.245461
17.202465 -6.493409 -0.320950
9.717628 -3.670047 2.783340
4.721990 -1.789945 -1.353106
16.863169 -6.395616 0.314806
5.312876 -2.016050 -1.311915
17.073795 -6.482316 0.957120
5.999995 -2.277986 -1.247509
6.303987 -2.395919 -1.068135
7.452925 -2.835567 -0.979098
9.427521 -3.588713 -0.882539
9.472511 -3.607732 1.970294
12.401865 -4.725893 -0.695545
21.674999 -8.268209 -0.404931
4.733753 -1.813327 -1.358282
16.823936 -6.447999 0.314492
5.305806 -2.034584 -1.311915
5.970012 -2.290477 -1.242930
6.328778 -2.430658 -1.073766
7.450393 -2.864414 -0.980073
8.914185 -3.428977 1.512721
9.413077 -3.620884 -0.882365
9.448868 -3.636544 1.968004
12.370381 -4.763413 -0.694708
21.601225 -8.326557 -0.404093
4.723792 -1.828445 -1.357247
16.838621 -6.521130 0.315190
5.302306 -2.054500 -1.312814
5.925370 -2.297110 -1.235298
6.301839 -2.445588 -1.070638
18.275520 -7.095947 2.407163
7.436648 -2.888966 -0.979586
9.389238 -3.649389 -0.881319
17.629820 -6.855862 3.676889
12.379739 -4.816705 -0.696173
8.729486 -3.398220 2.162679
21.616749 -8.419327 -0.404931
9.795664 -3.817200 2.816987
4.695790 -1.836479 -1.351035
5.302361 -2.075838 -1.314614
5.866130 -2.297730 -1.224612
6.293264 -2.467571 -1.070638
18.202591 -7.140849 2.400826
7.452388 -2.925061 -0.982998
18.620338 -7.312231 3.168424
9.380151 -3.683597 -0.881667
12.359132 -4.858427 -0.695964
21.587229 -8.494731 -0.404931
9.066854 -3.569701 2.610967
4.707318 -1.859959 -1.356212
5.273336 -2.085733 -1.309215
5.781403 -2.287852 -1.208584
6.288286 -2.490978 -1.071263
10.699843 -4.240688 1.413197
7.419989 -2.942276 -0.980073
9.333901 -3.703093 -0.878530
9.359175 -3.715010 1.957319
12.356948 -4.907436 -0.696801
21.538862 -8.562646 -0.404582
4.704385 -1.877811 -1.357247
5.273262 -2.107019 -1.311015
5.755152 -2.300731 -1.204768
6.281386 -2.513647 -1.071576
10.839778 -4.339991 1.433671
7.428101 -2.975541 -0.982511
9.298725 -3.726757 -0.876438
9.375307 -3.759349 1.963425
12.324912 -4.944591 -0.695964
21.527399 -8.645230 -0.404931
10.378968 -4.170214 2.997125
4.690635 -1.891331 -1.355177
5.269490 -2.126873 -1.311915
5.663345 -2.286990 -1.187214
6.267079 -2.533337 -1.070638
7.399267 -2.994006 -0.980073
9.281965 -3.757697 -0.876089
12.311280 -4.989083 -0.696173
21.471148 -8.709800 -0.404442
8.828490 -3.583083 2.552991
4.684004 -1.907693 -1.355177
5.269251 -2.148196 -1.313714
5.586250 -2.278569 -1.172712
6.258198 -2.555197 -1.070638
7.399797 -3.024322 -0.981536
18.066635 -7.387574 3.091458
9.250351 -3.782534 -0.874346
10.075662 -4.122062 2.116072
12.304880 -5.036567 -0.696801
18.392677 -7.532138 4.588552
21.440615 -8.784695 -0.404442
4.684464 -1.926972 -1.357247
5.250909 -2.162124 -1.311015
5.534696 -2.280107 -1.163553
6.254719 -2.579286 -1.071576
7.396534 -3.053163 -0.982511
17.978659 -7.424956 3.080821
9.229725 -3.811758 -0.873649
10.075727 -4.163205 2.119125
12.287225 -5.079488 -0.696801
21.343300 -8.831957 -0.403185
4.670572 -1.940347 -1.355177
5.239731 -2.178944 -1.310115
5.468699 -2.275280 -1.151342
6.238384 -2.598066 -1.070325
10.374998 -4.322945 1.380049
7.393160 -3.082018 -0.983486
9.231074 -3.850089 -0.875044
10.155350 -4.237666 2.138969
12.262046 -5.119269 -0.696382
21.312340 -8.906405 -0.403185
9.767207 -4.083708 2.836657
4.670897 -1.959628 -1.357247
5.228500 -2.195712 -1.309215
5.428144 -2.280667 -1.144472
6.232918 -2.621358 -1.070951
18.333742 -7.714327 2.442262
7.378698 -3.106266 -0.982998
9.254303 -3.897755 -0.878530
12.240421 -5.160489 -0.696173
21.373240 -9.019619 -0.404931
4.664028 -1.975921 -1.357247
5.213627 -2.210906 -1.307415
5.394847 -2.288866 -1.139130
6.241912 -2.650820 -1.074079
7.360503 -3.128897 -0.982023
9.277309 -3.945630 -0.882016
18.225931 -7.755227 3.850144
12.214983 -5.200055 -0.695754
21.297474 -9.075357 -0.404093
10.584354 -4.512427 3.083053
4.646445 -1.987630 -1.354141
5.205878 -2.229091 -1.307415
5.379607 -2.304591 -1.137603
6.239883 -2.675707 -1.075331
7.367777 -3.162401 -0.984461
9.263480 -3.977990 -0.882016
12.215106 -5.250550 -0.696801
21.284035 -9.157546 -0.404442
4.639479 -2.003837 -1.354141
42.961445 -18.564377 0.816912
5.194488 -2.245703 -1.306516
42.968197 -18.576193 2.453300
5.367925 -2.321796 -1.136840
42.917305 -18.571976 4.091265
6.205126 -2.686484 -1.070951
42.857487 -18.563854 5.734684
7.378551 -3.197572 -0.987386
42.738758 -18.521288 7.377450
9.282440 -4.024567 -0.885154
12.185711 -5.288385 -0.696173
17.390768 -7.550895 4.377098
21.187515 -9.199406 -0.403185
4.646622 -2.026197 -1.358282
42.965633 -18.735514 0.818169
5.149502 -2.246552 -1.297068
42.910412 -18.729263 2.453719
5.366985 -2.343663 -1.138366
18.175356 -7.940619 1.735271
6.207044 -2.711791 -1.072828
7.356994 -3.217250 -0.985923
17.550932 -7.678759 3.034203
9.271987 -4.058542 -0.885502
17.663107 -7.731511 3.747870
12.171765 -5.330368 -0.696382
17.979650 -7.877549 4.531864
18.137018 -7.950271 -0.345662
4.625732 -2.035371 -1.354141
18.060450 -7.950550 0.344441
5.102394 -2.247233 -1.287170
18.105124 -7.977762 1.036880
5.359183 -2.361447 -1.138366
18.203617 -8.024957 1.740500
6.208385 -2.738224 -1.074705
17.947092 -7.919353 2.408626
7.327559 -3.234894 -0.983486
18.095022 -7.992177 3.133070
9.269412 -4.094097 -0.886548
18.052626 -7.977216 3.836406
12.127512 -5.361517 -0.694917
17.150053 -7.585537 4.329408
18.046982 -7.986018 -0.344476
4.625661 -2.054642 -1.356212
18.021624 -8.008672 0.344231
5.046440 -2.243654 -1.275023
18.007822 -8.010067 1.032902
5.354496 -2.381736 -1.139130
18.084480 -8.047948 1.731785
6.202398 -2.761486 -1.075331
18.028139 -8.030415 2.423250
7.337981 -3.270149 -0.986411
9.251425 -4.124805 -0.886200
17.920679 -7.993795 3.814272
12.123314 -5.410328 -0.695754
17.970482 -8.023533 4.543561
18.026297 -8.052228 -0.344615
4.611410 -2.067615 -1.354141
4.985240 -2.237319 -1.261526
5.349731 -2.402020 -1.139893
6.189117 -2.781500 -1.074705
7.326522 -3.295744 -0.986411
10.361403 -4.663122 1.799622
9.218801 -4.148897 -0.884456
12.115279 -5.457535 -0.696382
21.057007 -9.494332 -0.403185
4.593604 -2.078920 -1.351035
4.934798 -2.235409 -1.250728
5.353831 -2.426353 -1.142564
18.118584 -8.215141 1.740500
6.182969 -2.804719 -1.075331
7.314972 -3.321298 -0.986411
10.345063 -4.699262 1.799622
9.186123 -4.172812 -0.882713
12.099792 -5.501446 -0.696592
9.264775 -4.214392 2.349839
21.023737 -9.567778 -0.403185
9.629605 -4.384405 2.835104
4.607406 -2.104573 -1.357247
42.748512 -19.535709 0.820403
4.873796 -2.228312 -1.237231
5.348899 -2.446659 -1.143327
6.165956 -2.822995 -1.074079
7.324989 -3.356735 -0.989335
18.024767 -8.263801 3.140579
9.167879 -4.203190 -0.882365
12.091406 -5.548646 -0.697220
21.048361 -9.667815 -0.404302
9.563336 -4.394600 2.820092
4.582488 -2.112556 -1.352071
4.837677 -2.232248 -1.230032
5.345674 -2.467784 -1.144472
6.159651 -2.846158 -1.074705
7.291608 -3.372285 -0.986411
42.596180 -19.709269 7.433766
9.071782 -4.197517 -0.874521
18.234911 -8.441165 3.905860
12.039342 -5.575712 -0.695336
21.028999 -9.747956 -0.404582
4.585595 -2.133428 -1.355177
42.792381 -19.918055 0.823893
4.794524 -2.232668 -1.221034
42.668121 -19.878342 2.466908
5.319232 -2.478138 -1.140656
6.156839 -2.870981 -1.075956
7.290584 -3.402754 -0.987873
42.530701 -19.859509 7.434392
9.033607 -4.218199 -0.872255
12.023424 -5.619394 -0.695545
8.994178 -4.205526 2.292251
20.922392 -9.787409 -0.403185
4.553638 -2.137928 -1.347930
42.722591 -20.067307 0.823893
4.749663 -2.231985 -1.211586
5.314102 -2.498361 -1.141420
6.143206 -2.890773 -1.075331
7.282254 -3.429874 -0.988360
42.486137 -20.019636 7.438773
8.997199 -4.239516 -0.870163
12.025414 -5.671553 -0.696801
8.919522 -4.208623 2.276955
20.960434 -9.894527 -0.404582
4.553130 -2.157118 -1.350000
42.717335 -20.247147 0.825150
4.724235 -2.240201 -1.207087
5.312444 -2.520262 -1.142946
6.129509 -2.910505 -1.074705
7.277408 -3.458681 -0.989335
42.469517 -20.193266 7.448159
8.989543 -4.274318 -0.870860
17.322897 -8.240341 3.728790
12.016363 -5.718644 -0.697429
8.894219 -4.234705 2.274255
20.943821 -9.976233 -0.404931
4.542088 -2.171332 -1.348965
42.671654 -20.408215 0.825638
4.668924 -2.233968 -1.194940
5.300072 -2.537095 -1.142183
6.121093 -2.932736 -1.075018
7.268871 -3.485780 -0.989823
8.976364 -4.306534 -0.871035
11.981924 -5.753638 -0.696592
8.895193 -4.273321 2.278304
20.934103 -10.061408 -0.405419
4.544920 -2.192209 -1.352071
4.664608 -2.251947 -1.195840
5.305327 -2.562411 -1.145236
6.125047 -2.960963 -1.077521
7.257272 -3.509865 -0.989823
16.800138 -8.128740 2.955986
8.970244 -4.342181 -0.871906
9.239422 -4.474472 1.995481
11.976147 -5.802394 -0.697429
8.863436 -4.294298 2.273805
20.832245 -10.097628 -0.404093
4.532414 -2.204734 -1.350518
4.648354 -2.263138 -1.193590
5.280915 -2.572253 -1.141801
42.575111 -20.746876 4.143559
6.115194 -2.981258 -1.077521
7.234888 -3.528691 -0.988360
8.964748 -4.376274 -0.872778
16.760813 -8.185661 3.625753
11.967607 -5.847337 -0.698057
8.870157 -4.333933 2.279204
20.787865 -10.161385 -0.403884
4.488656 -2.201885 -1.339647
42.642399 -20.927223 0.829129
4.656567 -2.286269 -1.197639
5.272357 -2.589751 -1.141801
42.506081 -20.887945 4.143559
6.112365 -3.005007 -1.078772
17.905563 -8.806747 2.450061
7.236775 -3.560935 -0.990310
8.944823 -4.403338 -0.872255
11.944567 -5.885226 -0.697848
8.867211 -4.370901 2.282353
20.788139 -10.251575 -0.404582
9.462784 -4.668582 2.827339
4.437656 -2.196118 -1.326707
26.970818 -13.353246 0.525317
4.650304 -2.303375 -1.198089
5.275598 -2.614240 -1.144472
42.432907 -21.036192 4.143559
6.087681 -3.019303 -1.076269
7.217188 -3.582643 -0.989335
18.199913 -9.038476 3.218483
8.922260 -4.430990 -0.871557
11.934683 -5.932219 -0.698476
8.848409 -4.400090 2.281454
20.752228 -10.324077 -0.404582
4.407494 -2.200377 -1.319977
26.927620 -13.449096 0.525387
4.631776 -2.314367 -1.195390
5.275221 -2.637029 -1.146381
6.071805 -3.037883 -1.075331
7.218839 -3.614925 -0.991285
42.314880 -21.198950 7.496028
8.920210 -4.470804 -0.872952
17.963913 -9.003502 3.905860
11.917472 -5.975632 -0.698685
8.878284 -4.453669 2.293151
20.755384 -10.416186 -0.405350
4.357993 -2.195655 -1.307554
4.634110 -2.335784 -1.198089
5.265521 -2.656346 -1.146381
6.065919 -3.062788 -1.076269
7.202632 -3.638311 -0.990798
8.906328 -4.502812 -0.873126
11.895491 -6.019272 -0.698685
20.697487 -10.477733 -0.404931
4.312414 -2.191599 -1.296166
4.625518 -2.352753 -1.198089
5.250967 -2.672039 -1.145236
6.058712 -3.085736 -1.076895
7.203398 -3.671898 -0.992748
42.296085 -21.560232 7.519180
8.890556 -4.533874 -0.873126
11.881524 -6.064390 -0.699104
20.660786 -10.549918 -0.404931
4.273793 -2.190776 -1.286848
42.448627 -21.759468 0.832619
4.622892 -2.370747 -1.199439
5.236367 -2.687662 -1.144091
42.308521 -21.724960 4.160989
6.064262 -3.113932 -1.079711
7.187651 -3.693951 -0.992260
42.210026 -21.702320 7.517303
8.878219 -4.566703 -0.873475
17.903561 -9.209082 3.913493
11.872003 -6.109241 -0.699732
20.659389 -10.640285 -0.405629
4.235613 -2.188972 -1.277531
42.397282 -21.920366 0.833108
4.612858 -2.385973 -1.198989
5.239632 -2.711328 -1.146762
42.324715 -21.910940 4.169705
6.049847 -3.133264 -1.079085
7.167663 -3.715364 -0.991285
42.190136 -21.878632 7.527315
8.869298 -4.601336 -0.874172
8.868560 -4.600953 1.942054
11.861242 -6.156166 -0.700360
20.629223 -10.716023 -0.405768
4.195015 -2.187510 -1.267696
42.384338 -22.101511 0.834365
4.601046 -2.400258 -1.198089
5.233140 -2.732332 -1.147525
42.332420 -22.112041 4.178421
6.033070 -3.152672 -1.078146
7.168724 -3.747718 -0.993235
42.145016 -22.042246 7.532946
8.863774 -4.637810 -0.875218
11.831522 -6.195891 -0.699941
20.701511 -10.845503 -0.407933
4.161706 -2.188652 -1.259931
4.588768 -2.415291 -1.197189
5.225307 -2.751496 -1.147907
42.254978 -22.259674 4.178421
6.029018 -3.177396 -1.079398
7.144404 -3.768411 -0.991773
42.109749 -22.211346 7.540455
8.842245 -4.665932 -0.874695
11.806290 -6.235287 -0.699732
20.599876 -10.884068 -0.406676
4.123321 -2.186873 -1.250614
4.589341 -2.435061 -1.199439
5.205267 -2.764194 -1.145617
42.177021 -22.407038 4.178421
6.028915 -3.202932 -1.081275
7.152901 -3.803265 -0.994698
8.838215 -4.703321 -0.875915
11.792600 -6.278158 -0.700150
8.560422 -4.559326 2.239163
20.561760 -10.955908 -0.406676
4.081974 -2.182318 -1.240261
4.580813 -2.451066 -1.199439
5.196072 -2.781440 -1.145617
42.278122 -22.640839 4.195852
6.017698 -3.223957 -1.081275
7.125587 -3.820706 -0.992748
8.815548 -4.728836 -0.875218
11.770613 -6.319284 -0.700150
8.589091 -4.613153 2.250860
20.525316 -11.024034 -0.406676
4.081132 -2.200221 -1.242332
42.251598 -22.778687 0.837855
4.572660 -2.466243 -1.199439
5.184604 -2.798629 -1.145236
42.198833 -22.788279 4.195852
6.013927 -3.247650 -1.082527
7.126848 -3.851865 -0.994698
8.795482 -4.757683 -0.874869
11.756618 -6.362085 -0.700569
8.494915 -4.598934 2.230165
20.486710 -11.095613 -0.406676
4.077209 -2.215587 -1.243367
4.560599 -2.480327 -1.198539
5.193771 -2.827034 -1.149433
42.170284 -22.953808 4.200558
