# This PCD file was generated using the MATLAB® pcwrite function
# from Computer Vision Toolbox®.
# .PCD v.7 - Point Cloud Data file format
VERSION .7
FIELDS x y z
SIZE 4 4 4
TYPE F F F
COUNT 1 1 1
WIDTH 1667
HEIGHT 1
VIEWPOINT 0 0 0 1 0 0 0
POINTS 1667
DATA ascii
-7.223403 7.603901 0.917576
-7.201214 7.583194 -1.656328
-7.272205 7.660624 1.296934
-7.258539 7.646227 -1.294496
-7.221684 7.610067 1.661647
-7.183812 7.572805 -0.913218
-7.217957 7.611455 2.038985
-7.205590 7.601075 -0.548900
-7.231649 7.628563 2.426772
-10.260592 10.831317 3.997719
-4.844371 5.126360 -1.889897
-14.227777 15.061237 0.361649
-5.449537 5.770787 -1.832451
-10.145586 10.747425 0.774572
-6.697982 7.095308 -1.896641
-7.183107 7.611872 0.915658
-7.151628 7.581168 -1.650697
-7.219523 7.655813 1.292059
-7.230441 7.670075 -1.294253
-7.177464 7.616540 1.657580
-7.139576 7.578980 -0.910952
-7.173830 7.615342 2.033643
-7.157067 7.600209 -0.547120
-7.192955 7.640990 2.422723
-7.202099 7.656057 2.816469
-4.811009 5.128584 -1.884203
-14.222999 15.161860 0.362870
-5.421362 5.781246 -1.829752
-10.147620 10.825031 0.777608
-6.662532 7.109784 -1.893970
-7.129280 7.610521 0.912346
-7.094091 7.575607 -1.643813
-7.172402 7.659233 1.288403
-7.150714 7.638749 -1.284747
-7.127890 7.617026 1.652261
-7.092660 7.582032 -0.908337
-7.129777 7.624380 2.029063
-7.101886 7.597208 -0.545027
-7.131637 7.631707 2.411475
-7.141043 7.644446 2.803010
-4.782544 5.134037 -1.880062
-14.232747 15.284128 0.364546
-5.397482 5.798223 -1.828852
-10.140531 10.897243 0.780120
-6.622963 7.117185 -1.889772
-7.078244 7.609102 0.909209
-7.051460 7.582967 -1.640059
-7.115899 7.654938 1.283284
-7.119968 7.661996 -1.284259
-7.071689 7.612709 1.645691
-7.041741 7.580470 -0.905200
-7.073730 7.617568 2.020667
-7.053582 7.598531 -0.543352
-7.077117 7.626556 2.402027
-7.093275 7.649318 2.795246
-4.738358 5.122337 -1.869709
-7.258005 7.848912 0.186601
-5.374562 5.814168 -1.827952
-10.149873 10.983914 0.783783
-6.598079 7.140261 -1.889772
-7.030010 7.610348 0.906420
-6.995467 7.575606 -1.633176
-7.063552 7.652016 1.278653
-7.094526 7.688262 -1.284503
-7.026323 7.617019 1.641311
-6.992273 7.580106 -0.902236
-7.031126 7.624895 2.016088
-7.004001 7.598143 -0.541573
-7.030646 7.629716 2.395279
-7.035121 7.639927 2.782823
-4.716529 5.134577 -1.868156
-7.206215 7.847689 0.185973
-5.347645 5.825716 -1.825703
-10.142527 11.053123 0.786191
-6.569133 7.158910 -1.888628
-6.983199 7.612817 0.903805
-6.939609 7.567948 -1.626293
-7.027409 7.666383 1.276947
-7.001931 7.641265 -1.272560
-6.981011 7.621106 1.636930
-6.946930 7.583899 -0.899796
-6.983253 7.626225 2.009982
-6.958558 7.601919 -0.540107
-6.978975 7.626896 2.386731
-6.986250 7.640199 2.774023
-4.681652 5.132455 -1.861427
-7.157220 7.849154 0.185414
-5.318088 5.834265 -1.822553
-10.159039 11.148987 0.790482
-6.534850 7.171638 -1.885956
-6.933774 7.612107 0.900842
-6.891870 7.568756 -1.621287
-6.969871 7.657102 1.271341
-6.943151 7.630422 -1.266710
-6.922465 7.610357 1.629422
-6.897624 7.583047 -0.896833
-6.923570 7.614240 2.000442
-6.911829 7.603994 -0.538537
-6.948378 7.646883 2.385381
-6.940058 7.643086 2.766258
-4.664607 5.147952 -1.861427
-7.117727 7.858024 0.185065
-5.296094 5.848980 -1.821654
-10.155519 11.219632 0.793099
-6.508396 7.190357 -1.885193
-6.891115 7.615853 0.898576
-6.845531 7.568130 -1.616281
-6.928467 7.662503 1.268416
-6.940438 7.678440 -1.270854
-6.886595 7.621546 1.626919
-6.851067 7.582226 -0.894044
-6.887757 7.625502 1.997389
-6.862481 7.600189 -0.536653
-6.887726 7.630825 2.373234
-6.893971 7.643106 2.757976
-4.625933 5.141225 -1.853144
-7.068857 7.859034 0.184507
-5.278253 5.870328 -1.822553
-10.144330 11.286207 0.795297
-6.472757 7.201351 -1.882140
-6.839187 7.611702 0.895264
-6.797953 7.568463 -1.611275
-6.877803 7.660056 1.264029
-6.926853 7.717393 -1.273291
-6.826970 7.608779 1.619097
-6.869800 7.656513 -0.899970
-6.841432 7.627578 1.991664
-6.817244 7.603280 -0.535188
-6.842840 7.634504 2.366935
-6.844050 7.641222 2.748658
-4.582215 5.128531 -1.842792
-7.012077 7.850849 0.183739
-5.252538 5.882903 -1.820754
-10.151417 11.373705 0.798961
-6.439734 7.215115 -1.879850
-6.794007 7.614715 0.892823
-6.758344 7.577405 -1.608147
-6.831207 7.661793 1.260373
-6.878740 7.717813 -1.269391
-6.783286 7.613389 1.615030
-6.750255 7.578983 -0.887943
-6.789955 7.623557 1.984414
-6.768085 7.601669 -0.533408
-6.788939 7.627776 2.357487
-6.792943 7.637638 2.738823
-4.548006 5.127946 -1.836580
-6.958092 7.845356 0.183041
-5.225505 5.893912 -1.818504
-10.158021 11.461382 0.802624
-6.411947 7.237198 -1.879469
-6.755483 7.627634 0.891429
-6.701718 7.569586 -1.601263
-6.778103 7.655863 1.255498
-6.772821 7.652587 -1.254767
-6.734415 7.611873 1.609711
-6.703960 7.580112 -0.885328
-6.735961 7.618973 1.976781
-6.721659 7.605474 -0.531943
-6.742875 7.632160 2.351188
-6.745780 7.638134 2.730541
-4.527524 5.140892 -1.835545
-6.914756 7.854296 0.182657
-5.197432 5.905709 -1.816255
-6.923381 7.869630 0.549318
-6.373678 7.244796 -1.875653
-6.720923 7.642191 0.890383
-6.649169 7.563262 -1.595006
-6.729029 7.656799 1.251598
-6.662186 7.583405 -1.239411
-6.690831 7.618691 1.605956
-6.656425 7.579514 -0.882539
-6.674352 7.602608 1.966478
-6.672676 7.603370 -0.530163
-6.700770 7.638072 2.345790
-6.883841 7.849516 -0.182238
-6.692269 7.633754 2.720188
-4.496835 5.142122 -1.830368
-6.875452 7.864836 0.182343
-5.169091 5.915011 -1.813555
-10.155900 11.625531 0.809009
-6.353516 7.272914 -1.877179
-6.678480 7.647596 0.888291
-6.607139 7.568569 -1.591252
-6.682684 7.657805 1.247942
-6.672214 7.648499 -1.246236
-6.646019 7.621158 1.601576
-6.619450 7.590690 -0.881145
-6.652935 7.631777 1.968004
-6.625100 7.602524 -0.528489
-6.642065 7.624682 2.334542
-6.872158 7.891594 -0.182657
-6.652897 7.642498 2.715012
-4.464924 5.141743 -1.824674
-6.823050 7.860096 0.181680
-5.152246 5.937434 -1.814905
-10.153947 11.701381 0.811940
-6.315225 7.280218 -1.873363
-6.662186 7.682904 0.889686
-6.567740 7.576660 -1.588123
-6.646813 7.670584 1.246236
-6.623414 7.643580 -1.241849
-6.594842 7.613293 1.595319
-6.570741 7.588145 -0.878181
-6.605696 7.631203 1.961898
-6.580225 7.604459 -0.527023
-6.601443 7.628981 2.329143
-6.611091 7.645521 2.708283
-4.428922 5.134579 -1.816910
-6.781276 7.864505 0.181261
-5.127437 5.948584 -1.813105
-10.155509 11.781889 0.815185
-6.274388 7.281785 -1.868402
-6.636671 7.704955 0.889686
-6.524534 7.577441 -1.583743
-6.590260 7.656475 1.240386
-6.585080 7.650457 -1.239411
-6.547657 7.609665 1.590000
-6.518258 7.578173 -0.874521
-6.562434 7.632226 1.956556
-6.539348 7.608062 -0.525767
-6.555785 7.627185 2.321945
-6.556749 7.633696 2.696377
-4.396789 5.131632 -1.810698
-6.733047 7.861129 0.180667
-5.106416 5.964073 -1.812656
-10.153277 11.862790 0.818325
-6.248928 7.301063 -1.868020
-6.616267 7.732975 0.890383
-6.476260 7.572012 -1.578111
-6.549352 7.660183 1.237461
-6.540279 7.652269 -1.235999
-6.504375 7.612949 1.585933
-6.476236 7.582701 -0.872429
-6.491185 7.600204 1.942817
-6.498522 7.611477 -0.524511
-6.508881 7.626306 2.314746
-6.516275 7.640367 2.690683
-4.377949 5.147713 -1.810698
-14.242844 16.747128 0.383744
-5.071683 5.965528 -1.807707
-10.160960 11.955989 0.822303
-6.214501 7.314939 -1.865731
-6.596906 7.767805 0.891603
-6.433121 7.577629 -1.574357
-6.500734 7.657271 1.233318
-6.530224 7.694730 -1.239168
-6.459868 7.614520 1.581553
-6.434266 7.587025 -0.870337
-6.463287 7.623943 1.942817
-6.440880 7.600201 -0.522104
-6.465768 7.632269 2.309348
-6.468339 7.638006 2.681883
-4.351230 5.152631 -1.807075
-14.238127 16.866449 0.385279
-5.046012 5.979610 -1.806357
-10.151367 12.029543 0.824919
-6.180069 7.326080 -1.863059
-6.576175 7.798399 0.892475
-6.391355 7.581914 -1.570602
-6.448322 7.652203 1.228687
-6.457218 7.665474 -1.230637
-6.415434 7.615871 1.577173
-6.396194 7.595721 -0.868768
-6.413879 7.619421 1.935948
-6.398881 7.604298 -0.520847
-6.414000 7.624965 2.300349
-6.418013 7.632447 2.672048
-4.325771 5.158906 -1.803969
-14.233515 16.974861 0.386676
-5.024902 5.994819 -1.805907
-10.156774 12.121550 0.828792
-6.145636 7.337071 -1.860388
-6.561702 7.836584 0.894218
-6.338275 7.569748 -1.563719
-6.410168 7.658323 1.226249
-6.403736 7.653353 -1.225275
-6.369797 7.615491 1.572479
-6.351747 7.596605 -0.866328
-6.372203 7.621071 1.930987
-6.358257 7.607088 -0.519591
-6.377431 7.632736 2.296300
-6.371523 7.631075 2.663766
-4.286384 5.146503 -1.794651
-14.243264 17.107433 0.388560
-5.005193 6.013819 -1.806357
-10.156556 12.207594 0.832246
-6.112480 7.346848 -1.857716
-6.528036 7.849108 0.893172
-6.297923 7.575117 -1.560278
-6.355484 7.647065 1.220887
-6.338927 7.629851 -1.217962
-6.325507 7.616403 1.568099
-6.302336 7.588503 -0.863016
-6.336786 7.632693 1.928316
-6.313809 7.607718 -0.518126
-6.324621 7.623453 2.286852
-6.327587 7.632448 2.656519
-4.258545 5.149523 -1.790510
-14.242065 17.227945 0.390166
-4.977965 6.023742 -1.804107
-10.155854 12.293789 0.835701
-6.076792 7.356033 -1.854663
-6.503133 7.874922 0.893521
-6.247550 7.568109 -1.554333
-6.308534 7.644706 1.216987
-6.266777 7.596807 -1.209188
-6.278777 7.614051 1.563093
-6.259333 7.590472 -0.860750
-6.281379 7.619924 1.919539
-6.265620 7.603509 -0.516347
-6.283104 7.627432 2.281454
-6.288626 7.639575 2.651342
-4.231961 5.153907 -1.786887
-12.974016 15.806070 0.356937
-4.947018 6.029031 -1.800508
-8.795573 10.723159 0.726842
-6.053570 7.380235 -1.855427
-6.492029 7.917602 0.895787
-6.208571 7.574595 -1.551204
-6.246585 7.623686 1.210163
-6.301857 7.693882 -1.221131
-6.240896 7.622169 1.560278
-6.207552 7.581445 -0.857264
-6.239822 7.623571 1.914959
-6.218806 7.600601 -0.514672
-6.241634 7.631218 2.276055
-6.246029 7.642033 2.644613
-4.206622 5.159663 -1.783781
-12.951613 15.891562 0.357844
-4.921017 6.040220 -1.798709
-8.773226 10.772379 0.728098
-6.021574 7.393708 -1.853519
-6.469386 7.946394 0.896484
-6.169622 7.580902 -1.548076
-6.197387 7.617725 1.205775
-6.241147 7.674250 -1.214550
-6.196803 7.622449 1.555897
-6.169736 7.589155 -0.855695
-6.195840 7.623975 1.909616
-6.173348 7.599008 -0.513102
-6.191616 7.624220 2.267507
-6.201054 7.641290 2.636849
-4.169136 5.150292 -1.775499
-12.961471 16.017513 0.359659
-4.895002 6.051300 -1.796909
-8.740591 10.809152 0.728517
-5.980913 7.396365 -1.848939
-6.446616 7.975128 0.897181
-6.123259 7.577806 -1.543070
-6.157035 7.622327 1.203094
-6.194365 7.671279 -1.210650
-6.146587 7.614828 1.549953
-6.130621 7.597761 -0.854126
-6.150696 7.622640 1.903892
-6.134244 7.604966 -0.512055
-6.150288 7.627580 2.262108
-19.743656 24.494810 -0.549157
-6.157376 7.641828 2.629602
-4.134502 5.145959 -1.768769
-12.944308 16.110979 0.360741
-4.876291 6.071387 -1.797809
-8.731567 10.875414 0.730924
-5.946392 7.409048 -1.846650
-6.419837 8.001809 0.897530
-6.080614 7.581705 -1.539315
-6.111763 7.620543 1.199438
-6.140234 7.658780 -1.205288
-6.110086 7.623904 1.547450
-6.080395 7.589569 -0.850814
-6.114126 7.634403 1.901221
-6.091352 7.608686 -0.510799
-6.112547 7.637901 2.258509
-19.608049 24.501133 -0.547761
-6.108938 7.636123 2.620284
-4.110490 5.152811 -1.766181
-12.943766 16.231802 0.362382
-4.847930 6.081601 -1.795559
-8.708488 10.924571 0.732180
-5.920492 7.429761 -1.846650
-6.389382 8.021054 0.897181
-6.029500 7.571980 -1.533058
-6.071426 7.627363 1.197001
-6.097288 7.662595 -1.202363
-6.061296 7.617364 1.541818
-6.036499 7.588920 -0.848374
-6.055669 7.615747 1.891299
-6.044869 7.604889 -0.509124
-6.064028 7.631726 2.250410
-19.472649 24.506798 -0.546365
-6.067829 7.639246 2.614072
-4.086482 5.159554 -1.763593
-12.946983 16.346741 0.363987
-4.815640 6.082365 -1.791060
-8.711208 11.006582 0.735634
-5.889650 7.444222 -1.845123
-6.371233 8.055809 0.898576
-5.984753 7.567141 -1.528052
-6.019016 7.613195 1.191639
-6.105078 7.724822 -1.208944
-6.019973 7.619878 1.538064
-5.998860 7.595872 -0.846805
-6.010914 7.611135 1.885193
-5.999817 7.599809 -0.507449
-6.021784 7.630379 2.244112
-19.334972 24.508680 -0.544899
-6.021988 7.636109 2.605790
-4.070543 5.174597 -1.764111
-12.949179 16.467283 0.365663
-4.796787 6.102202 -1.791960
-8.703583 11.076186 0.738251
-5.864929 7.463713 -1.845123
-7.401695 9.422779 1.048309
-5.948541 7.575559 -1.525549
-5.972791 7.609176 1.187739
-6.020483 7.672684 -1.197488
-5.979928 7.623746 1.534622
-5.956421 7.593778 -0.844365
-5.975827 7.621256 1.882522
-5.956004 7.598698 -0.505984
-5.977084 7.628341 2.237363
-19.199974 24.513058 -0.543503
-5.983384 7.641873 2.600614
-4.052456 5.188774 -1.764111
-12.949451 16.586472 0.367303
-4.771862 6.114299 -1.790610
-8.707867 11.161613 0.741915
-5.827973 7.470209 -1.841689
-7.410415 9.501977 1.054236
-5.907488 7.577581 -1.521795
-5.937654 7.619017 1.186033
-5.981463 7.677995 -1.195051
-5.929008 7.613401 1.528365
-5.913965 7.594086 -0.842099
-5.933511 7.621929 1.877560
-5.912270 7.597377 -0.504519
-5.925294 7.616857 2.227915
-19.060282 24.510468 -0.541967
-5.951931 7.656611 2.598543
-4.020115 5.184566 -1.757899
-12.950273 16.707438 0.368979
-4.750491 6.130919 -1.790610
-8.704323 11.237730 0.744950
-5.801864 7.490505 -1.841689
-7.397935 9.554569 1.057199
-5.868911 7.582533 -1.518666
-5.890374 7.613006 1.181889
-5.949765 7.692547 -1.194076
-5.887898 7.615297 1.524610
-5.863050 7.583158 -0.838613
-5.898468 7.631720 1.874889
-5.875943 7.605327 -0.503681
-5.890330 7.626699 2.224766
-18.920832 24.507210 -0.540431
-5.902740 7.648285 2.588708
-4.003170 5.200099 -1.758417
-12.951637 16.830193 0.370689
-4.729059 6.147464 -1.790610
-8.708870 11.325045 0.748718
-5.766105 7.498263 -1.838636
-7.398540 9.624562 1.062080
-5.825555 7.581046 -1.514286
-5.851668 7.617779 1.179452
-5.908370 7.694375 -1.191151
-5.849250 7.620135 1.521482
-5.825623 7.589355 -0.837044
-5.843107 7.614883 1.865731
-5.831128 7.602019 -0.502111
-5.853002 7.633294 2.220717
-18.791380 24.515966 -0.539175
-5.860734 7.648906 2.581979
-3.986168 5.215576 -1.758934
-12.947444 16.946802 0.372260
-4.694562 6.146897 -1.785661
-8.711275 11.406241 0.752172
-5.739898 7.518343 -1.838636
-7.402372 9.699427 1.067483
-5.779888 7.576205 -1.509280
-5.809391 7.617641 1.176283
-5.853798 7.678642 -1.185545
-5.810776 7.622209 1.518040
-5.789436 7.596965 -0.835649
-5.810539 7.627426 1.863822
-5.781567 7.592134 -0.500122
-5.814515 7.638174 2.216218
-5.798190 7.616729 -0.167089
-5.825975 7.656001 2.577838
-3.963266 5.223303 -1.756864
-12.958859 17.078857 0.374215
-4.674151 6.162432 -1.785661
-8.706397 11.482735 0.755208
-5.710060 7.533641 -1.837491
-7.406971 9.776027 1.073061
-5.742801 7.579587 -1.506151
-5.758930 7.603631 1.171165
-5.799542 7.660029 -1.179695
-5.769826 7.623545 1.514286
-5.755667 7.607596 -0.834603
-5.766263 7.621601 1.857716
-5.746718 7.598523 -0.499285
-5.768002 7.629432 2.208120
-5.754690 7.614586 -0.166601
-5.772434 7.640838 2.565932
-3.952900 5.245674 -1.759970
-12.955716 17.199055 0.375855
-4.654957 6.181823 -1.786561
-8.702299 11.560925 0.758348
-5.674421 7.538417 -1.834056
-7.412847 9.851479 1.078639
-5.702061 7.580641 -1.502397
-5.725197 7.614166 1.169702
-5.753686 7.654836 -1.175796
-5.721819 7.615214 1.508654
-5.713523 7.606929 -0.832337
-5.719581 7.614995 1.851229
-5.703372 7.596175 -0.497820
-5.721446 7.623024 2.200471
-5.708875 7.609034 -0.166042
-5.732979 7.643939 2.560238
-3.919765 5.241560 -1.753758
-12.956680 17.325844 0.377635
-4.626348 6.188670 -1.783862
-8.712102 11.658429 0.762744
-5.645579 7.557590 -1.833675
-7.395761 9.904127 1.081428
-5.657693 7.579330 -1.498017
-5.686707 7.618198 1.167265
-5.729307 7.678054 -1.176283
-5.679851 7.614556 1.504587
-5.664304 7.596481 -0.829025
-5.682244 7.623316 1.848176
-5.664751 7.602615 -0.496878
-5.685321 7.633003 2.197322
-5.663165 7.603256 -0.165484
-5.688954 7.640663 2.552474
-3.901443 5.255212 -1.753758
-12.950291 17.450300 0.379311
-4.607119 6.210280 -1.785212
-5.839212 7.871111 0.513625
-5.612146 7.567791 -1.831385
-7.395555 9.976296 1.086483
-5.614738 7.576812 -1.493636
-5.646933 7.623037 1.164827
-5.699944 7.697408 -1.176039
-5.641482 7.618459 1.501458
-5.619975 7.592185 -0.826411
-5.636917 7.617852 1.842070
-5.631053 7.612707 -0.496250
-5.647058 7.637131 2.192823
-5.628270 7.611722 -0.165239
-5.647323 7.640277 2.545744
-3.885366 5.271910 -1.754793
-12.956411 17.580078 0.381195
-4.577254 6.212971 -1.781612
-5.798675 7.873755 0.512474
-5.577546 7.576269 -1.828714
-7.399654 10.055008 1.092236
-5.579042 7.581073 -1.490821
-5.602802 7.616136 1.160927
-5.660272 7.697078 -1.173114
-5.605492 7.625374 1.498955
-5.581642 7.595699 -0.824668
-5.598837 7.619099 1.837872
-5.579763 7.595928 -0.493947
-5.607859 7.636969 2.187424
-5.591014 7.616816 -0.164925
-5.611474 7.647486 2.541603
-3.869004 5.286324 -1.755311
-12.961091 17.715570 0.383150
-4.555537 6.228912 -1.781612
-5.752293 7.868151 0.510799
-5.541965 7.580458 -1.825279
-6.180098 8.456412 0.916355
-5.539729 7.582953 -1.487379
-5.552766 7.603586 1.156053
-5.607621 7.681515 -1.167752
-5.567197 7.628936 1.495826
-5.543350 7.599042 -0.822924
-5.564106 7.627495 1.835201
-5.536740 7.592764 -0.492481
-5.566245 7.636024 2.181576
-5.552617 7.620122 -0.164576
-5.568822 7.645164 2.534356
-3.848469 5.298905 -1.754793
-12.959108 17.843222 0.384930
-4.531477 6.241621 -1.780712
-5.710713 7.868787 0.509543
-5.491088 7.568936 -1.817647
-6.143216 8.470941 0.915484
-5.499143 7.585616 -1.483938
-5.516869 7.610066 1.154103
-5.565632 7.680145 -1.164584
-5.524308 7.625928 1.491446
-5.510946 7.610279 -0.822053
-5.523451 7.630343 1.831003
-5.498335 7.598445 -0.491539
-5.516518 7.626375 2.173027
-5.503714 7.608675 -0.163913
-5.530784 7.648901 2.529180
-3.820909 5.299771 -1.750652
-12.956754 17.978205 0.386815
-4.508569 6.258189 -1.780712
-5.676001 7.881561 0.509020
-5.452011 7.570535 -1.813449
-6.093817 8.464846 0.912521
-5.462248 7.590333 -1.481122
-5.483144 7.622177 1.152884
-5.516582 7.671484 -1.160196
-5.488251 7.634896 1.489256
-5.461091 7.597112 -0.818567
-5.491053 7.641607 1.829095
-5.457797 7.598125 -0.490283
-5.484181 7.637669 2.170778
-5.458301 7.604427 -0.163389
-5.486943 7.647147 2.521933
-3.797890 5.306792 -1.748582
-12.950934 18.103012 0.388525
-4.486698 6.273888 -1.780712
-5.632195 7.878578 0.507554
-5.419845 7.581533 -1.811541
-6.050333 8.466611 0.910429
-5.418497 7.585242 -1.476429
-5.442660 7.621887 1.149959
-5.419421 7.592136 -1.145328
-5.450094 7.637926 1.486127
-5.420653 7.596666 -0.816475
-5.448381 7.638353 1.823753
-5.419648 7.600866 -0.489237
-5.435998 7.626614 2.162230
-5.413156 7.597378 -0.162831
-5.432199 7.626914 2.508992
-3.774866 5.313717 -1.746511
-12.960600 18.250828 0.390724
-4.458001 6.279978 -1.778013
-5.594474 7.880926 0.506507
-5.381983 7.584395 -1.807724
-6.016129 8.481181 0.909732
-5.373703 7.578329 -1.471423
-5.397655 7.614925 1.146059
-5.406656 7.630445 -1.148253
-5.417882 7.646288 1.484250
-5.382584 7.599283 -0.814732
-5.403536 7.631687 1.817647
-5.374619 7.593656 -0.487562
-5.399212 7.631227 2.158180
-5.377539 7.600593 -0.162517
-5.399066 7.633847 2.505368
-3.748503 5.315809 -1.742887
-12.963395 18.383589 0.392644
-4.432662 6.288354 -1.776214
-5.545074 7.869385 0.504519
-5.353217 7.599925 -1.806961
-7.404252 10.515662 1.125181
-5.338309 7.581570 -1.468607
-5.357522 7.611678 1.142891
-5.392747 7.664566 -1.150690
-5.379796 7.648994 1.481122
-5.350297 7.609875 -0.813860
-5.365779 7.631896 1.813449
-5.336777 7.593462 -0.486410
-5.354834 7.621981 2.150532
-5.340633 7.604589 -0.162203
-5.367949 7.646321 2.503298
-3.724204 5.318717 -1.739782
-12.959914 18.515558 0.394494
-4.410685 6.303788 -1.776214
-5.508411 7.875601 0.503681
-5.312230 7.595113 -1.801619
-6.011918 8.598680 0.917924
-5.298234 7.580728 -1.464852
-5.319549 7.614062 1.140453
-5.369368 7.688227 -1.151422
-5.341753 7.651531 1.477993
-5.309063 7.604706 -0.811420
-5.327869 7.634481 1.809633
-5.305665 7.605493 -0.485992
-5.317046 7.624642 2.146033
-5.303761 7.608422 -0.161889
-5.331283 7.650748 2.498639
-3.699002 5.322165 -1.736676
-12.965947 18.662500 0.396658
-4.386429 6.315946 -1.775314
-5.472916 7.883296 0.502949
-5.272252 7.594256 -1.797039
-5.956877 8.583602 0.914089
-5.262731 7.586193 -1.462350
-5.281628 7.616271 1.138016
-5.321012 7.675924 -1.146791
-5.303762 7.653893 1.474864
-5.263196 7.595351 -0.808457
-5.292245 7.640120 1.806580
-5.267716 7.607545 -0.484945
-5.283746 7.633542 2.143334
-5.263519 7.607156 -0.161470
-5.286959 7.643892 2.490357
-3.678209 5.331864 -1.735641
-12.962031 18.796539 0.398543
-4.364354 6.331220 -1.775314
-5.438566 7.892483 0.502321
-5.240142 7.604530 -1.795131
-5.929141 8.607623 0.914438
-5.223892 7.586621 -1.458908
-5.250509 7.628119 1.137041
-5.326815 7.741879 -1.153859
-5.273653 7.667479 1.473926
-5.224229 7.595621 -0.806539
-5.243300 7.626191 1.798947
-5.230946 7.611074 -0.484003
-5.239409 7.626240 2.136135
-5.224482 7.607348 -0.161086
-5.242752 7.636816 2.482075
-3.657390 5.341483 -1.734605
-12.959586 18.934084 0.400498
-4.329023 6.327116 -1.769915
-5.394068 7.886692 0.500750
-5.203589 7.608192 -1.791697
-5.911426 8.646361 0.916355
-5.184004 7.585238 -1.455153
-5.203692 7.616898 1.132654
-5.285206 7.739113 -1.150690
-5.234606 7.667893 1.470484
-5.188698 7.600645 -0.805145
-5.202260 7.623367 1.793986
-5.179586 7.592988 -0.481700
-5.206171 7.634821 2.133436
-5.184378 7.605712 -0.160667
-5.209538 7.645490 2.478969
-3.640896 5.357413 -1.735641
-12.965336 19.085066 0.402732
-4.306912 6.342187 -1.769915
-8.714959 12.838133 0.813196
-5.164868 7.608443 -1.787499
-5.931553 8.741131 0.924199
-5.145299 7.585304 -1.451712
-5.160360 7.610372 1.128998
-5.211382 7.688499 -1.140453
-5.197837 7.671399 1.467668
-5.149844 7.600566 -0.803227
-5.161303 7.620349 1.789025
-5.146334 7.601098 -0.481072
-5.163106 7.628738 2.126687
-5.149951 7.612171 -0.160423
-5.170912 7.646027 2.473275
-3.620011 5.366887 -1.734605
-12.976887 19.246271 0.405175
-4.282568 6.353951 -1.769015
-8.710270 12.928103 0.816964
-5.121826 7.602002 -1.781775
-5.942183 8.822927 0.930649
-5.107757 7.586833 -1.448583
-5.126006 7.616809 1.127291
-5.171215 7.686881 -1.137529
-5.153388 7.663270 1.462662
-5.117720 7.610231 -0.802356
-5.119339 7.615508 1.783683
-5.106400 7.599124 -0.479816
-5.128838 7.635393 2.123538
-5.102170 7.598557 -0.159759
-5.134502 7.649592 2.468616
-3.595882 5.371463 -1.732017
-12.971909 19.384516 0.407130
-4.257113 6.364001 -1.767665
-8.716162 13.034800 0.821779
-5.089804 7.611672 -1.779866
-5.896956 8.822082 0.928383
-5.073562 7.593118 -1.446393
-5.092773 7.624751 1.125829
-5.130022 7.683422 -1.134360
-5.116740 7.666424 1.459847
-5.075642 7.604847 -0.799915
-5.084010 7.620265 1.780630
-5.072087 7.605269 -0.479083
-5.092423 7.638657 2.119489
-5.068963 7.606335 -0.159550
-5.087417 7.636922 2.458781
-3.571764 5.375937 -1.729429
-12.965018 19.521296 0.409050
-4.233793 6.377201 -1.767215
-8.714781 13.131713 0.825966
-5.053431 7.614672 -1.776432
-5.791232 8.729712 0.916530
-5.027373 7.581150 -1.440762
-5.057350 7.629245 1.123879
-5.064791 7.643366 -1.125829
-5.079037 7.667771 1.456718
-5.032559 7.597603 -0.797301
-5.040035 7.611775 1.774524
-5.035586 7.607940 -0.478141
-5.052826 7.636883 2.114090
-5.029141 7.603969 -0.159131
-5.051141 7.640130 2.454122
-3.560422 5.399662 -1.733052
-12.971625 19.679970 0.411423
-4.205075 6.382176 -1.764516
-8.723936 13.240594 0.830990
-5.012783 7.610950 -1.771471
-5.722375 8.691632 0.910429
-4.992193 7.585451 -1.438259
-5.015416 7.623634 1.120467
-5.079786 7.721479 -1.134847
-5.043815 7.669716 1.453902
-5.002725 7.610128 -0.796778
-5.001576 7.611273 1.770326
-4.994745 7.603769 -0.476781
-5.018916 7.640565 2.110491
-4.998412 7.612247 -0.158957
-5.013055 7.637459 2.447911
-3.543555 5.413054 -1.733570
-12.969805 19.819925 0.413447
-4.183886 6.396086 -1.764516
-8.721522 13.332966 0.834968
-4.983220 7.620957 -1.769944
-5.677168 8.685546 0.907814
-4.954043 7.582121 -1.434504
-4.977083 7.620279 1.117542
-5.032444 7.705041 -1.129973
-5.010792 7.674823 1.451712
-4.965482 7.608325 -0.794860
-4.965583 7.611373 1.766510
-4.960773 7.606908 -0.475943
-4.974389 7.627787 2.102393
-4.967679 7.620405 -0.158782
-4.977155 7.637855 2.442734
-3.522426 5.419917 -1.732017
-12.976993 19.975182 0.415786
-4.164777 6.413194 -1.765416
-8.719689 13.427141 0.839050
-4.940815 7.611094 -1.763838
-5.634237 8.682596 0.905548
-4.919199 7.583592 -1.431688
-4.940984 7.620087 1.115105
-4.984184 7.686711 -1.124854
-4.970273 7.668190 1.447332
-4.932643 7.613043 -0.793640
-4.936044 7.621207 1.764983
-4.931180 7.616610 -0.475525
-4.939536 7.629517 2.098343
-4.924999 7.609974 -0.158224
-4.946554 7.646206 2.440146
-3.496056 5.418581 -1.727876
-12.988720 20.139097 0.418299
-4.142433 6.425330 -1.764966
-8.727064 13.536555 0.844074
-4.903852 7.609283 -1.759641
-5.597862 8.689507 0.904328
-4.884397 7.584917 -1.428873
-4.910316 7.628083 1.113886
-4.950072 7.689843 -1.122904
-4.928785 7.659710 1.442639
-4.887967 7.599198 -0.790503
-4.903310 7.625976 1.762312
-4.896178 7.617798 -0.474583
-4.901567 7.626183 2.092945
-4.886764 7.606078 -0.157805
-4.902379 7.633310 2.430829
-3.470017 5.423829 -1.725288
-12.965160 20.273056 0.420045
-4.120878 6.446115 -1.766316
-8.717820 13.642163 0.848471
-4.868253 7.618131 -1.757351
-5.543002 8.677357 0.900842
-4.848860 7.593625 -1.426995
-4.862832 7.618437 1.109742
-4.943719 7.748142 -1.128510
-4.888435 7.664446 1.439823
-4.846968 7.599431 -0.788585
-4.859218 7.621570 1.756969
-4.858302 7.623068 -0.473745
-4.865676 7.637580 2.090695
-4.852971 7.620571 -0.157700
-4.859250 7.633370 2.424617
-3.452100 5.437539 -1.725805
-13.007897 20.497158 0.423744
-4.085824 6.440715 -1.760917
-8.726839 13.761907 0.854018
-4.835325 7.625131 -1.755061
-5.503080 8.681507 0.899273
-4.808577 7.588813 -1.422928
-4.821340 7.611886 1.106330
-4.895407 7.731807 -1.123635
-4.857424 7.674788 1.438571
-4.809754 7.599470 -0.786842
-4.823139 7.623553 1.753535
-4.808179 7.602843 -0.471442
-4.828572 7.638047 2.086196
-4.810318 7.612107 -0.157176
-4.825350 7.638854 2.420993
-3.435156 5.452826 -1.726841
-11.546744 18.335903 0.378229
-4.053974 6.440094 -1.756868
-8.714911 13.849763 0.857577
-4.797174 7.623685 -1.750863
-5.489714 8.727648 0.902062
-4.776802 7.597191 -1.421364
-4.787343 7.616905 1.104624
-4.851490 7.721956 -1.119736
-4.815897 7.668276 1.434191
-4.778961 7.609462 -0.786145
-4.781882 7.617065 1.748192
-4.772054 7.604357 -0.470500
-4.789455 7.635045 2.080797
-4.775218 7.615300 -0.156897
-4.788398 7.639282 2.415817
-3.408935 5.453316 -1.723217
-11.529290 18.450716 0.379764
-4.031470 6.454205 -1.756868
-8.713058 13.954639 0.862183
-4.761177 7.625394 -1.747429
-5.473985 8.770419 0.904502
-4.741890 7.600410 -1.418861
-4.752324 7.620093 1.102674
-4.815055 7.723681 -1.117542
-4.774476 7.661568 1.429811
-4.740780 7.607496 -0.784227
-4.743844 7.615381 1.743994
-4.738092 7.609099 -0.469768
-4.747329 7.626899 2.074049
-4.742265 7.621736 -0.156688
-4.750482 7.637904 2.410123
-3.384788 5.456973 -1.720629
-11.521714 18.582626 0.381649
-4.005838 6.463269 -1.755518
-8.717936 14.071559 0.867521
-4.721087 7.620273 -1.742468
-5.439139 8.782700 0.903805
-4.704931 7.600120 -1.415732
-4.720471 7.628197 1.101455
-4.777620 7.723561 -1.115105
-4.737313 7.661388 1.426683
-4.700573 7.601970 -0.781961
-4.710009 7.620203 1.741323
-4.705202 7.615398 -0.469140
-4.712483 7.630161 2.070450
-4.694624 7.604212 -0.155990
-4.715673 7.641290 2.405982
-3.360655 5.460529 -1.718041
-11.518602 18.723219 0.383709
-3.986313 6.482193 -1.756868
-8.720018 14.185276 0.872650
-4.688292 7.626671 -1.740178
-4.843092 7.881577 0.809328
-4.662867 7.591249 -1.411039
-4.684469 7.629403 1.099262
-4.740248 7.723270 -1.112667
-4.704344 7.667775 1.424805
-4.664632 7.603046 -0.780393
-4.665934 7.608146 1.734835
-4.669197 7.616449 -0.468197
-4.678695 7.634932 2.067300
-4.661786 7.610321 -0.155780
-4.678884 7.641227 2.400805
-3.345599 5.478823 -1.720111
-11.515692 18.865717 0.385803
-3.950465 6.474444 -1.751019
-8.724524 14.304296 0.878093
-4.654483 7.631258 -1.737507
-4.808293 7.886525 0.808108
-4.624002 7.587238 -1.407285
-4.647479 7.628757 1.096824
-4.710165 7.734684 -1.111936
-4.670358 7.672338 1.422615
-4.634954 7.614178 -0.779870
-4.634243 7.616002 1.732927
-4.625978 7.605399 -0.466523
-4.643914 7.637898 2.063701
-4.628959 7.616295 -0.155571
-4.646163 7.647608 2.397700
-3.323452 5.485511 -1.718559
-11.520204 19.022116 0.388176
-3.922796 6.479857 -1.748769
-8.714870 14.401302 0.882175
-4.622736 7.639060 -1.735599
-4.770420 7.886215 0.806365
-4.591358 7.593189 -1.405407
-4.608500 7.624546 1.093899
-4.659524 7.712001 -1.106330
-4.633337 7.671683 1.419487
-4.595989 7.609845 -0.777778
-4.600529 7.620366 1.730256
-4.592175 7.609531 -0.465790
-4.607160 7.637374 2.059202
-4.596150 7.622130 -0.155361
-4.607474 7.643925 2.391488
-3.308266 5.503700 -1.720629
-11.522733 19.177057 0.390515
-3.906175 6.503534 -1.751469
-7.484330 12.465863 0.762012
-4.580886 7.629900 -1.729874
-4.737734 7.894278 0.805493
-4.558729 7.599005 -1.403530
-4.575734 7.630370 1.092437
-4.624408 7.714599 -1.104380
-4.594347 7.667475 1.415732
-4.565303 7.619004 -0.777081
-4.565828 7.622905 1.727203
-4.556349 7.610093 -0.464848
-4.570467 7.636687 2.054703
-4.553089 7.610673 -0.154803
-4.576795 7.653330 2.389417
-3.277162 5.495304 -1.714417
-11.519212 19.323658 0.392679
-3.881453 6.513783 -1.750569
-7.459165 12.522801 0.763896
-4.546185 7.632351 -1.726821
-4.685688 7.869681 0.801310
-4.524091 7.601294 -1.401027
-4.535874 7.624119 1.089268
-4.589336 7.717044 -1.102430
-4.556449 7.664790 1.412291
-4.521370 7.605780 -0.774117
-4.530167 7.623606 1.723769
-4.524660 7.617364 -0.464325
-4.525871 7.622435 2.046605
-4.518331 7.612761 -0.154524
-4.532310 7.639352 2.380100
-3.256974 5.505047 -1.713900
-11.515821 19.472181 0.394878
-3.857701 6.525613 -1.750119
-7.439959 12.585290 0.766198
-4.517519 7.644793 -1.726058
-4.655152 7.880842 0.800787
-4.483471 7.593225 -1.396647
-4.503181 7.629648 1.087806
-4.573468 7.751822 -1.105111
-4.524986 7.669648 1.410413
-4.486695 7.607788 -0.772723
-4.491565 7.619077 1.719189
-4.490946 7.621067 -0.463592
-4.498246 7.636509 2.046155
-4.483925 7.612197 -0.154209
-4.499113 7.641021 2.375959
-3.237737 5.516384 -1.713900
-11.522035 19.630987 0.397321
-3.826178 6.521563 -1.745620
-7.434374 12.676654 0.770176
-4.478889 7.640193 -1.721479
-4.621568 7.886731 0.799741
-4.450274 7.594418 -1.394144
-4.460797 7.615421 1.083662
-4.538707 7.751530 -1.102918
-4.490202 7.671759 1.407910
-4.452064 7.609644 -0.771328
-4.459332 7.622069 1.716518
-4.453547 7.615230 -0.462336
-4.466014 7.639606 2.043005
-4.453292 7.620894 -0.154070
-4.462667 7.640000 2.370783
-3.221372 5.530428 -1.714935
-11.517841 19.781683 0.399555
-3.796529 6.523088 -1.742471
-7.424230 12.761222 0.773735
-4.450570 7.649911 -1.720334
-4.588379 7.889956 0.798521
-4.415798 7.596242 -1.391641
-4.426210 7.617214 1.081712
-4.499658 7.746726 -1.099993
-4.455461 7.673718 1.405407
-4.419804 7.612304 -0.770108
-4.424818 7.624003 1.713465
-4.412908 7.606542 -0.460871
-4.425635 7.631546 2.036707
-4.423656 7.631203 -0.153965
-4.433067 7.650515 2.369230
-3.201080 5.539968 -1.714417
-11.525736 19.955099 0.402243
-3.775683 6.539677 -1.743371
-7.425560 12.866635 0.778550
-4.407154 7.636495 -1.713846
-4.552847 7.892116 0.797126
-4.386292 7.606477 -1.390703
-4.395626 7.625739 1.080737
-4.461690 7.743465 -1.097312
-4.409914 7.656702 1.399463
-4.383259 7.610422 -0.768365
-4.391319 7.627494 1.710794
-4.379354 7.609783 -0.460138
-4.402853 7.653706 2.038507
-4.382037 7.620596 -0.153442
-4.405371 7.664269 2.368712
-3.173077 5.536022 -1.709759
-4.514206 7.879058 0.158503
-3.753803 6.554507 -1.743821
-4.527184 7.904908 0.477409
-4.374620 7.641608 -1.711557
-4.516362 7.892398 0.795558
-4.351869 7.608024 -1.388200
-4.364056 7.632420 1.079519
-4.419856 7.733141 -1.093655
-4.381560 7.666138 1.398524
-4.344809 7.604916 -0.766273
-4.351039 7.618908 1.705451
-4.347816 7.616350 -0.459614
-4.354864 7.631792 2.028609
-4.344851 7.614243 -0.153023
-4.355046 7.635206 2.355253
-3.153735 5.547064 -1.709759
-4.482125 7.883554 0.158293
-3.731081 6.565226 -1.743371
-4.492660 7.908505 0.476676
-4.342104 7.646587 -1.709267
-5.947343 10.477735 1.054062
-4.311012 7.594928 -1.383194
-4.328927 7.629583 1.077081
-4.406920 7.770202 -1.096824
-4.346978 7.667640 1.396021
-4.310379 7.606167 -0.764879
-4.316072 7.616212 1.701635
-4.316626 7.620300 -0.458986
-4.320889 7.630930 2.024559
-4.312337 7.618920 -0.152813
-4.317902 7.631866 2.349559
-3.138169 5.562541 -1.711312
-4.295449 7.616976 0.152639
-3.702402 6.568023 -1.740671
-4.309131 7.647474 0.460033
-4.304193 7.638710 -1.704306
-4.291427 7.619164 0.765053
-4.274785 7.592716 -1.380065
-4.292531 7.627349 1.074644
-4.387555 7.799380 -1.098774
-4.314379 7.672435 1.394144
-4.284153 7.618684 -0.764704
-4.277914 7.610696 1.697055
-4.279240 7.616168 -0.457835
-4.286593 7.632372 2.020960
-4.278862 7.621722 -0.152569
-4.284619 7.635098 2.345936
-3.118734 5.573461 -1.711312
-4.265909 7.626688 0.152534
-3.677552 6.577505 -1.739771
-4.269745 7.639804 0.458672
-4.268884 7.638264 -1.700871
-4.263834 7.632356 0.764879
-4.245367 7.602416 -1.379126
-4.256203 7.624953 1.072207
-4.321615 7.745306 -1.089025
-4.279875 7.673645 1.391641
-4.247830 7.616190 -0.762961
-4.243671 7.611866 1.694002
-4.239991 7.608377 -0.456474
-4.246649 7.623454 2.014662
-4.242500 7.619141 -0.152220
-4.255121 7.644945 2.344383
-3.092696 5.572489 -1.707688
-4.229558 7.624047 0.152185
-3.650788 6.583486 -1.737972
-4.223682 7.619725 0.456579
-4.233627 7.637666 -1.697437
-4.230405 7.634995 0.763659
-4.209231 7.599909 -1.375998
-4.229562 7.639763 1.072207
-4.288784 7.749925 -1.087562
-4.241587 7.667797 1.387887
-4.229897 7.646664 -0.764530
-4.215177 7.623196 1.693239
-4.203743 7.605652 -0.455428
-4.213414 7.626292 2.011512
-4.208147 7.619899 -0.151941
-4.222809 7.649603 2.341277
-3.071364 5.579865 -1.706653
-4.194245 7.622995 0.151871
-3.626847 6.594481 -1.737522
-4.199947 7.639672 0.456893
-4.200321 7.640352 -1.694765
-4.196054 7.635746 0.762264
-4.172217 7.595510 -1.372556
-4.191405 7.633599 1.069282
-4.265527 7.771808 -1.088537
-4.203391 7.661775 1.384132
-4.226176 7.703306 -0.768714
-4.179103 7.620647 1.689423
-4.173330 7.613272 -0.455009
-4.181147 7.630700 2.008813
-4.172879 7.618757 -0.151627
-4.180311 7.635489 2.332477
-3.050941 5.588858 -1.706135
-4.158033 7.620036 0.151522
-3.601938 6.603680 -1.736622
-4.166937 7.639532 0.456056
-4.169865 7.648076 -1.693239
-4.159842 7.632851 0.760521
-4.137172 7.594417 -1.369740
-4.155239 7.630751 1.066844
-4.232679 7.776188 -1.087075
-4.176077 7.672200 1.383507
-4.139273 7.607753 -0.757732
-4.144970 7.621392 1.686370
-4.141004 7.617266 -0.454381
-4.146113 7.629838 2.004764
-4.143770 7.625525 -0.151487
-4.144823 7.630638 2.326783
-3.031415 5.599473 -1.706135
-4.123219 7.616198 0.151173
-3.573529 6.603590 -1.733473
-4.132644 7.639975 0.455218
-4.137542 7.652221 -1.690949
-4.130329 7.642067 0.759998
-4.106331 7.597667 -1.367863
-4.116703 7.620036 1.063432
-4.203094 7.783195 -1.086100
-4.143639 7.676301 1.381629
-4.105125 7.608128 -0.756338
-4.109421 7.616089 1.682172
-4.100553 7.602830 -0.452706
-4.115242 7.633252 2.002064
-4.106692 7.620578 -0.151103
-4.115415 7.639955 2.325230
-3.011916 5.607792 -1.705618
-4.097556 7.632305 0.151208
-3.546768 6.609157 -1.731673
-4.094063 7.629001 0.453753
-4.108433 7.658978 -1.689423
-4.099316 7.645186 0.758952
-4.074184 7.601510 -1.365986
-4.082581 7.620360 1.061482
-4.164653 7.776821 -1.083175
-4.107901 7.670845 1.378188
-4.072349 7.607647 -0.754943
-4.078178 7.621734 1.680264
-4.066452 7.603009 -0.451869
-4.078463 7.628667 1.997115
-4.075740 7.623575 -0.150894
-4.081861 7.638227 2.320572
-2.990505 5.614862 -1.704582
-4.064701 7.631732 0.150928
-3.517507 6.607120 -1.728074
-4.058965 7.627378 0.452811
-4.066919 7.645541 -1.683317
-4.058572 7.633063 0.756338
-4.044319 7.606256 -1.364421
-4.055423 7.630352 1.060995
-4.135117 7.783575 -1.082200
-4.071836 7.667690 1.375059
-4.033626 7.598938 -0.752677
-4.047359 7.624811 1.677974
-4.037474 7.609394 -0.451450
-4.045840 7.628376 1.993516
-4.041613 7.623621 -0.150614
-4.052461 7.647307 2.319019
-2.966378 5.616724 -1.701994
-4.032036 7.637736 0.150754
-3.495997 6.625137 -1.729424
-4.026324 7.633368 0.452287
-4.035628 7.651008 -1.681409
-4.026329 7.636608 0.755292
-4.009968 7.608794 -1.362231
-4.027427 7.645165 1.060995
-4.097311 7.781116 -1.079762
-4.033586 7.663334 1.371618
-3.998725 7.597102 -0.751108
-4.024868 7.650020 1.680264
-4.005836 7.617071 -0.451031
-4.035990 7.677651 2.002514
-4.002480 7.617141 -0.150195
-4.027997 7.668952 2.321089
-2.944064 5.621912 -1.700441
-3.995147 7.632277 0.150370
-3.471944 6.635575 -1.728974
-3.995024 7.638528 0.451764
-4.004345 7.656351 -1.679501
-3.988569 7.629428 0.753200
-3.974234 7.605240 -1.359103
-4.008070 7.673253 1.062944
-4.060938 7.777773 -1.077325
-4.013207 7.689626 1.373808
-3.970336 7.607482 -0.750760
-3.980889 7.630949 1.673013
-3.971837 7.616839 -0.450194
-3.980340 7.636395 1.988117
-3.973097 7.625745 -0.150091
-3.976219 7.634989 2.306596
-2.925313 5.633868 -1.700959
-3.961114 7.631976 0.150091
-3.444272 6.639006 -1.726724
-3.960472 7.634007 0.450717
-3.971270 7.658081 -1.676829
-3.960081 7.639766 0.752851
-3.938572 7.601528 -1.355974
-3.962091 7.650179 1.057826
-4.026464 7.777797 -1.075375
-3.974065 7.676578 1.369115
-3.943755 7.621297 -0.750760
-3.942504 7.622128 1.668052
-3.950731 7.641301 -0.450822
-3.946500 7.636394 1.984518
-3.960638 7.663750 -0.150579
-3.947333 7.641266 2.304525
-2.907396 5.647481 -1.701994
-3.931205 7.636181 0.149916
-3.420459 6.646923 -1.725824
-3.926493 7.633576 0.449880
-3.940024 7.663168 -1.674922
-3.923373 7.634049 0.750934
-3.924184 7.635627 -1.359729
-3.922186 7.635026 1.053926
-3.997021 7.784044 -1.074400
-3.940026 7.676345 1.366612
-3.922586 7.645652 -0.751805
-3.910035 7.621187 1.664999
-3.911696 7.627704 -0.449252
-3.906933 7.621691 1.977320
-3.907419 7.625917 -0.149567
-3.915350 7.644682 2.301419
-2.887775 5.655370 -1.701476
-3.899073 7.639169 0.149707
-3.393692 6.651880 -1.724025
-3.895288 7.638338 0.449357
-3.911916 7.670944 -1.673777
-3.893509 7.638143 0.750062
-3.887639 7.629919 -1.356287
-3.893710 7.645131 1.053439
-3.943710 7.746646 -1.067332
-3.895290 7.654839 1.360354
-3.875526 7.616000 -0.747622
-3.879849 7.627789 1.663473
-3.870565 7.612824 -0.447577
-3.875010 7.624859 1.974620
-3.866287 7.610984 -0.149009
-3.884266 7.649692 2.298831
-2.858420 5.646456 -1.695783
-3.864259 7.636674 0.149393
-3.366052 6.654991 -1.721775
-3.864995 7.644760 0.448938
-3.877141 7.668784 -1.670342
-3.858737 7.635683 0.748493
-3.847620 7.616995 -1.351594
-3.861629 7.648045 1.051976
-3.912170 7.751505 -1.066113
-3.863206 7.657809 1.358477
-3.839044 7.609915 -0.745705
-3.842590 7.620250 1.658893
-3.837673 7.613805 -0.446844
-3.844861 7.631379 1.972821
-3.830700 7.606575 -0.148660
-3.844513 7.637320 2.291066
-2.839558 5.658126 -1.696300
-3.823231 7.621519 0.148834
-3.344549 6.670184 -1.722675
-3.829339 7.640349 0.447891
-3.840674 7.662964 -1.666144
-3.827596 7.640201 0.747622
-3.808628 7.605651 -1.347214
-3.836688 7.665028 1.052464
-3.875320 7.745585 -1.063432
-3.827617 7.653579 1.355348
-3.807112 7.612577 -0.744659
-3.808946 7.619568 1.655841
-3.804825 7.614647 -0.446112
-3.811235 7.630805 1.969222
-3.803233 7.618110 -0.148625
-3.811793 7.638592 2.287443
-2.818070 5.664544 -1.695265
-3.791259 7.624076 0.148625
-3.314308 6.667856 -1.719076
-3.799089 7.646515 0.447472
-3.810405 7.669291 -1.664618
-3.797357 7.646379 0.746925
-3.777666 7.610052 -1.345649
-3.803730 7.665927 1.050758
-3.849139 7.760845 -1.063676
-3.795615 7.656274 1.353471
-3.776093 7.616894 -0.743787
-3.778836 7.625782 1.654314
-3.769355 7.609986 -0.445065
-3.785441 7.645807 1.969671
-3.770407 7.618794 -0.148380
-3.780821 7.643194 2.284855
-2.796570 5.670882 -1.694230
-3.764625 7.637262 0.148625
-3.289288 6.675889 -1.718176
-3.765317 7.645395 0.446635
-3.778409 7.671979 -1.662328
-3.768885 7.656011 0.746576
-3.742355 7.605469 -1.342521
-3.783083 7.691626 1.052464
-3.813269 7.756418 -1.061238
-3.758410 7.648203 1.349717
-3.742450 7.615724 -0.742393
-3.750465 7.635401 1.653551
-3.739249 7.615926 -0.444646
-3.741556 7.623987 1.960673
-3.741149 7.626522 -0.148276
-3.748167 7.644202 2.281231
-2.776759 5.680609 -1.694230
-3.729165 7.632389 0.148276
-3.261687 6.678576 -1.715927
-3.728094 7.636954 0.445379
-3.738688 7.658656 -1.656604
-3.735149 7.654794 0.745182
-3.709721 7.606059 -1.340331
-3.753603 7.699430 1.051733
-3.775737 7.748266 -1.058313
-3.717848 7.632862 1.344711
-3.712351 7.621577 -0.741695
-3.717776 7.636089 1.650880
-3.710022 7.623543 -0.444332
-3.705542 7.617725 1.955724
-3.706637 7.623349 -0.147962
-3.715547 7.645077 2.277608
-2.750173 5.676359 -1.690088
-3.698141 7.636362 0.148101
-3.237507 6.688166 -1.715477
-3.701876 7.647477 0.445274
-3.709364 7.666358 -1.655459
-3.697994 7.646263 0.743090
-3.683150 7.618961 -1.340331
-3.722384 7.703551 1.050514
-3.750020 7.760746 -1.058313
-3.689081 7.638033 1.343459
-3.673599 7.609369 -0.739255
-3.682563 7.631339 1.647063
-3.676444 7.622056 -0.443495
-3.681955 7.633481 1.956624
-3.671781 7.615786 -0.147578
-3.685983 7.648654 2.275019
-2.728825 5.680223 -1.688535
-3.665874 7.634161 0.147822
-3.220371 6.709406 -1.718176
-3.672176 7.650707 0.444751
-3.677979 7.666226 -1.652788
-3.667451 7.647704 0.742044
-3.644204 7.602631 -1.335325
-3.690814 7.703319 1.048808
-3.713974 7.751656 -1.055389
-3.656055 7.634190 1.340644
-3.643185 7.610727 -0.738209
-3.652154 7.632883 1.644774
-3.642533 7.616188 -0.442448
-3.659145 7.650923 1.957974
-3.644783 7.624310 -0.147508
-3.658102 7.655606 2.273467
-2.709142 5.687498 -1.688018
-3.634518 7.633639 0.147578
-3.183870 6.690134 -1.710528
-3.637724 7.647248 0.443809
-3.650847 7.674835 -1.652024
-3.644634 7.665223 0.742567
-3.613883 7.603970 -1.333447
-3.661840 7.708345 1.047833
-3.681781 7.753815 -1.053926
-3.625994 7.639767 1.339392
-3.610236 7.606567 -0.736640
-3.616723 7.623667 1.640194
-3.609553 7.611984 -0.441506
-3.623233 7.644279 1.953025
-3.616432 7.633373 -0.147438
-3.621433 7.647378 2.267255
-2.687624 5.693426 -1.686983
-3.612972 7.657129 0.147787
-3.158002 6.695920 -1.709178
-3.608454 7.654478 0.443495
-3.617339 7.673325 -1.648971
-3.630596 7.704932 0.745182
-3.583953 7.609389 -1.332196
-3.656050 7.765981 1.053926
-3.642016 7.739675 -1.050270
-3.591739 7.636290 1.336576
-3.586208 7.624531 -0.737163
-3.589255 7.634469 1.639813
-3.582112 7.622729 -0.441401
-3.589072 7.641006 1.948976
-3.584668 7.635089 -0.147229
-3.586508 7.642485 2.262079
-2.671010 5.709771 -1.689053
-3.601469 7.702300 0.148415
-3.137083 6.712200 -1.710528
-3.608766 7.724932 0.446844
-3.582224 7.668117 -1.645155
-3.628123 7.769913 0.750237
-3.552355 7.611114 -1.330319
-3.638992 7.800282 1.056851
-3.634271 7.793722 -1.055876
-3.552541 7.621924 1.331883
-3.559082 7.639430 -0.737338
-3.556782 7.634493 1.637141
-3.553794 7.631567 -0.441192
-3.559087 7.646420 1.947176
-3.547030 7.623985 -0.146775
-3.558181 7.651453 2.261043
-2.640317 5.698489 -1.682842
-3.606505 7.783773 0.149742
-3.109540 6.714267 -1.708278
-3.611143 7.800921 0.450508
-3.545849 7.663378 -1.641339
-3.619694 7.826558 0.754420
-3.521121 7.616910 -1.329067
-3.613406 7.816542 1.057338
-3.560417 7.705446 -1.042227
-3.524260 7.630692 1.331257
-3.515690 7.615628 -0.733851
-3.520549 7.629652 1.633325
-3.518272 7.628217 -0.440250
-3.529408 7.655874 1.946277
-3.514534 7.623609 -0.146530
-3.521750 7.642773 2.254832
-2.620411 5.707670 -1.682842
-3.601306 7.847827 0.150719
-3.082472 6.720306 -1.706929
-3.612494 7.879462 0.454276
-3.515806 7.668571 -1.639813
-3.626385 7.913407 0.761567
-3.486283 7.611196 -1.325939
-3.583081 7.826122 1.056851
-3.553630 7.765375 -1.048564
-3.492158 7.634576 1.329693
-3.482453 7.613360 -0.732457
-3.480835 7.613326 1.627219
-3.486644 7.629551 -0.439622
-3.500231 7.662830 1.944927
-3.477434 7.616429 -0.146146
-3.486494 7.639812 2.250173
-2.598870 5.713266 -1.681806
-3.597062 7.911321 0.151696
-3.054965 6.722154 -1.704679
-3.614702 7.957489 0.458044
-3.484143 7.670072 -1.637523
-3.627567 7.989513 0.767668
-3.456430 7.616123 -1.324687
-3.554919 7.836774 1.056607
-3.468299 7.649370 -1.031259
-3.460596 7.635925 1.327816
-3.455035 7.623654 -0.732283
-3.455857 7.629007 1.627982
-3.449279 7.618024 -0.438261
-3.466232 7.659022 1.940878
-3.450000 7.626699 -0.146112
-3.454235 7.639613 2.246549
-2.576531 5.717019 -1.680253
-3.605564 8.004051 0.153232
-3.026682 6.722115 -1.701980
-3.614536 8.027708 0.461394
-3.457350 7.682187 -1.637523
-3.626631 8.062088 0.773420
-3.424155 7.615530 -1.322497
-3.532426 7.859999 1.058070
-3.467607 7.719373 -1.039058
-3.430400 7.636545 1.325939
-3.425956 7.630215 -0.731760
-3.424381 7.630279 1.625693
-3.416942 7.617262 -0.437529
-3.426721 7.642624 1.933679
-3.418146 7.623500 -0.145832
-3.430460 7.654552 2.247585
-2.558136 5.729505 -1.681289
-3.609168 8.083523 0.154524
-3.002784 6.728556 -1.701080
-3.613340 8.100470 0.464848
-3.420117 7.670899 -1.632562
-3.630095 8.145673 0.780218
-3.391643 7.610605 -1.319681
-3.510379 7.880737 1.059288
-3.441180 7.729018 -1.038814
-3.392477 7.623208 1.321558
-3.393631 7.629385 -0.730539
-3.392677 7.627241 1.622640
-3.391665 7.628551 -0.437529
-3.398982 7.648602 1.932330
-3.385018 7.620765 -0.145553
-3.397450 7.652354 2.243443
-2.530521 5.718525 -1.675595
-3.606003 8.152766 0.155606
-2.975341 6.730084 -1.698830
-3.620563 8.193415 0.469454
-3.386727 7.664239 -1.628746
-3.629628 8.217809 0.785971
-3.363463 7.618783 -1.319056
-3.487658 7.903839 1.060751
-3.400564 7.710106 -1.034671
-3.362660 7.627772 1.320307
-3.361353 7.628423 -0.729319
-3.359697 7.624666 1.619587
-3.358577 7.625720 -0.436691
-3.369909 7.655070 1.930980
-3.353562 7.621554 -0.145344
-3.362165 7.644714 2.237750
-2.511094 5.731300 -1.676630
-3.607213 8.233074 0.156897
-2.953395 6.743999 -1.699730
-3.607956 8.242597 0.471547
-3.353890 7.665809 -1.626456
-3.468567 7.931679 0.757383
-3.325229 7.607529 -1.314988
-3.465611 7.928699 1.062457
-3.385549 7.749216 -1.038327
-3.334435 7.635843 1.319681
-3.326735 7.621848 -0.727576
-3.325450 7.622531 1.616534
-3.332199 7.641641 -0.436901
-3.334819 7.651292 1.926931
-3.322944 7.624048 -0.145169
-3.329284 7.642235 2.233608
-2.487997 5.732942 -1.674559
-3.424225 7.894008 0.150195
-2.925555 6.747627 -1.697931
-3.422066 7.896578 0.451031
-3.327893 7.679271 -1.626837
-3.427394 7.912658 0.754420
-3.293946 7.608212 -1.313111
-3.432587 7.932238 1.061238
-3.358701 7.765215 -1.038814
-3.300152 7.633507 1.317178
-3.296408 7.628502 -0.727053
-3.294930 7.625082 1.614626
-3.293628 7.625722 -0.435331
-3.305776 7.657519 1.925581
-3.290227 7.625159 -0.144960
-3.301253 7.654385 2.233608
-2.464679 5.736699 -1.673006
-3.395858 7.904077 0.150161
-2.897371 6.747054 -1.695231
-3.289661 7.667963 -1.621876
-4.672761 10.897104 1.037328
-3.266040 7.620234 -1.313111
-3.408007 7.951468 1.062213
-3.322193 7.754997 -1.035890
-3.270374 7.637719 1.315927
-3.269758 7.639963 -0.727053
-3.269275 7.642522 1.615771
-3.261728 7.628561 -0.434807
-3.265432 7.640914 1.918383
-3.262802 7.634759 -0.144925
-3.268442 7.651651 2.229467
-2.450677 5.751094 -1.675077
-3.364743 7.899987 0.149881
-2.875395 6.754330 -1.694781
-6.058901 14.239312 0.810998
-3.259210 7.659624 -1.618060
-4.679393 11.002596 1.046043
-3.237231 7.615349 -1.310608
-3.387665 7.973099 1.063676
-3.283848 7.732506 -1.031502
-3.237103 7.626135 1.312172
-3.242405 7.638627 -0.726007
-3.242752 7.643152 1.613863
-3.237521 7.634528 -0.434598
-3.236664 7.636214 1.914783
-3.228661 7.621035 -0.144471
-3.239116 7.649428 2.225844
-2.420824 5.736475 -1.668348
-3.332484 7.900629 0.149672
-2.851045 6.762530 -1.694331
-6.010714 14.264056 0.811207
-3.230167 7.665525 -1.616915
-4.674215 11.097816 1.053539
-3.206795 7.617500 -1.309044
-3.369054 8.006832 1.066601
-3.236059 7.694515 -1.024921
-3.208930 7.633746 1.311547
-3.204139 7.622349 -0.723393
-3.213773 7.648995 1.612718
-3.204663 7.631051 -0.433760
-3.203199 7.631294 1.910734
-3.198946 7.624881 -0.144331
-3.203428 7.639311 2.219632
-2.400039 5.743108 -1.667830
-3.295635 7.890071 0.149253
-2.826669 6.770643 -1.693881
-5.995494 14.367896 0.815918
-3.200363 7.669508 -1.615389
-4.676094 11.211525 1.062777
-3.174106 7.614060 -1.306541
-3.339555 8.014878 1.066113
-3.228258 7.751577 -1.031015
-3.176192 7.630311 1.309044
-3.167763 7.613807 -0.721475
-3.178756 7.640227 1.608520
-3.176474 7.638501 -0.433551
-3.175795 7.640629 1.910284
