# This PCD file was generated using the MATLAB® pcwrite function
# from Computer Vision Toolbox®.
# .PCD v.7 - Point Cloud Data file format
VERSION .7
FIELDS x y z
SIZE 4 4 4
TYPE F F F
COUNT 1 1 1
WIDTH 1668
HEIGHT 1
VIEWPOINT 0 0 0 1 0 0 0
POINTS 1668
DATA ascii
-5.350080 7.657762 1.479557
-5.308295 7.597953 -0.810897
-5.326037 7.626184 1.808106
-5.309463 7.605278 -0.486096
-5.327514 7.633973 2.149183
-5.310993 7.613130 -0.162028
-5.331743 7.645718 2.497604
-3.708581 5.331975 -1.740299
-12.956480 18.634989 0.396170
-4.386409 6.311214 -1.774414
-5.480224 7.887945 0.503367
-5.283864 7.605314 -1.800092
-5.965556 8.589704 0.914961
-5.260872 7.577865 -1.461098
-5.284286 7.614427 1.138016
-5.332743 7.687115 -1.148741
-5.312062 7.660158 1.476429
-5.271523 7.601700 -0.809328
-5.284845 7.623752 1.803145
-5.264684 7.597499 -0.484422
-5.286410 7.631697 2.143334
-5.269589 7.610250 -0.161574
-5.292929 7.646809 2.491910
-3.682265 5.333759 -1.736676
-12.964039 18.785437 0.398404
-4.357714 6.316862 -1.771715
-5.435651 7.882362 0.501797
-5.248369 7.610781 -1.797039
-5.936665 8.612118 0.915135
-5.231027 7.591301 -1.460160
-5.246415 7.616477 1.135579
-5.327265 7.736749 -1.153372
-5.277452 7.667262 1.474239
-5.229143 7.597076 -0.806888
-5.247070 7.625980 1.799329
-5.224547 7.596083 -0.483166
-5.244282 7.627620 2.137035
-5.232796 7.613767 -0.161260
-5.256357 7.650909 2.487251
-3.667990 5.352956 -1.738746
-12.963933 18.926258 0.400428
-4.335636 6.332036 -1.771715
-5.396821 7.884809 0.500750
-5.201809 7.599895 -1.790170
-5.922318 8.655807 0.917576
-5.186652 7.583428 -1.455153
-5.213073 7.624914 1.134116
-5.286787 7.735630 -1.150447
-5.233939 7.661172 1.469545
-5.191351 7.598834 -0.805145
-5.209349 7.628035 1.795513
-5.193498 7.607675 -0.482747
-5.205541 7.628175 2.132086
-5.189285 7.607205 -0.160737
-5.219824 7.654844 2.482592
-3.644938 5.359336 -1.736676
-12.969748 19.077230 0.402662
-4.317889 6.353577 -1.773514
-8.713834 12.826826 0.812673
-5.163116 7.600142 -1.785972
-5.936842 8.742356 0.924548
-5.152381 7.590047 -1.452963
-5.170822 7.620067 1.130704
-5.224095 7.701466 -1.142647
-5.198294 7.666317 1.467043
-5.151375 7.597122 -0.803053
-5.170575 7.628295 1.791315
-5.155708 7.609221 -0.481700
-5.169044 7.631779 2.128037
-5.151490 7.608714 -0.160388
-5.167087 7.634620 2.470169
-3.620803 5.364021 -1.734088
-12.970181 19.221849 0.404756
-4.289145 6.358919 -1.770815
-8.711433 12.920095 0.816650
-5.123381 7.598586 -1.781393
-5.941921 8.815897 0.930126
-5.114820 7.591603 -1.449835
-5.133100 7.621606 1.128266
-5.196069 7.718009 -1.142403
-5.157166 7.663110 1.462975
-5.117039 7.603486 -0.801833
-5.121997 7.613720 1.783683
-5.115739 7.607285 -0.480444
-5.133677 7.636836 2.124438
-5.111514 7.606734 -0.159969
-5.132864 7.641386 2.466546
-3.602058 5.376627 -1.734088
-12.964209 19.358387 0.406676
-4.256082 6.357657 -1.766316
-8.717430 13.021936 0.821256
-5.088093 7.603369 -1.778340
-5.904467 8.826647 0.929080
-5.072918 7.586421 -1.445455
-5.093228 7.619672 1.125342
-5.140424 7.693184 -1.136066
-5.124045 7.668671 1.460785
-5.078296 7.603075 -0.799915
-5.081218 7.610326 1.778722
-5.078068 7.608483 -0.479397
-5.094011 7.635256 2.119039
-5.075165 7.607007 -0.159620
-5.098922 7.645506 2.462405
-3.582200 5.387558 -1.733570
-12.966379 19.501181 0.408770
-4.228502 6.361999 -1.763616
-8.709497 13.108850 0.824815
-5.052834 7.608000 -1.775287
-5.803090 8.740973 0.917924
-5.035712 7.585099 -1.442013
-5.054758 7.616672 1.122417
-5.061114 7.629132 -1.124123
-5.090693 7.676635 1.458908
-5.045118 7.610793 -0.798869
-5.046189 7.612409 1.775287
-5.037362 7.601973 -0.477932
-5.056824 7.634236 2.114090
-5.039746 7.611339 -0.159340
-5.061538 7.647150 2.457228
-3.563248 5.397796 -1.733052
-12.973116 19.659822 0.411144
-4.208416 6.379973 -1.764516
-8.710965 13.210869 0.829316
-5.012444 7.601768 -1.769944
-5.730215 8.693625 0.910952
-5.000512 7.589435 -1.439510
-5.017223 7.617692 1.119979
-5.075932 7.709758 -1.133385
-5.047577 7.669606 1.454215
-5.012186 7.615829 -0.797649
-5.008797 7.613574 1.771471
-5.000921 7.604491 -0.476990
-5.014089 7.627415 2.107341
-4.996676 7.603816 -0.158817
-5.019967 7.642166 2.449981
-3.535917 5.397274 -1.728911
-12.972330 19.808712 0.413308
-4.188256 6.397884 -1.765416
-8.719481 13.324756 0.834549
-4.979430 7.609362 -1.767655
-5.675837 8.676895 0.907117
-4.958856 7.583696 -1.435130
-4.984083 7.625190 1.118517
-5.042471 7.717460 -1.131922
-5.012135 7.673946 1.451712
-4.965961 7.603252 -0.794512
-4.976821 7.622792 1.769563
-4.964519 7.606848 -0.476048
-4.977852 7.630180 2.103292
-4.964639 7.612837 -0.158642
-4.978488 7.636986 2.442734
-3.516001 5.407965 -1.728394
-12.970671 19.957825 0.415472
-4.168019 6.415735 -1.766316
-8.716425 13.422115 0.838736
-4.945351 7.615172 -1.764983
-5.635752 8.681613 0.905548
-4.920523 7.582733 -1.431688
-4.949875 7.630883 1.116811
-4.977704 7.676717 -1.123392
-4.973496 7.673162 1.448270
-4.924218 7.597135 -0.792071
-4.934172 7.615403 1.763838
-4.928165 7.609043 -0.475106
-4.945890 7.639332 2.101043
-4.927173 7.613333 -0.158293
-4.941308 7.638096 2.437558
-3.493961 5.415334 -1.726841
-12.969212 20.108849 0.417671
-4.133985 6.412227 -1.761367
-8.721456 13.533042 0.843760
-4.910233 7.619184 -1.761930
-5.592466 8.681131 0.903456
-4.882258 7.581595 -1.428247
-4.906019 7.621406 1.112911
-4.953026 7.697383 -1.123879
-4.931719 7.667219 1.443890
-4.897667 7.614279 -0.792071
-4.902248 7.624324 1.761930
-4.888618 7.606037 -0.473850
-4.913926 7.648354 2.098794
-4.891920 7.617026 -0.158014
-4.906268 7.642292 2.433417
-3.475035 5.427498 -1.726841
-12.970081 20.265163 0.419975
-4.102124 6.411846 -1.757318
-8.719354 13.634073 0.848157
-4.878316 7.628010 -1.760022
-5.556762 8.692208 0.902585
-4.849382 7.588602 -1.426370
-4.862285 7.611720 1.109011
-4.935741 7.729685 -1.126073
-4.899613 7.676060 1.442326
-4.854980 7.606135 -0.789457
-4.860822 7.618219 1.756588
-4.854518 7.611269 -0.473117
-4.865200 7.630952 2.089345
-4.857780 7.622249 -0.157770
-4.871256 7.646338 2.429276
-3.456070 5.439595 -1.726841
-13.004331 20.475735 0.423395
-4.085985 6.435996 -1.760017
-8.719871 13.740311 0.852867
-4.831674 7.613496 -1.752772
-5.519981 8.701459 0.901539
-4.816518 7.595474 -1.424492
-4.827185 7.615232 1.107061
-4.910851 7.750221 -1.126560
-4.854822 7.664746 1.437007
-4.820940 7.611253 -0.788237
-4.828950 7.626845 1.754680
-4.815101 7.607917 -0.471861
-4.826032 7.628126 2.083947
-4.812975 7.610428 -0.157176
-4.833179 7.645335 2.423582
-3.432941 5.445088 -1.724770
-11.546738 18.321726 0.378019
-4.060376 6.445274 -1.758667
-8.720030 13.841817 0.857368
-4.802977 7.626992 -1.752008
-5.476839 8.700439 0.899447
-4.780506 7.597195 -1.421677
-4.793173 7.620275 1.105355
-4.857354 7.725303 -1.120467
-4.820963 7.667426 1.434504
-4.779497 7.604421 -0.785796
-4.791852 7.627032 1.750863
-4.783206 7.616221 -0.471338
-4.795228 7.638324 2.082147
-4.777077 7.609411 -0.156827
-4.790344 7.633502 2.414782
-3.412887 5.455401 -1.724252
-11.532586 18.434505 0.379555
-4.038982 6.458703 -1.758667
-8.719303 13.948380 0.862078
-4.761757 7.620403 -1.746666
-5.473880 8.763438 0.903979
-4.739590 7.587873 -1.416984
-4.763673 7.629392 1.104380
-4.814894 7.714423 -1.116567
-4.785807 7.670799 1.432001
-4.741327 7.602460 -0.783879
-4.749911 7.616226 1.744758
-4.746302 7.613396 -0.470186
-4.755445 7.631028 2.075848
-4.744140 7.615857 -0.156618
-4.757544 7.640337 2.411676
-3.395798 5.468329 -1.724770
-11.518785 18.556202 0.381230
-4.002029 6.449579 -1.752369
-8.727414 14.070383 0.867730
-4.729219 7.624472 -1.743994
-5.448987 8.788318 0.904677
-4.705792 7.592618 -1.414793
-4.724464 7.625725 1.101455
-4.785844 7.727809 -1.116079
-4.748602 7.670663 1.428873
-4.705601 7.601202 -0.782136
-4.711932 7.614397 1.740560
-4.703935 7.604441 -0.468616
-4.722628 7.637638 2.073149
-4.703861 7.610257 -0.156164
-4.718657 7.637176 2.405464
-3.368580 5.466992 -1.720629
-11.518966 18.701859 0.383394
-3.985620 6.473467 -1.755068
-8.718022 14.165399 0.871708
-4.692284 7.624215 -1.740178
-4.839911 7.867161 0.808108
-4.672015 7.597220 -1.412603
-4.684304 7.620184 1.098287
-4.741173 7.715715 -1.111936
-4.713527 7.673725 1.426370
-4.675912 7.612487 -0.781613
-4.675053 7.614067 1.736744
-4.666915 7.603790 -0.467569
-4.678615 7.625837 2.065500
-4.672042 7.618107 -0.155990
-4.689952 7.650306 2.404429
-3.353508 5.485310 -1.722700
-11.516182 18.844330 0.385489
-3.956902 6.477364 -1.752369
-8.718482 14.277568 0.876732
-4.650292 7.615415 -1.734454
-4.818650 7.894210 0.809154
-4.634147 7.594934 -1.409162
-4.652506 7.628017 1.097068
-4.708014 7.722047 -1.110474
-4.671290 7.664832 1.421677
-4.638940 7.611750 -0.779870
-4.640273 7.616928 1.733691
-4.634115 7.609800 -0.466941
-4.645886 7.632136 2.062801
-4.632946 7.613871 -0.155571
-4.655189 7.653425 2.400288
-3.322316 5.477163 -1.716488
-11.523941 19.005821 0.387967
-3.938309 6.497801 -1.754168
-8.724481 14.400156 0.882384
-4.618597 7.623206 -1.732546
-4.771452 7.878603 0.805842
-4.599425 7.597544 -1.406659
-4.616603 7.628925 1.094874
-4.667671 7.716354 -1.107305
-4.637353 7.669256 1.419487
-4.602035 7.610847 -0.778126
-4.605534 7.619637 1.730638
-4.600291 7.613964 -0.466209
-4.612166 7.636629 2.059652
-4.598073 7.616300 -0.155292
-4.610476 7.639857 2.390970
-3.302182 5.487070 -1.715970
-11.516279 19.143606 0.389957
-3.911588 6.504828 -1.752369
-7.497029 12.472214 0.762640
-4.588925 7.634232 -1.731401
-4.732632 7.876426 0.803925
-4.560673 7.593231 -1.402904
-4.581772 7.631377 1.092924
-4.636619 7.725793 -1.106330
-4.602427 7.671845 1.416984
-4.565192 7.609778 -0.776383
-4.564775 7.612093 1.725295
-4.566494 7.617985 -0.465476
-4.577469 7.639308 2.056053
-4.565293 7.622012 -0.155082
-4.574847 7.640987 2.386312
-3.283010 5.498563 -1.715970
-11.517029 19.297016 0.392260
-3.878872 6.501708 -1.747870
-7.467772 12.522321 0.764105
-4.551189 7.631654 -1.727203
-4.694909 7.875783 0.802181
-4.524026 7.592136 -1.399776
-4.537834 7.618331 1.088781
-4.587282 7.704406 -1.100968
-4.567534 7.674286 1.414481
-4.531466 7.613684 -0.775163
-4.536165 7.624608 1.724532
-4.530689 7.618428 -0.464534
-4.538824 7.635139 2.050654
-4.528445 7.620709 -0.154733
-4.542229 7.646944 2.383206
-3.260817 5.502772 -1.713900
-11.526355 19.458977 0.394773
-3.854313 6.509504 -1.746520
-7.441462 12.572801 0.765675
-4.523855 7.643327 -1.726440
-4.663695 7.882734 0.801310
-4.490782 7.593493 -1.397273
-4.502445 7.616249 1.086343
-4.576858 7.745209 -1.104624
-4.534024 7.675782 1.411978
-4.494035 7.608084 -0.773071
-4.496883 7.615940 1.719189
-4.491189 7.609330 -0.463069
-4.501598 7.630007 2.045255
-4.496036 7.623628 -0.154489
-4.507037 7.645321 2.378030
-3.243548 5.517452 -1.714935
-11.528260 19.618055 0.397182
-3.833540 6.526280 -1.747420
-7.427864 12.650371 0.768815
-4.488198 7.643836 -1.723005
-4.630098 7.888657 0.800264
-4.458249 7.598902 -1.395396
-4.465787 7.614796 1.083906
-4.536741 7.738877 -1.101455
-4.491221 7.664294 1.406972
-4.459389 7.609972 -0.771677
-4.463323 7.619733 1.716518
-4.462580 7.621515 -0.462859
-4.462139 7.623812 2.039406
-4.456272 7.616837 -0.154035
-4.468617 7.640997 2.371818
-3.223294 5.527072 -1.714417
-11.528196 19.775650 0.399555
-3.805831 6.531202 -1.745170
-7.428109 12.747409 0.773212
-4.449633 7.639098 -1.718426
-4.591507 7.885830 0.798347
-4.426730 7.605881 -1.393831
-4.434191 7.621758 1.082687
-4.504067 7.741867 -1.099749
-4.457839 7.665484 1.404469
-4.418782 7.601376 -0.769237
-4.427823 7.619989 1.713083
-4.428928 7.624955 -0.462127
-4.429982 7.626770 2.036257
-4.419946 7.612549 -0.153651
-4.430649 7.634052 2.365088
-3.199143 5.527698 -1.711312
-11.525635 19.922821 0.401754
-3.783178 6.542099 -1.744720
-7.433791 12.854961 0.778236
-4.416414 7.640215 -1.715373
-4.560345 7.892388 0.797475
-4.385677 7.593148 -1.388825
-4.402934 7.626108 1.081225
-4.472412 7.746447 -1.098287
-4.425481 7.668250 1.402279
-4.384592 7.600455 -0.767668
-4.395662 7.622726 1.710412
-4.392645 7.620567 -0.460975
-4.410504 7.651550 2.038956
-4.385694 7.611569 -0.153337
-4.408200 7.653726 2.366641
-3.179831 5.536602 -1.710794
-4.512119 7.859508 0.158189
-3.755641 6.544468 -1.742021
-4.517795 7.875759 0.475839
-4.387148 7.648006 -1.713846
-4.531176 7.902281 0.796952
-4.351630 7.592227 -1.386010
-4.369727 7.626885 1.079275
-4.436468 7.746507 -1.096093
-4.393781 7.675078 1.400714
-4.361341 7.618412 -0.768016
-4.351835 7.604884 1.703161
-4.354460 7.612553 -0.459614
-4.363457 7.631371 2.029508
-4.356119 7.621625 -0.153232
-4.365167 7.640550 2.357842
-3.161440 5.549347 -1.711312
-4.495544 7.894323 0.158573
-3.729883 6.552456 -1.740671
-4.487310 7.886274 0.475525
-4.348772 7.642797 -1.709267
-5.959444 10.477734 1.054585
-4.322175 7.602218 -1.385071
-4.331306 7.621384 1.076350
-4.405480 7.755041 -1.095118
-4.355259 7.669754 1.396960
-4.318983 7.605869 -0.765227
-4.318476 7.608078 1.700490
-4.318992 7.612072 -0.458672
-4.321411 7.619434 2.022310
-4.322582 7.624608 -0.152988
-4.328947 7.638932 2.352665
-3.139200 5.555303 -1.709759
-4.306667 7.624423 0.152848
-3.705070 6.562043 -1.739771
-4.299743 7.618374 0.458463
-4.305664 7.628865 -1.702780
-4.304576 7.630048 0.766448
-4.282995 7.594891 -1.381004
-4.301754 7.631268 1.075619
-4.386177 7.784209 -1.097068
-4.318765 7.667700 1.393831
-4.295338 7.626107 -0.765750
-4.290931 7.621395 1.700108
-4.292392 7.627103 -0.458672
-4.286187 7.619187 2.018261
-4.278300 7.608274 -0.152360
-4.291841 7.635474 2.346971
-3.116013 5.559485 -1.707688
-4.272209 7.625453 0.152569
-3.675477 6.563034 -1.736622
-4.267272 7.622879 0.457835
-4.270379 7.628429 -1.699345
-4.266243 7.624162 0.764356
-4.253567 7.604623 -1.380065
-4.267341 7.632375 1.073669
-4.324116 7.737089 -1.088293
-4.288121 7.675829 1.392580
-4.249259 7.606265 -0.762264
-4.257603 7.624327 1.697437
-4.249191 7.612392 -0.456893
-4.253870 7.623891 2.015561
-4.247821 7.616175 -0.152220
-4.254812 7.631849 2.341277
-3.094708 5.566952 -1.706653
-4.234883 7.621091 0.152185
-3.655383 6.580935 -1.737972
-4.240635 7.637729 0.457835
-4.238004 7.632991 -1.697055
-4.235734 7.632040 0.763659
-4.210702 7.590060 -1.374746
-4.232969 7.633337 1.071719
-4.299967 7.757346 -1.089025
-4.250768 7.671745 1.389138
-4.246448 7.667106 -0.766796
-4.217643 7.615098 1.692094
-4.212921 7.609704 -0.455846
-4.222511 7.630169 2.013312
-4.213465 7.616960 -0.151941
-4.223474 7.638200 2.338689
-3.076150 5.581640 -1.707688
-4.199565 7.620065 0.151871
-3.630510 6.590240 -1.737072
-4.207206 7.640238 0.457102
-4.209054 7.646752 -1.696674
-4.201972 7.637039 0.762613
-4.173338 7.588132 -1.371618
-4.192907 7.623714 1.068307
-4.269039 7.765349 -1.088050
-4.212548 7.665761 1.385384
-4.199517 7.645209 -0.763136
-4.184982 7.621901 1.690186
-4.169628 7.597080 -0.454171
-4.189828 7.637053 2.011062
-4.180116 7.619350 -0.151696
-4.192143 7.644426 2.336101
-3.058499 5.595735 -1.708723
-4.164898 7.623122 0.151627
-3.602592 6.596663 -1.735272
-4.169022 7.633843 0.455846
-4.173869 7.645891 -1.693239
-4.170517 7.642915 0.761741
-4.143039 7.595718 -1.370366
-4.157332 7.625089 1.066357
-4.236203 7.769747 -1.086587
-4.181984 7.673481 1.384132
-4.165177 7.645826 -0.761741
-4.150838 7.622669 1.687133
-4.137356 7.601061 -0.453543
-4.149578 7.623516 2.003864
-4.146806 7.621598 -0.151452
-4.154356 7.638649 2.329889
-3.035323 5.597355 -1.706135
-4.132924 7.624586 0.151382
-3.578842 6.605145 -1.734373
-4.137025 7.635333 0.455114
-4.140078 7.644151 -1.689804
-4.137559 7.642686 0.760347
-4.114069 7.602465 -1.369115
-4.125414 7.626609 1.064651
-4.204749 7.773275 -1.085125
-4.147117 7.669930 1.381004
-4.112329 7.608765 -0.756686
-4.117140 7.620846 1.683699
-4.106431 7.604197 -0.452915
-4.116865 7.623518 2.000265
-4.108212 7.610672 -0.150963
-4.124416 7.643882 2.327301
-3.009421 5.593781 -1.701994
-4.100041 7.624158 0.151103
-3.555075 6.613543 -1.733473
-4.101838 7.633894 0.454171
-4.109129 7.647464 -1.687515
-4.097111 7.628281 0.757558
-4.085100 7.609104 -1.367863
-4.094467 7.629754 1.063188
-4.166330 7.766912 -1.082200
-4.109119 7.663469 1.377249
-4.074448 7.602001 -0.754594
-4.090917 7.632728 1.683317
-4.079308 7.614250 -0.452706
-4.082868 7.624100 1.996666
-4.076900 7.616150 -0.150789
-4.084036 7.632683 2.319536
-2.991627 5.609886 -1.703547
-4.066814 7.626074 0.150859
-3.531966 6.625913 -1.733473
-4.070471 7.639352 0.453648
-4.080150 7.660739 -1.687133
-4.063504 7.632695 0.756512
-4.042334 7.596126 -1.362857
-4.061282 7.631732 1.061482
-4.139192 7.781409 -1.082200
-4.076777 7.667302 1.375372
-4.035733 7.593305 -0.752328
-4.044494 7.612994 1.675685
-4.043877 7.615040 -0.451869
-4.053071 7.635571 1.995766
-4.043729 7.617971 -0.150544
-4.055559 7.643478 2.318501
-2.970222 5.616879 -1.702512
-4.028559 7.621480 0.150475
-3.496734 6.618137 -1.728074
-4.034051 7.638324 0.452706
-4.043301 7.655838 -1.682935
-4.033118 7.639785 0.755815
-4.008420 7.596211 -1.360354
-4.024950 7.630764 1.059288
-4.101388 7.778968 -1.079762
-4.043124 7.671706 1.373495
-4.002702 7.595007 -0.751108
-4.018807 7.628803 1.676066
-4.004241 7.604369 -0.450403
-4.036378 7.668639 2.000715
-4.006467 7.615045 -0.150195
-4.033809 7.670261 2.322124
-2.951492 5.628924 -1.703029
-4.001928 7.635498 0.150475
-3.471801 6.626851 -1.727174
-3.993464 7.625821 0.451136
-4.011997 7.661210 -1.681027
-3.996259 7.634400 0.753897
-3.981878 7.610158 -1.360354
-4.004727 7.657081 1.060995
-4.069608 7.784442 -1.078544
-4.015403 7.684023 1.373182
-3.973396 7.603637 -0.750585
-3.987610 7.634084 1.674158
-3.973976 7.611217 -0.449985
-3.984338 7.634310 1.988117
-3.978013 7.625436 -0.150126
-3.983788 7.639758 2.308666
-2.931827 5.639192 -1.703029
-3.971564 7.642322 0.150335
-3.449547 6.640658 -1.727624
-3.964472 7.631931 0.450717
-3.975279 7.656000 -1.676829
-3.967752 7.644765 0.753549
-3.947100 7.608232 -1.357538
-3.973407 7.662202 1.059776
-4.025055 7.765114 -1.073913
-3.977174 7.672742 1.368802
-3.948661 7.621000 -0.750934
-3.950105 7.627036 1.669579
-3.949221 7.628589 -0.450194
-3.945124 7.623943 1.981819
-3.956379 7.645692 -0.150265
-3.954884 7.646062 2.306596
-2.904157 5.633938 -1.698371
-3.939784 7.643009 0.150091
-3.425724 6.648596 -1.726724
-3.935977 7.642173 0.450508
-3.938644 7.650631 -1.672632
-3.930104 7.637309 0.751457
-3.926373 7.630059 -1.359103
-3.931630 7.643562 1.055389
-4.006542 7.792543 -1.075863
-3.934116 7.654953 1.363170
-3.926589 7.643597 -0.751805
-3.913127 7.617392 1.664618
-3.922076 7.638092 -0.449985
-3.916263 7.630047 1.980019
-3.909585 7.620312 -0.149497
-3.916708 7.637475 2.299866
-2.884580 5.641817 -1.697853
-3.898522 7.628224 0.149532
-3.401606 6.658779 -1.726274
-3.905163 7.644510 0.449880
-3.913253 7.663649 -1.672632
-3.899320 7.639654 0.750411
-3.891634 7.627882 -1.356287
-3.901320 7.650166 1.054414
-3.932439 7.714514 -1.063188
-3.903325 7.657399 1.361293
-3.874991 7.605094 -0.746750
-3.879387 7.617009 1.661565
-3.877270 7.616138 -0.447891
-3.882536 7.629776 1.976420
-3.877947 7.620758 -0.149253
-3.885230 7.638367 2.296243
-2.867490 5.657021 -1.699406
-3.866877 7.628624 0.149288
-3.370700 6.652638 -1.721775
-3.871233 7.643842 0.449043
-3.883820 7.672007 -1.671487
-3.864534 7.637217 0.748842
-3.847589 7.603730 -1.349717
-3.866967 7.645347 1.051976
-3.931911 7.777117 -1.070013
-3.868554 7.655108 1.358477
-3.846622 7.615018 -0.746402
-3.850564 7.622824 1.660038
-3.839387 7.603994 -0.446426
-3.851943 7.632171 1.973721
-3.843214 7.618181 -0.148939
-3.855932 7.646708 2.294690
-2.848713 5.666499 -1.699406
-3.833040 7.627782 0.149009
-3.342207 6.653915 -1.719076
-3.836464 7.641243 0.448101
-3.848665 7.665545 -1.667289
-3.840972 7.653553 0.749191
-3.815707 7.606521 -1.347839
-3.838479 7.655249 1.051489
-3.883395 7.748201 -1.064163
-3.832960 7.650906 1.355348
-3.817780 7.620605 -0.745705
-3.814264 7.616907 1.655841
-3.808352 7.608418 -0.445902
-3.820048 7.635113 1.971021
-3.816600 7.631549 -0.148939
-3.821444 7.644568 2.290031
-2.827194 5.672950 -1.698371
-3.803717 7.635745 0.148904
-3.318959 6.665542 -1.719076
-3.802650 7.640284 0.447263
-3.807889 7.650810 -1.661183
-3.805360 7.649075 0.747448
-3.782094 7.605646 -1.345337
-3.809968 7.665045 1.051001
-3.853673 7.756378 -1.063432
-3.797441 7.646548 1.352220
-3.785836 7.623180 -0.744659
-3.783290 7.621381 1.653932
-3.778218 7.614510 -0.445484
-3.785579 7.632690 1.966972
-3.776617 7.617950 -0.148415
-3.790445 7.649208 2.287443
-2.797105 5.662000 -1.692159
-3.768184 7.631046 0.148555
-3.297398 6.680582 -1.719976
-3.774188 7.649930 0.447054
-3.778552 7.658775 -1.660038
-3.767178 7.639082 0.745182
-3.755524 7.618801 -1.345337
-3.786696 7.685421 1.051976
-3.813421 7.743069 -1.059776
-3.762004 7.642033 1.349091
-3.748646 7.614897 -0.742567
-3.754927 7.631019 1.653169
-3.746328 7.616897 -0.444856
-3.750316 7.628368 1.962473
-3.744708 7.620320 -0.148206
-3.755206 7.645052 2.282267
-2.777325 5.671729 -1.692159
-3.734493 7.629784 0.148276
-3.271490 6.686799 -1.718626
-3.742199 7.652291 0.446426
-3.744034 7.656044 -1.656604
-3.741366 7.653974 0.745356
-3.715033 7.603466 -1.340331
-3.759844 7.698594 1.051976
-3.778533 7.740277 -1.057582
-3.730109 7.644466 1.347214
-3.712432 7.608239 -0.740649
-3.717938 7.622906 1.648590
-3.717093 7.624542 -0.444542
-3.718546 7.630902 1.959774
-3.716332 7.629751 -0.148136
-3.720042 7.640743 2.277090
-2.757509 5.681390 -1.692159
-3.704344 7.635579 0.148136
-3.239628 6.680643 -1.714127
-3.711575 7.653875 0.445798
-3.713003 7.660234 -1.654696
-3.705937 7.649059 0.743613
-3.681579 7.602164 -1.337828
-3.731220 7.708097 1.051489
-3.752354 7.755208 -1.057826
-3.696993 7.640791 1.344398
-3.682380 7.613978 -0.739952
-3.684472 7.621696 1.645537
-3.683502 7.623086 -0.443704
-3.687646 7.635062 1.957524
-3.682315 7.624024 -0.147787
-3.692162 7.647819 2.275537
-2.735149 5.685757 -1.690606
-3.672069 7.633402 0.147857
-3.215765 6.687838 -1.713227
-3.668395 7.632583 0.443809
-3.683692 7.667838 -1.653551
-3.676629 7.656559 0.743090
-3.652931 7.607208 -1.336576
-3.691896 7.691793 1.047589
-3.721466 7.756868 -1.056364
-3.663468 7.639399 1.341895
-3.651476 7.617802 -0.739081
-3.657482 7.630332 1.644774
-3.653027 7.624450 -0.443076
-3.660625 7.643733 1.956624
-3.653955 7.633224 -0.147717
-3.667113 7.664145 2.276572
-2.717941 5.698284 -1.691641
-3.641097 7.637151 0.147682
-3.191564 6.697261 -1.712777
-3.636574 7.634523 0.443181
-3.648111 7.658743 -1.648971
-3.646934 7.659716 0.742218
-3.622960 7.612777 -1.335325
-3.665875 7.706427 1.047833
-3.688398 7.757264 -1.054657
-3.624906 7.627163 1.337515
-3.619731 7.619704 -0.738035
-3.625768 7.632412 1.642484
-3.615251 7.613702 -0.441716
-3.622221 7.631817 1.950326
-3.616143 7.622447 -0.147263
-3.627092 7.648972 2.268290
-2.687961 5.688994 -1.685947
-3.617834 7.657044 0.147822
-3.165668 6.703076 -1.711428
-3.616725 7.661619 0.444018
-3.616666 7.664960 -1.647445
-3.625636 7.687447 0.743613
-3.591663 7.618858 -1.334073
-3.662655 7.769452 1.054657
-3.657914 7.762908 -1.053682
-3.589845 7.621898 1.334386
-3.586323 7.617871 -0.736640
-3.596099 7.642097 1.641721
-3.593273 7.639551 -0.442448
-3.593397 7.643279 1.949876
-3.580156 7.615115 -0.146879
-3.589690 7.638856 2.261561
-2.663172 5.687843 -1.682842
-3.597373 7.686555 0.148136
-3.144383 6.721694 -1.713227
-3.611462 7.723672 0.446844
-3.586564 7.670423 -1.645918
-3.624930 7.756011 0.749016
-3.553342 7.606292 -1.329693
-3.638351 7.791819 1.055876
-3.640350 7.799648 -1.056851
-3.557711 7.626053 1.332822
-3.558870 7.628537 -0.736466
-3.562762 7.640369 1.638668
-3.559832 7.637567 -0.441611
-3.564228 7.650476 1.948526
-3.553908 7.631811 -0.146949
-3.558406 7.644957 2.259490
-2.644926 5.700611 -1.683877
-3.597443 7.757115 0.149253
-3.109425 6.707878 -1.706929
-3.612186 7.796035 0.450299
-3.555638 7.673990 -1.644010
-3.623791 7.824661 0.754420
-3.523449 7.611480 -1.328442
-3.612799 7.808072 1.056364
-3.588938 7.760057 -1.049783
-3.529410 7.634841 1.332196
-3.519677 7.613786 -0.733851
-3.519602 7.617115 1.631035
-3.520590 7.622746 -0.440041
-3.538316 7.664641 1.948976
-3.522221 7.633275 -0.146740
-3.528463 7.650312 2.257420
-2.628240 5.716829 -1.685947
-3.603744 7.842307 0.150649
-3.084363 6.715149 -1.706029
-3.609654 7.858791 0.453229
-3.524735 7.677433 -1.642102
-3.628865 7.907885 0.761218
-3.493562 7.616551 -1.327190
-3.585524 7.820635 1.056364
-3.543636 7.732835 -1.044420
-3.495844 7.628543 1.329067
-3.491417 7.622405 -0.733503
-3.495446 7.634709 1.632180
-3.487313 7.620460 -0.439203
-3.505864 7.664541 1.945827
-3.490232 7.630367 -0.146461
-3.496650 7.647916 2.253279
-2.605064 5.718937 -1.683877
-3.602584 7.908808 0.151696
-3.059656 6.720019 -1.704679
-3.611984 7.936785 0.456998
-3.486532 7.664671 -1.636760
-3.632575 7.989426 0.767842
-3.466652 7.624498 -1.326564
-3.563674 7.841520 1.057582
-3.472817 7.645139 -1.031015
-3.463476 7.628110 1.326877
-3.463967 7.632730 -0.733328
-3.457936 7.619442 1.626456
-3.457896 7.622889 -0.438680
-3.466749 7.645952 1.938178
-3.452847 7.618824 -0.146007
-3.469133 7.658317 2.252761
-2.579726 5.713459 -1.679736
-3.604570 7.986951 0.152953
-3.032176 6.721776 -1.702430
-3.613813 8.014891 0.460766
-3.454642 7.661873 -1.633707
-3.624890 8.043204 0.771851
-3.432716 7.620342 -1.323749
-3.537912 7.857531 1.058070
-3.476254 7.724193 -1.040033
-3.431967 7.629344 1.325000
-3.429647 7.624187 -0.731411
-3.428100 7.624304 1.624930
-3.427175 7.625804 -0.438157
-3.436846 7.650896 1.936379
-3.416404 7.608939 -0.145588
-3.429722 7.642180 2.244479
-2.562921 5.729483 -1.681806
-3.606054 8.065203 0.154209
-3.007897 6.730541 -1.701980
-3.615137 8.093107 0.464534
-3.425472 7.668509 -1.632562
-3.630098 8.130400 0.778998
-3.394822 7.607024 -1.319368
-3.516930 7.884336 1.060020
-3.451694 7.741720 -1.040764
-3.403705 7.637670 1.324374
-3.398956 7.627014 -0.730539
-3.394273 7.620083 1.621495
-3.394033 7.623124 -0.437319
-3.406948 7.655725 1.934579
-3.384944 7.609857 -0.145379
-3.400672 7.648808 2.242926
-2.536645 5.724264 -1.677665
-3.602172 8.132593 0.155257
-2.978075 6.726743 -1.698380
-3.620003 8.180559 0.468826
-3.393123 7.667852 -1.629891
-3.633125 8.214086 0.785796
-3.364256 7.609794 -1.317804
-3.489388 7.896564 1.060020
-3.417433 7.737378 -1.038571
-3.370643 7.635046 1.321871
-3.369095 7.631541 -0.729842
-3.364485 7.624700 1.619969
-3.361763 7.622133 -0.436587
-3.371557 7.647955 1.929630
-3.358358 7.621627 -0.145379
-3.370060 7.651792 2.240338
-2.518203 5.736621 -1.678700
-3.609915 8.227522 0.156827
-2.951447 6.729959 -1.696581
-3.617082 8.251682 0.472175
-3.365546 7.677851 -1.629509
-3.502883 7.994954 0.763659
-3.332920 7.610634 -1.315927
-3.467374 7.921428 1.061726
-3.383240 7.732893 -1.036377
-3.342389 7.643145 1.321246
-3.340042 7.637777 -0.729319
-3.329984 7.618409 1.616152
-3.329537 7.621010 -0.435854
-3.339383 7.647175 1.926481
-3.330135 7.629637 -0.145309
-3.340238 7.656427 2.238267
-2.498932 5.747149 -1.679218
-3.436909 7.908122 0.150510
-2.928711 6.742008 -1.697031
-3.426782 7.892356 0.450927
-3.328562 7.666141 -1.624548
-3.434504 7.913920 0.754769
-3.302401 7.613161 -1.314363
-3.444441 7.944409 1.063188
-3.368857 7.773797 -1.040277
-3.304695 7.629389 1.316865
-3.307024 7.634764 -0.727925
-3.302592 7.628184 1.615771
-3.302123 7.630753 -0.435749
-3.310346 7.653420 1.925131
-3.294755 7.621025 -0.144925
-3.306596 7.652079 2.233608
-2.470451 5.736319 -1.673524
-3.402960 7.905376 0.150230
-2.905158 6.752191 -1.697031
-3.399214 7.904269 0.450927
-3.296354 7.665088 -1.621876
-4.671253 10.867395 1.034887
-3.272684 7.617383 -1.313111
-3.415907 7.954559 1.062944
-3.316648 7.727135 -1.032477
-3.274927 7.633619 1.315614
-3.271710 7.626121 -0.726007
-3.275946 7.639665 1.615771
-3.273108 7.636725 -0.435435
-3.272866 7.639853 1.918833
-3.265769 7.626965 -0.144820
-3.271502 7.644040 2.227915
-2.442831 5.727138 -1.668348
-3.364363 7.891455 0.149742
-2.880044 6.758705 -1.696131
-6.069487 14.243488 0.811417
-3.268037 7.672936 -1.621113
-4.675429 10.982629 1.044300
-3.238342 7.610583 -1.309982
-3.391225 7.973743 1.063919
-3.286342 7.727131 -1.031015
-3.244186 7.631711 1.313424
-3.240397 7.626493 -0.724961
-3.240815 7.631177 1.611573
-3.240186 7.633397 -0.434598
-3.242185 7.638106 1.915683
-3.238118 7.632230 -0.144715
-3.243120 7.647731 2.225844
-2.429091 5.747663 -1.671971
-3.331951 7.887829 0.149462
-2.850795 6.752060 -1.692082
-6.023777 14.267215 0.811626
-3.240287 7.678304 -1.619969
-4.674605 11.082517 1.052318
-3.210019 7.613998 -1.308731
-3.366308 7.988603 1.064407
-3.229096 7.662985 -1.021021
-3.216562 7.636964 1.312485
-3.210449 7.626180 -0.723916
-3.212448 7.634644 1.610046
-3.204016 7.618323 -0.433132
-3.213062 7.639833 1.913434
-3.208914 7.633708 -0.144541
-3.210260 7.640634 2.220668
-2.407032 5.748559 -1.669901
-3.303458 7.893302 0.149358
-2.826886 6.757880 -1.691182
-5.999359 14.348966 0.815080
-3.211018 7.679951 -1.618060
-4.680079 11.199067 1.061906
-3.178659 7.610020 -1.306228
-3.344385 8.010714 1.065869
-3.235198 7.752987 -1.031502
-3.188362 7.644500 1.311860
-3.177474 7.618394 -0.722172
-3.188621 7.648879 1.610810
-3.177197 7.625221 -0.432923
-3.178131 7.631214 1.908485
-3.179176 7.637478 -0.144401
-3.183568 7.651793 2.220668
-2.389172 5.762280 -1.671453
-3.270528 7.891854 0.149113
-2.806261 6.774909 -1.692982
-5.989730 14.467623 0.820628
-3.173678 7.665718 -1.612718
-4.682098 11.314748 1.071318
-3.149057 7.613766 -1.304976
-3.318679 8.027843 1.066601
-3.149746 7.622964 -1.012734
-3.152611 7.633673 1.308105
-3.153144 7.634964 -0.722695
-3.158907 7.652703 1.609283
-3.148273 7.630726 -0.432609
-3.149990 7.638659 1.907585
-3.145640 7.631890 -0.144087
-3.154629 7.657501 2.219115
-2.358039 5.743777 -1.663689
-3.239926 7.895822 0.148974
-2.777416 6.772044 -1.689832
-5.989951 14.612259 0.827641
-3.140945 7.662216 -1.609665
-4.677318 11.415832 1.079337
-3.125454 7.632026 -1.306228
-3.294398 8.048562 1.067819
-3.144162 7.685357 -1.019559
-3.116224 7.620862 1.304038
-3.113652 7.614574 -0.719732
-3.127717 7.652781 1.606993
-3.120864 7.639819 -0.432504
-3.123305 7.649608 1.907585
-3.112178 7.626160 -0.143773
-3.122045 7.654156 2.214973
-2.335792 5.746605 -1.662136
-3.205568 7.890410 0.148660
-2.754495 6.783502 -1.690282
-5.993734 14.768177 0.835282
-3.114916 7.674953 -1.610046
-4.677137 11.529940 1.088575
-3.089147 7.619091 -1.302161
-3.288647 8.115207 1.075131
-3.140420 7.753321 -1.027115
-3.088864 7.629862 1.303725
-3.083317 7.616160 -0.718861
-3.096568 7.652732 1.604704
-3.088188 7.635854 -0.431667
-3.091473 7.647816 1.904436
-3.086290 7.638832 -0.143808
-3.089523 7.650676 2.210832
-2.318601 5.761892 -1.664207
-3.174277 7.892274 0.148485
-2.720625 6.767762 -1.683984
-5.995012 14.920592 0.842714
-3.085176 7.678493 -1.608520
-4.680665 11.655281 1.098860
-3.058119 7.618827 -1.300283
-3.265471 8.139534 1.076838
-3.113334 7.764236 -1.027115
-3.057069 7.627761 1.301535
-3.055973 7.625027 -0.718686
-3.066184 7.654382 1.602796
-3.051862 7.622483 -0.430306
-3.057519 7.640467 1.899937
-3.055149 7.638419 -0.143598
-3.057058 7.647063 2.206691
-2.297761 5.768156 -1.663689
-3.143747 7.895876 0.148345
-2.695542 6.773597 -1.683084
-5.990876 15.062057 0.849517
-3.054728 7.680093 -1.606612
-4.684853 11.784486 1.109493
-3.025668 7.614770 -1.297781
-3.245834 8.173022 1.079762
-3.075962 7.749226 -1.023703
-3.028237 7.632879 1.300596
-3.022724 7.618981 -0.717117
-3.038724 7.663213 1.602414
-3.021558 7.623806 -0.429783
-3.025087 7.636600 1.896337
-3.025524 7.641598 -0.143459
-3.033903 7.666669 2.209280
-2.276905 5.774343 -1.663171
-3.113235 7.899360 0.148206
-2.670451 6.779339 -1.682184
-5.992410 15.220398 0.857263
-3.019272 7.668788 -1.602033
-4.680170 11.893467 1.118208
-2.999067 7.625286 -1.297781
-3.220918 8.193540 1.080981
-3.023487 7.695249 -1.015172
-2.995796 7.628694 1.298093
-2.993923 7.623923 -0.716594
-3.010523 7.670117 1.601651
-2.991279 7.625011 -0.429260
-2.992719 7.632600 1.892738
-2.990807 7.631632 -0.143075
-3.002188 7.664622 2.205656
-2.249007 5.762461 -1.657477
-3.084191 7.906452 0.148136
-2.646064 6.786803 -1.681734
-5.995805 15.386378 0.865427
-2.989631 7.671964 -1.600506
-4.680561 12.017412 1.128318
-2.966701 7.620982 -1.295278
-3.209570 8.249132 1.086831
-3.006678 7.731658 -1.018584
-2.966288 7.631739 1.296842
-2.957911 7.610185 -0.714328
-2.981596 7.675091 1.600506
-2.964646 7.635406 -0.429260
-2.964649 7.639366 1.891838
-2.954023 7.615925 -0.142586
-2.965641 7.649837 2.198409
-2.230272 5.773880 -1.658513
-3.050089 7.900380 0.147822
-2.620955 6.792362 -1.680834
-6.000115 15.549655 0.873487
-2.960009 7.675026 -1.598979
-4.683016 12.148937 1.139126
-2.935821 7.620231 -1.293400
-3.211431 8.339942 1.097312
-2.987515 7.762484 -1.021265
-2.940966 7.641533 1.296842
-2.931330 7.620463 -0.714328
-2.942808 7.654300 1.594018
-2.932962 7.632657 -0.428527
-2.933774 7.638752 1.889139
-2.928037 7.623812 -0.142551
-2.936793 7.650613 2.195821
-2.210102 5.781631 -1.658513
-3.018873 7.897378 0.147578
-2.592851 6.786453 -1.677235
-5.999234 15.710443 0.881338
-2.930398 7.677976 -1.597453
-4.681053 12.271319 1.149061
-2.903492 7.611468 -1.290272
-3.208506 8.415466 1.105842
-2.964583 7.779770 -1.022240
-2.908647 7.636985 1.294339
-2.901166 7.621340 -0.713457
-2.913220 7.653007 1.591729
-2.899111 7.619941 -0.427271
-2.908425 7.648440 1.889139
-2.895721 7.619033 -0.142272
-2.908013 7.655399 2.194268
-2.189551 5.785314 -1.657477
-2.985630 7.892904 0.147298
-2.565702 6.786348 -1.674986
-5.995897 15.867676 0.888979
-2.902146 7.680304 -1.595927
-4.688204 12.413519 1.160914
-2.875512 7.617860 -1.289646
-3.206440 8.499050 1.115348
-2.908695 7.713916 -1.012247
-2.881276 7.645243 1.294026
-2.875175 7.629054 -0.713283
-2.890642 7.674152 1.594018
-2.866866 7.615061 -0.426433
-2.873476 7.636658 1.883740
-2.868406 7.627223 -0.142237
-2.879236 7.660078 2.192715
-2.168664 5.791113 -1.656960
-2.960862 7.910769 0.147438
-2.539951 6.789787 -1.673636
-5.994327 16.032560 0.897038
-2.868442 7.671999 -1.592110
-4.688081 12.545523 1.171722
-2.846141 7.620448 -1.288394
-3.208685 8.595739 1.126560
-2.878973 7.716583 -1.011272
-2.845601 7.631192 1.289959
-2.849225 7.640911 -0.713457
-2.859035 7.671319 1.591347
-2.838173 7.619406 -0.426119
-2.841360 7.632032 1.880141
-2.832000 7.610952 -0.141748
-2.848437 7.659217 2.189609
-2.145081 5.789589 -1.654371
-2.926287 7.902303 0.147089
-2.516232 6.798612 -1.673636
-6.001385 16.223848 0.906564
-2.839602 7.676441 -1.590966
-4.685718 12.673935 1.182181
-2.816782 7.622926 -1.287143
-3.213050 8.699995 1.138747
-2.869206 7.773142 -1.017365
-2.816893 7.635519 1.289020
-2.810121 7.617163 -0.710319
-2.830883 7.677567 1.590584
-2.812943 7.633016 -0.426329
-2.813356 7.638246 1.879241
-2.802653 7.613283 -0.141609
-2.815016 7.650983 2.184433
-2.120871 5.786159 -1.651266
-2.897312 7.908714 0.147019
-2.488464 6.796375 -1.670936
-6.005121 16.409750 0.915775
-2.806719 7.669713 -1.587531
-4.684567 12.808095 1.193162
-2.782694 7.612304 -1.283701
-3.211955 8.791332 1.149228
-2.794394 7.652583 -1.000304
-2.786834 7.636027 1.287456
-2.778732 7.613825 -0.709099
-2.798686 7.672647 1.587531
-2.782859 7.633406 -0.425805
-2.782005 7.635204 1.876092
-2.775378 7.621141 -0.141574
-2.784325 7.649872 2.181327
-2.103952 5.802608 -1.653854
-8.831163 24.369238 0.452436
-2.459417 6.790361 -1.667337
-6.007625 16.595879 0.924986
-2.779927 7.679464 -1.587531
-4.683887 12.946151 1.204492
-2.752748 7.612682 -1.282137
-3.202837 8.862232 1.157028
-2.789917 7.723903 -1.008347
-2.759494 7.643851 1.287143
-2.755522 7.632848 -0.709971
-2.766554 7.667597 1.584478
-2.749422 7.624285 -0.424759
-2.755337 7.644867 1.876092
-2.745368 7.621376 -0.141399
-2.756952 7.657726 2.180809
-2.080424 5.800824 -1.651266
-8.733904 24.366028 0.451808
-2.433729 6.793400 -1.665987
-6.004869 16.770935 0.933569
-2.747811 7.674333 -1.584478
-4.689689 13.104989 1.217740
-2.725494 7.620384 -1.281824
-3.211971 8.985516 1.171652
-2.762940 7.733594 -1.008347
-2.728811 7.642274 1.285266
-2.726853 7.636790 -0.709448
-2.738450 7.673509 1.583715
-2.717426 7.618786 -0.423921
-2.721439 7.634247 1.871143
-2.718745 7.630913 -0.141399
-2.732799 7.674581 2.182880
-2.062099 5.813513 -1.652818
-8.647455 24.392599 0.451738
-2.406745 6.792671 -1.663738
-6.004289 16.955591 0.942675
-2.717072 7.672775 -1.582188
-4.692438 13.258390 1.230465
-2.695581 7.620540 -1.280260
-3.212348 9.086506 1.183351
-2.724022 7.709501 -1.003960
-2.698169 7.640578 1.283388
-2.694206 7.629355 -0.707879
-2.706422 7.668210 1.580662
-2.690813 7.628225 -0.423921
-2.692180 7.636349 1.869343
-2.685448 7.621496 -0.141050
-2.698932 7.664031 2.177186
-2.036040 5.804269 -1.648160
-8.548368 24.383007 0.451005
-2.385598 6.808386 -1.665538
-2.764596 7.894442 0.438366
-2.686380 7.671094 -1.579899
-4.688914 13.396924 1.241795
-2.665705 7.620580 -1.278696
-3.212058 9.187611 1.195051
-2.706918 7.747073 -1.007616
-2.668879 7.642488 1.282137
-2.663619 7.627427 -0.706833
-2.682228 7.685025 1.582188
-2.662197 7.631914 -0.423607
-2.664223 7.642021 1.868443
-2.659488 7.632712 -0.141085
-2.665812 7.655161 2.172009
-2.013865 5.805866 -1.646607
-8.450109 24.374910 0.450307
-2.357988 6.805624 -1.662838
-2.736367 7.902158 0.438261
-2.658943 7.678571 -1.579517
-4.687737 13.545006 1.253997
-2.634566 7.616772 -1.276505
-3.214988 9.300079 1.208213
-2.667544 7.720825 -1.002985
-2.638314 7.640556 1.280260
-2.635025 7.631028 -0.706310
-2.647698 7.672071 1.577609
-2.632282 7.631720 -0.423084
-2.634992 7.643904 1.866644
-2.629570 7.632496 -0.140911
-2.634669 7.651634 2.168386
-1.994215 5.814687 -1.647125
-8.355889 24.377777 0.449818
-2.330430 6.802752 -1.660139
-2.708768 7.911661 0.438261
-2.632125 7.687805 -1.579517
-4.688803 13.702670 1.267070
-2.604129 7.614707 -1.274628
-3.210757 9.393894 1.218937
-2.640575 7.730090 -1.002985
-2.610353 7.645980 1.279634
-2.603867 7.626981 -0.705090
-2.616465 7.668260 1.574938
-2.601116 7.627629 -0.422351
-2.605781 7.645677 1.864844
-2.600333 7.634056 -0.140771
-2.606700 7.657126 2.167351
-1.973907 5.821612 -1.647125
-8.263678 24.385963 0.449434
-2.302295 6.797925 -1.656989
-2.674093 7.900258 0.437110
-2.601498 7.685788 -1.577227
-4.695208 13.879376 1.281887
-2.575003 7.616264 -1.273377
-3.209716 9.499076 1.231124
-2.612303 7.735499 -1.002497
-2.582386 7.651300 1.279008
-2.574681 7.628472 -0.704393
-2.590308 7.679207 1.575319
-2.573196 7.632877 -0.422142
-2.572856 7.636258 1.860345
-2.572392 7.639297 -0.140701
-2.578105 7.660687 2.165798
-1.954186 5.830299 -1.647642
-8.165806 24.376736 0.448736
-2.276695 6.800376 -1.655640
-2.643962 7.901968 0.436691
-2.568422 7.676203 -1.573411
-4.697283 14.046844 1.295832
-2.548400 7.625207 -1.273377
-3.209244 9.608130 1.243799
-2.585916 7.746453 -1.002741
-2.550659 7.645279 1.276505
-2.546143 7.631743 -0.703870
-2.563488 7.688202 1.575319
-2.543382 7.632339 -0.421619
-2.541257 7.630402 1.856746
-2.540659 7.633050 -0.140422
-2.551961 7.671472 2.166316
-1.928356 5.820581 -1.642983
-8.078156 24.397497 0.448597
-2.254781 6.813832 -1.656989
-2.619628 7.916381 0.437005
-2.537915 7.673938 -1.571121
-4.691368 14.193683 1.307859
-2.520526 7.630306 -1.272751
-3.212404 9.730490 1.258179
-2.535848 7.685682 -0.993723
-2.519104 7.634935 1.273377
-2.510751 7.614094 -0.701429
-2.537248 7.698968 1.575701
-2.514852 7.635478 -0.421304
-2.515213 7.641078 1.857196
-2.512830 7.633836 -0.140282
-2.516845 7.650531 2.158033
-1.906823 5.823605 -1.641948
-7.742076 23.644981 0.434286
-2.230959 6.817568 -1.656090
-2.587631 7.912189 0.436273
-2.509890 7.679018 -1.570358
-4.694995 14.372849 1.322850
-2.491531 7.627355 -1.270874
-3.214616 9.846766 1.271829
-2.522660 7.731793 -0.998597
-2.493661 7.647439 1.274002
-2.481072 7.613340 -0.700558
-2.505621 7.688672 1.571885
-2.488278 7.639978 -0.421095
-2.488053 7.643816 1.855846
-2.481220 7.627348 -0.140003
-2.488932 7.655595 2.156998
-1.888097 5.831734 -1.642466
-7.636104 23.599564 0.432959
-2.201153 6.806772 -1.651591
-2.558155 7.915471 0.435959
-2.483810 7.685431 -1.569977
-4.699362 14.549495 1.337666
-2.458821 7.617207 -1.267745
-2.515759 7.802898 -1.006641
-2.463314 7.644815 1.272125
-2.455199 7.619630 -0.700384
-2.476362 7.689896 1.570358
-2.455477 7.629604 -0.420048
-2.463741 7.659876 1.857646
-2.455194 7.637866 -0.140038
-2.459241 7.655040 2.154410
-1.865961 5.832769 -1.640913
-7.550031 23.614645 0.432750
-2.176191 6.810701 -1.650691
-2.524432 7.905327 0.434912
-2.455174 7.688445 -1.568832
-4.704884 14.742329 1.353877
-2.432218 7.625743 -1.267745
-2.706902 8.492079 1.094387
-2.473440 7.764348 -1.000547
-2.433020 7.642074 1.270248
-2.427379 7.624357 -0.700035
-2.445931 7.687270 1.568068
-2.422776 7.619097 -0.419002
-2.429907 7.646142 1.852247
-2.427911 7.644485 -0.140003
-2.431334 7.659896 2.153375
-1.843844 5.833720 -1.639360
-7.465139 23.633232 0.432610
-2.150646 6.812681 -1.649341
-2.494419 7.906472 0.434493
-2.422416 7.678245 -1.565016
-4.702520 14.914477 1.368171
-2.404399 7.630419 -1.267119
-2.677841 8.503368 1.094630
-2.432022 7.727489 -0.994698
-2.403367 7.641098 1.268684
-2.401947 7.636583 -0.700384
-2.418495 7.693887 1.567687
-2.396765 7.629412 -0.419106
-2.399701 7.643422 1.849548
-2.395223 7.633834 -0.139654
-2.403427 7.664649 2.152339
-1.821168 5.832745 -1.637289
-7.370679 23.620968 0.431912
-2.127434 6.822006 -1.649791
-2.463242 7.903689 0.433865
-2.391512 7.673533 -1.562344
-4.697825 15.082984 1.382116
-2.375402 7.631220 -1.265868
-2.649909 8.518352 1.095362
-2.393245 7.698021 -0.989823
-2.373162 7.638123 1.266806
-2.369363 7.625896 -0.698640
-2.387547 7.689158 1.565016
-2.370709 7.639640 -0.419211
-2.372427 7.649891 1.849098
-2.365603 7.632597 -0.139480
-2.372082 7.658228 2.148198
-1.797379 5.827990 -1.634184
-7.279941 23.619797 0.431423
-2.100737 6.820080 -1.647542
-2.436223 7.914149 0.433970
-2.363554 7.678082 -1.561581
-4.699633 15.276389 1.398327
-2.344104 7.624361 -1.263365
-2.617245 8.518062 1.094143
-2.372188 7.725304 -0.992260
-2.347066 7.648248 1.267119
-2.340392 7.626501 -0.697943
-2.356089 7.682430 1.561963
-2.341688 7.640230 -0.418792
-2.342857 7.648809 1.846848
-2.334265 7.625511 -0.139200
-2.344207 7.662767 2.147163
-1.778152 5.837925 -1.635219
-7.191629 23.625933 0.431074
-2.072379 6.812457 -1.643942
-2.405676 7.913051 0.433446
-2.337307 7.688165 -1.561963
-4.704202 15.483336 1.415758
-2.315178 7.624937 -1.262113
-2.580000 8.502452 1.090974
-2.357306 7.773429 -0.997379
-2.318634 7.650724 1.266181
-2.313755 7.634624 -0.697943
-2.328117 7.686849 1.561199
-2.309798 7.631153 -0.417850
-2.315577 7.655076 1.846398
-2.310524 7.643184 -0.139375
-2.314094 7.659807 2.144057
-1.757205 5.842247 -1.634701
-7.109109 23.650894 0.431074
-2.049709 6.823381 -1.644842
-2.372298 7.902270 0.432400
-2.307071 7.684993 -1.559673
-3.347035 11.156246 1.019025
-2.286280 7.625402 -1.260862
-2.549167 8.507602 1.090487
-2.321044 7.751184 -0.993479
-2.290216 7.653092 1.265242
-2.286521 7.640745 -0.697769
-2.300148 7.691166 1.560436
-2.278569 7.623860 -0.417013
-2.281593 7.638837 1.840549
-2.282116 7.645453 -0.139270
-2.285684 7.662285 2.142504
-1.737352 5.850196 -1.635219
-7.064053 23.802092 0.433378
-2.023664 6.823021 -1.643043
-2.340729 7.897098 0.431667
-2.275769 7.677941 -1.556620
-3.311464 11.179325 1.020071
-2.256286 7.621971 -1.258985
-2.515514 8.503122 1.088781
-2.292846 7.755433 -0.992992
-2.258452 7.643991 1.262426
-2.256450 7.637215 -0.696723
-2.270508 7.689734 1.558528
-2.249680 7.624106 -0.416594
-2.254916 7.646755 1.840549
-2.249760 7.634192 -0.138921
-2.256738 7.662805 2.140434
-1.710943 5.835833 -1.629525
-7.192338 24.548157 0.446502
-1.996000 6.816952 -1.639893
-2.312842 7.899067 0.431353
-2.247298 7.680186 -1.555475
-3.273542 11.194639 1.020419
-2.231881 7.637386 -1.260236
-2.484702 8.508042 1.088293
-2.267987 7.771010 -0.993966
-2.231982 7.647645 1.261801
-2.226429 7.633570 -0.695677
-2.242002 7.691960 1.557383
-2.220821 7.624242 -0.416176
-2.226030 7.647096 1.838750
-2.223315 7.637770 -0.138851
-2.228079 7.659116 2.137328
-1.690023 5.839914 -1.629007
-6.953026 24.026344 0.436589
-1.975550 6.831021 -1.641693
-2.285811 7.909010 0.431458
-2.217754 7.678552 -1.553567
-3.245498 11.244282 1.023906
-2.202161 7.629560 -1.257733
-2.454826 8.510513 1.087562
-2.246605 7.793747 -0.995916
-2.204181 7.651593 1.261175
-2.198117 7.635550 -0.695154
-2.210510 7.678598 1.553185
-2.192214 7.620047 -0.415548
-2.197968 7.645071 1.836500
-2.192221 7.630109 -0.138572
-2.198666 7.657562 2.134739
-1.668526 5.838056 -1.626937
-6.854832 24.000475 0.435682
-1.949017 6.828507 -1.639443
-2.258188 7.916943 0.431458
-2.190661 7.680202 -1.552422
-3.243144 11.377612 1.035062
-2.171184 7.622004 -1.255230
-2.422384 8.509484 1.086343
-2.203632 7.746172 -0.988848
-2.174216 7.647840 1.259298
-2.171693 7.638965 -0.694806
-2.182618 7.682491 1.552422
-2.163418 7.619968 -0.415129
-2.169671 7.647072 1.835151
-2.163939 7.631943 -0.138467
-2.171394 7.663332 2.134222
-1.649184 5.847564 -1.627972
-6.765593 24.005007 0.435333
-1.922001 6.824014 -1.636744
-2.225129 7.905550 0.430411
-2.162776 7.684021 -1.551659
-3.241715 11.525039 1.047438
-2.144567 7.629536 -1.255230
-2.391057 8.512154 1.085612
-2.172289 7.738527 -0.986898
-2.147508 7.655383 1.259298
-2.139096 7.625397 -0.692888
-2.156319 7.691953 1.552804
-2.136269 7.625550 -0.415024
-2.139814 7.643340 1.832451
-2.138365 7.643301 -0.138537
-2.144633 7.670865 2.134222
-1.626689 5.845840 -1.625901
-6.673192 23.997652 0.434774
-1.897645 6.828804 -1.636294
-2.198052 7.915195 0.430516
-2.131737 7.676391 -1.548606
-3.245155 11.693708 1.061731
-2.113697 7.621747 -1.252727
-3.228667 11.650097 1.484369
-2.147384 7.753714 -0.987873
-2.114448 7.639987 1.255543
-2.114589 7.640499 -0.693585
-2.123697 7.678619 1.548606
-2.111235 7.638735 -0.415338
-2.108968 7.635736 1.828852
-2.106349 7.631443 -0.138188
-2.117327 7.676443 2.133704
-1.602695 5.838442 -1.622278
-6.580913 23.989944 0.434216
-1.874828 6.839145 -1.637194
-2.166190 7.907408 0.429678
-2.104411 7.681891 -1.548224
-3.241665 11.841406 1.074107
-2.088644 7.634795 -1.253666
-3.226721 11.802994 1.502405
-2.114026 7.738185 -0.984948
-2.086728 7.643510 1.254917
-2.083710 7.632457 -0.692191
-2.097916 7.689773 1.549369
-2.081930 7.636425 -0.414815
-2.082815 7.644930 1.829302
-2.078649 7.634890 -0.138118
-2.084434 7.661417 2.127493
-1.581801 5.842136 -1.621760
-6.491903 23.993471 0.433867
-1.847893 6.834360 -1.634494
-2.138055 7.912993 0.429574
-2.076561 7.685400 -1.547461
-3.242895 12.010378 1.088401
-2.055293 7.617246 -1.249599
-2.317294 8.594225 1.092924
-2.089065 7.753184 -0.985923
-2.061063 7.654562 1.255543
-2.052913 7.624293 -0.690796
-2.066471 7.679986 1.545935
-2.054740 7.641716 -0.414710
-2.054601 7.646508 1.827952
-2.049909 7.634375 -0.137979
-2.054672 7.657452 2.124387
-1.563889 5.856955 -1.624348
-6.391618 23.954157 0.432750
-1.819003 6.821939 -1.629995
-2.110419 7.920408 0.429574
-2.047697 7.685013 -1.545935
-3.244016 12.183350 1.103043
-2.026658 7.616738 -1.248347
-2.289829 8.611855 1.094143
-2.066068 7.775777 -0.987873
-2.032301 7.654073 1.254292
-2.029352 7.642966 -0.691842
-2.038138 7.681461 1.544790
-2.023959 7.633398 -0.413873
-2.030391 7.663053 1.830202
-2.023761 7.643416 -0.138014
-2.026450 7.658974 2.122834
-1.541961 5.856774 -1.622795
-6.307969 23.976320 0.432750
-1.793199 6.820709 -1.628196
-2.077178 7.906478 0.428422
-2.020361 7.690215 -1.545553
-3.245486 12.362256 1.118208
-1.999057 7.619944 -1.247721
-2.261265 8.625555 1.094874
-2.035897 7.771420 -0.986411
-2.003568 7.653477 1.253040
-2.002659 7.650004 -0.691842
-2.009823 7.682829 1.543645
-1.995283 7.632687 -0.413454
-1.996240 7.641811 1.823453
-1.996056 7.646565 -0.137944
-2.001655 7.673478 2.124904
-1.521021 5.860250 -1.622278
-6.212685 23.953676 0.431947
-1.771333 6.834473 -1.629995
-2.050065 7.915614 0.428527
-1.990058 7.683918 -1.542882
-3.246739 12.545176 1.133722
-1.973433 7.630701 -1.248347
-2.231637 8.635318 1.095118
-1.999821 7.743882 -0.982023
-1.972893 7.645122 1.250537
-1.986897 7.699390 -0.695677
-1.981030 7.682195 1.542118
-1.968127 7.637671 -0.413349
-1.968582 7.644959 1.822553
-1.966364 7.641866 -0.137734
-1.972450 7.671064 2.122316
-1.495290 5.844937 -1.616584
-6.119628 23.938406 0.431284
-1.743608 6.825509 -1.626396
-2.019459 7.911111 0.427899
-1.960312 7.679403 -1.540592
-3.247252 12.730184 1.149410
-1.944835 7.629886 -1.247096
-2.199033 8.633436 1.093899
-1.971800 7.746969 -0.981536
-1.945222 7.648133 1.249912
-1.938402 7.621318 -0.688007
-1.954687 7.690965 1.542500
-1.941453 7.644495 -0.413349
-1.940927 7.648005 1.821654
