# This PCD file was generated using the MATLAB® pcwrite function
# from Computer Vision Toolbox®.
# .PCD v.7 - Point Cloud Data file format
VERSION .7
FIELDS x y z
SIZE 4 4 4
TYPE F F F
COUNT 1 1 1
WIDTH 1664
HEIGHT 1
VIEWPOINT 0 0 0 1 0 0 0
POINTS 1664
DATA ascii
11.038405 -12.586889 0.292223
3.532754 -4.029753 -1.237231
5.305988 -6.052450 0.421828
4.034531 -4.603741 -1.189885
5.562711 -6.349761 0.738558
4.717645 -5.387025 -1.134150
6.554795 -7.487482 1.221862
5.576741 -6.370260 -1.039546
5.436464 -6.212209 1.307480
5.619934 -6.424122 -0.746750
5.574127 -6.374005 1.645918
7.019558 -8.029680 -0.558948
6.180804 -7.070229 2.168078
10.615083 -12.146882 -0.281577
6.668766 -7.633786 2.716047
3.138705 -3.601770 -1.280119
10.705010 -12.288691 0.284474
3.525770 -4.048794 -1.239480
5.338353 -6.130260 0.426015
4.016664 -4.614133 -1.189122
16.180183 -18.593498 2.156407
4.708830 -5.413073 -1.136340
6.527326 -7.506182 1.221375
5.516508 -6.343780 -1.032233
5.426200 -6.242129 1.309982
5.545018 -6.381063 -0.739604
15.991957 -18.409616 4.740077
6.999441 -8.060455 -0.559471
6.157325 -7.090687 2.168078
10.897217 -12.553502 -0.290164
3.121686 -3.606316 -1.278049
11.001789 -12.714257 0.293480
3.513600 -4.061937 -1.239930
7.367922 -8.520775 0.590350
4.001341 -4.627428 -1.189122
5.689856 -6.582465 0.761218
4.697312 -5.436131 -1.137904
6.507588 -7.533795 1.222350
5.450220 -6.311913 -1.023946
5.471498 -6.338791 1.326252
5.479564 -6.348136 -0.733677
15.802564 -18.313908 4.701916
7.023550 -8.142604 -0.563554
10.868998 -12.609640 -0.290583
6.336701 -7.354104 2.601131
3.107820 -3.615726 -1.277531
10.806170 -12.576646 0.289431
3.500670 -4.075655 -1.240380
7.410995 -8.631301 0.596211
3.995395 -4.653283 -1.192175
6.520699 -7.597090 0.875915
4.664158 -5.436004 -1.134463
6.423094 -7.488660 1.211381
5.397143 -6.294732 -1.018097
6.238650 -7.278758 1.518353
5.484600 -6.398993 -0.737338
7.049651 -8.230782 -0.567950
10.817113 -12.638388 -0.290373
6.381323 -7.458380 2.630119
3.100196 -3.632430 -1.279601
10.762204 -12.614290 0.289431
3.482628 -4.083402 -1.239030
7.404145 -8.684475 0.598095
3.980402 -4.668695 -1.192556
6.576852 -7.716853 0.887071
4.657965 -5.467288 -1.137592
6.403350 -7.518591 1.212600
5.357122 -6.292372 -1.014684
6.620334 -7.778865 1.617846
5.404122 -6.349821 -0.729494
10.897248 -12.822348 -0.293724
6.301466 -7.417302 2.607861
3.093742 -3.650598 -1.282190
6.261277 -7.390885 0.169079
3.470872 -4.098508 -1.239930
7.394433 -8.734657 0.599770
3.965349 -4.684060 -1.192938
6.549876 -7.739764 0.887071
4.636301 -5.480498 -1.136966
5.659245 -6.692073 1.076106
5.260795 -6.223105 -1.000547
5.288044 -6.257555 -0.716769
6.095142 -7.217736 -0.495098
10.824052 -12.826689 -0.292956
6.307923 -7.477645 2.621319
3.082224 -3.662853 -1.282707
22.802347 -27.107452 0.618304
3.459053 -4.113582 -1.240830
6.257386 -7.444060 0.509648
3.941395 -4.688856 -1.190648
5.474348 -6.514832 0.744484
4.627306 -5.508749 -1.139469
5.624363 -6.698105 1.073913
5.228830 -6.229268 -0.998597
5.486580 -6.538651 1.351907
5.263608 -6.272924 -0.716420
6.054512 -7.220603 -0.493842
10.838289 -12.934897 -0.294562
6.136647 -7.326345 2.560756
3.061988 -3.664695 -1.279601
3.449668 -4.131615 -1.242630
6.409256 -7.678992 0.524197
3.931294 -4.710122 -1.192556
6.424203 -7.699631 0.877310
4.611845 -5.529418 -1.140407
5.646711 -6.772585 1.082687
5.194345 -6.232234 -0.996160
5.408086 -6.490988 1.338141
5.271013 -6.326467 -0.720429
6.688003 -8.030040 2.031353
6.022881 -7.234018 -0.493319
10.762378 -12.935759 -0.293724
6.138213 -7.380398 2.572144
3.051644 -3.678334 -1.280637
6.750319 -8.139466 0.184577
3.435225 -4.143631 -1.242630
6.382412 -7.701318 0.524197
3.917334 -4.726838 -1.193320
6.460840 -7.798722 0.886025
4.584956 -5.536355 -1.138530
5.099153 -6.161627 -0.982023
5.347621 -6.464163 1.328755
5.242548 -6.337151 -0.719558
6.579858 -7.956509 2.006929
6.003955 -7.262695 -0.493842
4.941963 -5.980180 1.791060
10.852158 -13.136666 -0.297424
6.219432 -7.531374 2.617178
3.043699 -3.694929 -1.282707
3.418264 -4.152588 -1.241730
5.581360 -6.782782 0.460347
3.899563 -4.738968 -1.192938
6.441174 -7.830460 0.887071
4.559329 -5.544696 -1.136966
7.335048 -8.923481 1.418316
5.049888 -6.145646 -0.976661
5.337563 -6.498055 1.331883
5.197631 -6.327699 -0.716420
5.121783 -6.237580 1.568832
5.995041 -7.303679 -0.495203
5.263469 -6.414696 1.915683
10.681953 -13.022948 -0.294003
3.033229 -3.708521 -1.283742
9.918483 -12.130973 0.273514
3.403748 -4.164495 -1.241730
5.539958 -6.780570 0.458882
3.884239 -4.754071 -1.193320
5.503845 -6.738769 0.761218
4.556187 -5.580470 -1.141033
5.015856 -6.147855 -0.974224
5.252423 -6.440107 1.316240
5.166850 -6.337441 -0.715374
5.067723 -6.215857 1.558910
6.697559 -8.217874 -0.555599
10.371244 -12.734543 -0.286673
3.025704 -3.727113 -1.286331
10.140751 -12.491549 0.280844
3.395329 -4.183917 -1.243979
5.900027 -7.272941 0.490807
3.861842 -4.762177 -1.191793
5.469071 -6.746514 0.759824
4.535703 -5.597131 -1.141033
6.636425 -8.189456 1.294253
4.971873 -6.137561 -0.969836
5.202562 -6.424629 1.309357
5.139683 -6.349245 -0.714677
6.534297 -8.074946 2.019141
6.766627 -8.365040 -0.563868
10.467557 -12.944822 -0.290583
3.006614 -3.730131 -1.283742
5.859207 -7.271777 0.163005
3.382417 -4.199368 -1.244879
5.447383 -6.763083 0.455114
3.852583 -4.784802 -1.194083
6.932098 -8.612553 0.967254
4.524806 -5.623703 -1.143223
4.899590 -6.093861 -0.960087
5.217237 -6.488934 1.318743
5.107503 -6.354723 -0.713283
6.161769 -7.669175 1.912288
6.931241 -8.629974 -0.580092
5.249778 -6.538749 1.935929
10.990681 -13.689208 -0.306429
6.081023 -7.576798 2.603202
2.994782 -3.742112 -1.284260
5.813819 -7.264625 0.162412
3.374559 -4.218170 -1.247129
5.488608 -6.863168 0.460556
3.835857 -4.798222 -1.194083
5.692993 -7.123835 0.797824
4.502433 -5.634048 -1.142285
5.638690 -7.058409 1.109255
4.874400 -6.103870 -0.959112
11.004076 -13.784567 2.793607
5.087775 -6.375628 -0.713631
6.071401 -7.608236 1.892062
6.775544 -8.493655 -0.569415
11.040539 -13.845105 4.088261
11.020111 -13.824438 -0.308593
6.011197 -7.543588 2.584567
2.985962 -3.756560 -1.285813
11.002114 -13.846430 0.308698
3.354967 -4.223820 -1.245329
10.983883 -13.833394 0.925719
3.830913 -4.824753 -1.197517
5.718884 -7.205097 0.804796
4.487650 -5.655920 -1.143536
5.591813 -7.050054 1.104867
4.818532 -6.077294 -0.952287
10.941168 -13.804317 2.789853
5.107557 -6.446445 -0.719558
10.914301 -13.775360 3.416245
5.571530 -7.034564 -0.470291
10.914725 -13.785777 4.059467
10.430707 -13.179168 -0.293375
10.899268 -13.776133 4.706883
2.973370 -3.768995 -1.286331
5.516491 -6.992613 0.155466
3.337789 -4.232445 -1.244429
5.313202 -6.739765 0.449775
3.814418 -4.840303 -1.197899
6.086976 -7.726838 0.860576
4.470557 -5.676985 -1.144475
5.444355 -6.913573 1.080494
4.770276 -6.059762 -0.946925
5.398205 -6.859894 1.382568
5.108429 -6.493987 -0.722870
10.872233 -13.826074 3.418916
5.543241 -7.051796 -0.470082
10.841249 -13.796576 4.050919
10.026336 -12.759519 -0.283253
10.827246 -13.783709 4.696530
2.962578 -3.782393 -1.287366
5.970378 -7.625262 0.169044
3.324656 -4.247719 -1.245329
5.337654 -6.819609 0.453857
3.792660 -4.847404 -1.196373
6.062422 -7.751177 0.860924
4.456797 -5.700336 -1.146039
5.514328 -7.055478 1.099505
4.734425 -6.057607 -0.944000
5.376658 -6.881809 1.383194
5.090634 -6.518059 -0.723567
5.230124 -6.699073 1.652024
7.044775 -9.026639 -0.600084
10.820615 -13.864713 4.060367
13.061743 -16.742346 -0.370654
10.786196 -13.830561 4.699636
2.947647 -3.789147 -1.286331
10.051237 -12.925338 0.285801
3.315335 -4.264875 -1.247129
6.347121 -8.164989 0.541991
3.778974 -4.863054 -1.197136
6.794479 -8.746774 0.968998
4.443927 -5.722886 -1.147603
4.677794 -6.026231 -0.936688
5.387716 -6.943299 1.391954
5.075098 -6.542776 -0.724438
5.227129 -6.741204 1.658130
7.041722 -9.084678 -0.602387
5.959745 -7.688796 2.245911
10.108274 -13.045607 -0.288069
5.460634 -7.049963 2.389417
2.933884 -3.797372 -1.285813
5.582315 -7.227885 0.159410
3.301175 -4.275846 -1.247129
4.997024 -6.474730 0.428632
3.768824 -4.883331 -1.199044
6.680244 -8.658832 0.956796
4.422512 -5.734463 -1.146978
5.605583 -7.271118 1.127291
4.637342 -6.017365 -0.932788
5.305580 -6.886950 1.376936
6.290017 -8.167753 2.003876
6.877540 -8.933893 -0.590873
5.081921 -6.603776 1.923781
5.884221 -7.649098 -0.168451
2.924138 -3.812189 -1.287366
10.561682 -13.774205 0.302974
3.286229 -4.287343 -1.247129
5.129880 -6.695062 0.442030
3.756531 -4.902690 -1.200570
4.392861 -5.737318 -1.144475
5.558450 -7.262267 1.122904
4.606660 -6.020904 -0.930838
5.269507 -6.889737 1.373808
5.222899 -6.828798 -0.752154
6.189922 -8.096081 1.980979
6.905740 -9.035602 -0.596002
5.064754 -6.629218 1.926031
5.906034 -7.733159 -0.169847
6.184994 -8.101351 2.731059
2.911984 -3.823910 -1.287884
9.859469 -12.951778 0.284125
3.271243 -4.298788 -1.247129
5.396688 -7.094435 0.467151
3.746527 -4.925148 -1.202860
5.469126 -7.192266 0.790503
4.385957 -5.769915 -1.147916
5.545076 -7.297431 1.125342
4.547191 -5.986362 -0.923038
5.080573 -6.690982 1.330632
5.229153 -6.886658 -0.756512
6.080908 -8.011301 1.955029
6.702727 -8.833716 -0.581138
5.913054 -7.795812 2.258959
7.571664 -9.986151 -0.218748
7.677176 -10.128982 3.405541
2.903278 -3.840215 -1.289954
5.986179 -7.920892 0.173302
3.258567 -4.313291 -1.248029
5.521144 -7.310863 0.480130
3.723396 -4.930362 -1.200952
5.467996 -7.243115 0.793989
4.368169 -5.788344 -1.148542
6.222517 -8.248569 1.268660
4.511925 -5.983179 -0.920114
5.004867 -6.639270 1.316865
5.212278 -6.914415 -0.757558
7.567610 -10.042558 2.444263
6.894166 -9.152189 -0.600503
5.881117 -7.810177 2.257159
7.509100 -9.975775 -0.217946
4.953968 -6.583695 2.207727
2.887536 -3.847235 -1.288919
6.115706 -8.151280 0.177875
3.243492 -4.324638 -1.248029
4.915720 -6.556652 0.429469
3.708519 -4.946471 -1.201715
5.643418 -7.530004 0.823273
4.347937 -5.803556 -1.148542
5.698668 -7.609256 1.167265
4.476736 -5.979823 -0.917189
5.947456 -7.947237 1.572167
5.238249 -6.999564 -0.764879
7.459595 -9.971446 2.420603
6.892079 -9.216185 -0.603120
5.408103 -7.234423 2.085296
7.441912 -9.958675 -0.217003
7.472162 -10.002796 3.345495
2.872935 -3.855742 -1.288401
5.528186 -7.422036 0.161539
3.235358 -4.345313 -1.250728
5.009668 -6.730786 0.439727
3.692402 -4.960961 -1.202097
5.745545 -7.722295 0.842099
4.330010 -5.821868 -1.149168
5.484937 -7.377400 1.128754
4.422680 -5.950802 -0.910364
6.117590 -8.234340 1.624729
5.293393 -7.124961 -0.776558
7.387285 -9.946987 2.408391
6.802721 -9.163212 -0.598095
5.199325 -7.006004 2.014212
5.964285 -8.039708 -0.174733
5.766333 -7.775709 2.593884
2.864054 -3.871960 -1.290472
9.713339 -13.136412 0.285172
3.215537 -4.350311 -1.248928
4.971900 -6.728956 0.438471
3.677396 -4.976978 -1.202860
5.612020 -7.598067 0.826411
4.309662 -5.836947 -1.149168
5.442648 -7.374141 1.125342
4.383024 -5.940646 -0.906464
6.086466 -8.252465 1.624103
5.272038 -7.148205 -0.777081
5.663222 -7.681407 1.855045
6.774250 -9.191727 -0.598409
5.068497 -6.879769 1.972821
5.875710 -7.978361 -0.172953
5.801002 -7.879799 2.621837
2.852808 -3.885048 -1.291507
6.472561 -8.817773 0.190929
3.202638 -4.364651 -1.249828
5.479957 -7.470983 0.485573
3.668129 -5.000865 -1.205531
5.585463 -7.617610 0.826411
4.299771 -5.866294 -1.151983
5.258486 -7.176923 1.092437
4.341147 -5.927083 -0.902077
5.212921 -7.119944 -0.772026
5.673479 -7.751825 1.867257
6.732689 -9.202420 -0.597572
5.096220 -6.968203 1.993066
5.715643 -7.818021 -0.169044
5.848693 -8.002943 2.656001
2.842643 -3.899666 -1.293060
5.775192 -7.925575 0.171173
3.191972 -4.382104 -1.251628
5.442089 -7.473920 0.484526
3.646028 -5.007291 -1.204005
5.389998 -7.405097 0.801310
4.276943 -5.878073 -1.151358
5.115469 -7.033092 1.067819
4.301754 -5.916511 -0.898177
5.815011 -8.000739 1.566535
5.264175 -7.242857 -0.783356
5.602534 -7.711226 1.852755
5.843740 -8.046170 -0.521161
5.081024 -6.998565 1.996666
5.693016 -7.844398 -0.169184
5.636946 -7.769991 2.572144
2.826748 -3.906435 -1.292025
5.561144 -7.688066 0.165623
3.175515 -4.391640 -1.251178
3.634277 -5.027942 -1.205913
5.420127 -7.501385 0.809677
4.258712 -5.896169 -1.151983
5.051379 -6.996185 1.059532
4.278750 -5.928271 -0.897690
6.228560 -8.632936 1.686051
5.418386 -7.510014 -0.810200
5.372313 -7.448895 1.785209
5.809778 -8.058419 -0.520638
5.050866 -7.008354 1.994416
5.794178 -8.042697 -0.173023
5.788165 -8.037309 2.653931
2.814223 -3.917847 -1.292542
5.743048 -7.998186 0.171871
3.170393 -4.416947 -1.255227
5.755384 -8.021276 0.517393
3.617848 -5.042193 -1.206295
5.493774 -7.659492 0.824668
4.210480 -5.872470 -1.144475
4.950603 -6.907286 1.043445
4.237221 -5.914124 -0.893302
5.499071 -7.678189 1.495826
5.776130 -8.065039 -0.867897
5.335993 -7.453236 1.781775
5.778126 -8.073778 -0.520324
5.061522 -7.075074 2.008363
5.754435 -8.046608 -0.172674
5.684801 -7.952169 2.619249
2.802772 -3.930793 -1.293578
5.747591 -8.063779 0.172849
3.148171 -4.418464 -1.252527
5.701859 -8.005526 0.515091
3.601365 -5.056390 -1.206676
5.671541 -7.965902 0.855521
4.180792 -5.874257 -1.141972
4.914954 -6.908350 1.041008
4.202745 -5.909467 -0.890377
5.687417 -8.000015 1.554646
5.703441 -8.025521 1.913814
7.055811 -9.932163 -0.638499
7.001188 -9.858914 2.791643
5.757566 -8.110673 -0.173617
7.015360 -9.886180 3.248179
2.790150 -3.942129 -1.294095
3.128227 -4.423062 -1.250728
5.706163 -8.071045 0.518021
3.589360 -5.076946 -1.208584
5.716143 -8.088156 0.866502
4.146585 -5.869453 -1.138217
4.907987 -6.949787 1.044664
4.175223 -5.914371 -0.888915
5.153346 -7.302627 -0.781961
5.643705 -8.000462 1.903129
6.981966 -9.901236 -0.634940
6.953258 -9.864180 2.786244
5.744193 -8.151971 -0.174070
5.485636 -7.787921 2.552474
2.778593 -3.955006 -1.295130
3.119487 -4.443524 -1.253427
5.147905 -7.335609 0.469663
3.564849 -5.079802 -1.206295
5.392669 -7.687242 0.821530
4.123802 -5.880657 -1.137592
4.204675 -6.000440 -0.899640
4.887975 -6.978158 1.349404
5.124395 -7.315675 -0.781438
6.937053 -9.910819 -0.633998
5.536815 -7.913269 2.229715
6.924860 -9.900753 -0.210895
5.546975 -7.933682 2.593884
2.755241 -3.952485 -1.290990
3.104293 -4.456527 -1.253877
3.548451 -5.096056 -1.207058
5.683160 -8.164827 0.870337
4.084169 -5.869789 -1.132586
5.707113 -8.205346 1.227224
4.178123 -6.009291 -0.898665
4.907461 -7.060910 1.361919
5.127111 -7.376945 -0.785971
6.937241 -9.985101 2.363360
6.879035 -9.905009 -0.632009
6.848042 -9.864058 2.772297
5.706234 -8.222438 -0.174699
5.412148 -7.801580 2.544191
2.749122 -3.973199 -1.294613
6.970752 -10.078315 0.213897
3.090935 -4.470541 -1.254777
6.294439 -9.107294 0.580196
3.535105 -5.114872 -1.208584
5.670481 -8.207565 0.872778
4.045694 -5.858002 -1.127580
5.703248 -8.261156 1.232587
4.141335 -6.000966 -0.895252
6.159284 -8.928391 1.717963
5.104723 -7.399717 -0.786493
5.963902 -8.648397 2.042038
6.828549 -9.905940 -0.630544
6.781503 -9.841369 2.759250
5.692245 -8.263714 -0.175152
5.739859 -8.335952 2.711906
2.737423 -3.985956 -1.295648
5.597769 -8.153946 0.172639
3.074208 -4.479697 -1.254327
5.760174 -8.393652 0.533513
3.526114 -5.140132 -1.211637
2.144402 -3.128305 -0.600708
6.933353 -10.118329 1.506062
4.138311 -6.041589 -0.899152
6.127409 -8.945507 1.717338
5.038340 -7.358309 -0.780218
6.798612 -9.932842 2.339700
6.764606 -9.886858 -0.627822
5.058406 -7.395920 2.068650
5.612880 -8.206619 -0.173547
5.727448 -8.377266 2.719153
2.721318 -3.992294 -1.294613
8.501342 -12.471848 0.263462
3.068115 -4.502751 -1.257926
5.029242 -7.383660 0.468197
2.120359 -3.114165 -0.732325
2.140685 -3.145197 -0.602586
5.539685 -8.142226 1.209188
2.126667 -3.126946 -0.464322
4.830050 -7.104535 1.360667
5.762950 -8.479922 -0.897007
5.999799 -8.828435 2.074857
6.719438 -9.891064 -0.626671
6.662903 -9.811530 2.738104
6.714068 -9.890587 -0.208661
6.687459 -9.855090 3.191239
2.715643 -4.012496 -1.298236
2.100421 -3.105810 -0.865612
5.539240 -8.193739 0.518335
2.096826 -3.101661 -0.727746
5.360320 -7.932059 0.837567
2.108684 -3.121549 -0.596641
5.346816 -7.918034 1.173114
2.203478 -3.264332 -0.483578
5.269280 -7.809088 1.492072
2.102363 -3.116882 -0.328926
6.697909 -9.930058 2.328252
2.064527 -3.061940 -0.193538
5.786695 -8.585590 2.390330
6.673915 -9.905670 -0.208486
6.633593 -9.849531 3.181921
2.700918 -4.022422 -1.298236
8.420753 -12.540856 0.263671
2.080878 -3.100178 -0.862012
5.332556 -7.947661 0.501588
2.082163 -3.104434 -0.726601
2.089530 -3.117770 -0.594451
5.476077 -8.170808 1.207725
2.197594 -3.280250 -0.484796
5.373891 -8.024392 1.529616
2.065979 -3.086122 -0.324917
5.501908 -8.221755 1.922973
2.063285 -3.084427 -0.194480
5.682612 -8.498207 2.360187
2.055259 -3.073589 -0.064539
5.641556 -8.439995 2.720188
2.684718 -4.028611 -1.297201
2.065181 -3.101296 -0.860213
2.063699 -3.100244 -0.723929
2.210771 -3.322443 0.349146
2.065506 -3.105308 -0.590697
6.230857 -9.371096 1.381755
2.186656 -3.289935 -0.485040
5.365529 -8.072714 1.535248
2.205143 -3.319007 -0.348623
5.475348 -8.244183 1.923736
2.049192 -3.086618 -0.194166
5.685240 -8.566702 2.373683
2.064421 -3.110736 -0.065167
5.605653 -8.449978 2.717082
2.677033 -4.047625 -1.300307
2.058429 -3.112307 0.065132
2.037690 -3.082118 -0.853014
2.051782 -3.105790 -0.723548
2.172810 -3.290238 0.344962
2.047578 -3.100602 -0.588507
5.765579 -8.734005 1.284990
2.176827 -3.298825 -0.485284
5.372124 -8.144160 1.545260
2.120061 -3.215240 -0.336944
6.515744 -9.881644 2.300775
2.019160 -3.063380 -0.192282
5.708265 -8.663618 2.395279
2.042551 -3.101223 -0.064818
6.453600 -9.802281 3.144651
2.667838 -4.062940 -1.302377
2.050844 -3.124488 0.065237
2.016228 -3.072919 -0.848515
5.134024 -7.827707 0.490597
2.043625 -3.115860 -0.724311
2.149870 -3.279097 0.343045
2.036742 -3.107730 -0.588507
2.155511 -3.291458 -0.483090
5.330680 -8.143030 1.541505
2.047185 -3.127236 -0.327008
6.242559 -9.539631 2.216056
2.011734 -3.075423 -0.192596
5.698252 -8.714478 2.403827
2.019678 -3.089921 -0.064434
6.396097 -9.789170 3.133264
2.651530 -4.068991 -1.301342
2.030102 -3.116548 0.064923
2.009743 -3.086470 -0.850315
5.053281 -7.763559 0.485468
2.032737 -3.122975 -0.724311
2.142757 -3.293262 0.343742
2.025881 -3.114821 -0.588507
5.402578 -8.309711 1.216987
2.141845 -3.295633 -0.482603
5.485170 -8.443193 1.594693
2.031915 -3.127680 -0.326311
5.454320 -8.398918 1.946633
1.999900 -3.080752 -0.192492
5.890564 -9.077608 2.498307
2.004527 -3.090242 -0.064295
4.710719 -7.264969 2.320054
2.132717 -3.297941 -1.052358
2.013783 -3.115219 0.064748
1.995784 -3.088557 -0.848965
2.143033 -3.316430 0.206936
2.019693 -3.126753 -0.723548
2.118279 -3.280635 0.341650
2.013925 -3.120214 -0.588194
5.363853 -8.313507 1.214794
2.126024 -3.296416 -0.481628
5.131661 -7.956678 1.499581
2.005871 -3.111310 -0.323871
6.422544 -9.965837 2.304591
1.985888 -3.082677 -0.192178
5.763885 -8.950657 2.457815
1.985607 -3.083422 -0.064015
6.302130 -9.790245 3.119805
2.017898 -3.144406 -1.001112
1.989401 -3.100001 0.064295
1.988687 -3.100079 -0.850315
2.109880 -3.290265 0.204843
2.015122 -3.143701 -0.725837
2.099291 -3.276267 0.340430
1.999304 -3.120222 -0.586942
5.352314 -8.356322 1.218450
2.122574 -3.315150 -0.483334
5.161358 -8.064386 1.516476
1.992851 -3.114936 -0.323522
5.792729 -9.054357 2.089359
1.974579 -3.087563 -0.192073
5.669093 -8.867924 2.429921
1.971601 -3.085279 -0.063911
6.245038 -9.776367 3.108417
2.004345 -3.146193 -0.999559
1.973197 -3.098493 0.064120
1.971575 -3.097138 -0.847616
2.068359 -3.250429 0.201912
2.015226 -3.166930 -0.729654
2.090553 -3.286572 0.340779
1.990520 -3.130516 -0.587568
5.314594 -8.361551 1.216500
2.122699 -3.340970 -0.486015
5.700823 -8.976132 1.684174
2.122440 -3.341851 -0.346357
5.662177 -8.918721 2.053486
1.955228 -3.080946 -0.191236
5.598435 -8.825128 2.412825
1.959749 -3.090454 -0.063876
5.337939 -8.420987 2.671530
1.987158 -3.143372 -0.996453
1.967711 -3.113814 0.064295
1.960752 -3.104001 -0.847616
2.052735 -3.250874 0.201493
2.009400 -3.182245 -0.731562
2.068434 -3.277001 0.339036
1.985905 -3.147469 -0.589445
2.098320 -3.328209 -0.483090
5.420897 -8.601579 1.610337
1.983287 -3.146970 -0.325440
5.459391 -8.666011 1.990901
1.946590 -3.091133 -0.191445
6.134427 -9.745074 2.658472
1.950014 -3.098969 -0.063911
5.263254 -8.367618 2.648754
1.968987 -3.138834 -0.992830
1.960017 -3.125746 0.064399
1.955080 -3.119082 -0.849865
2.026529 -3.234324 0.200028
2.005577 -3.200886 -0.734233
2.049579 -3.272382 0.337816
1.975955 -3.156056 -0.589758
5.451969 -8.711436 1.261835
2.097218 -3.352342 -0.485528
5.558419 -8.888424 1.660396
2.050947 -3.280927 -0.338513
4.357230 -6.970319 1.597835
1.942138 -3.108071 -0.192073
6.090048 -9.749900 2.653972
1.948717 -3.121022 -0.064225
5.231967 -8.382661 2.647719
1.941140 -3.119785 -0.984548
1.950150 -3.134267 0.064434
1.951385 -3.137472 -0.853014
2.008899 -3.231201 0.199400
2.057046 -3.309931 -0.757512
2.033366 -3.273103 0.337118
1.969584 -3.171668 -0.591322
5.419434 -8.727041 1.261348
2.090738 -3.368075 -0.486746
5.716915 -9.213259 1.717338
2.051034 -3.306691 -0.340430
5.426207 -8.751574 2.001586
5.467216 -8.824593 2.396628
1.942023 -3.134605 -0.064364
6.026558 -9.731216 3.067006
1.928208 -3.123254 -0.983512
1.940750 -3.144797 0.064504
1.965451 -3.186067 -0.864262
1.993898 -3.233443 0.199086
2.077424 -3.368894 -0.769342
2.021929 -3.280180 0.337118
1.964719 -3.188614 -0.593200
2.074804 -3.368592 0.485771
2.080461 -3.379097 -0.487234
5.724524 -9.301442 1.729853
1.960114 -3.184874 -0.327183
5.389452 -8.760428 1.999297
6.001754 -9.763348 2.645874
1.933662 -3.146813 -0.064469
5.986807 -9.746656 3.064935
1.913258 -3.123377 -0.981442
1.936026 -3.161785 0.064714
2.045878 -3.342497 -0.904753
1.980515 -3.236976 0.198877
2.066677 -3.377800 -0.769724
2.018782 -3.300816 0.338513
1.966971 -3.217363 -0.597267
2.073384 -3.392752 0.488209
2.068653 -3.386338 -0.487234
5.236989 -8.576198 1.591565
1.946908 -3.188296 -0.326834
6.054394 -9.918689 2.258797
1.958873 -3.210409 -0.197097
5.941255 -9.740981 2.634177
1.939321 -3.180862 -0.065028
5.928619 -9.727902 3.052512
1.906357 -3.136639 -0.983512
1.928093 -3.173650 0.064818
2.049372 -3.374603 -0.911502
1.967696 -3.240112 0.198667
2.055892 -3.386672 -0.770105
2.010349 -3.312953 0.339036
1.995683 -3.290078 -0.609469
4.632521 -7.640171 1.097068
2.053732 -3.388445 -0.486502
5.689747 -9.387492 1.738613
1.920281 -3.169512 -0.324219
6.025836 -9.949839 2.261087
1.928002 -3.184764 -0.195108
5.899145 -9.748322 2.630578
1.936010 -3.199251 -0.065272
5.888330 -9.734285 3.048371
1.895396 -3.143275 -0.983512
1.928916 -3.198864 0.065202
2.041188 -3.386387 -0.912851
1.963589 -3.258935 0.199400
2.046083 -3.397191 -0.770868
2.000828 -3.323364 0.339384
2.018384 -3.352525 -0.619793
4.525273 -7.519422 1.077569
2.041462 -3.393536 -0.486259
5.184599 -8.621803 1.593442
1.993375 -3.316221 -0.338513
1.911259 -3.180869 -0.194480
5.850731 -9.741102 2.623379
1.920713 -3.199132 -0.065132
5.830455 -9.715025 3.035948
1.881986 -3.144570 -0.981959
1.917739 -3.205577 0.065202
2.037356 -3.406872 -0.916451
1.955276 -3.270913 0.199714
2.030777 -3.397217 -0.769342
1.991840 -3.333401 0.339733
2.009709 -3.364638 -0.620732
4.588551 -7.685161 1.099018
2.037742 -3.414278 -0.488209
5.140302 -8.616099 1.589062
1.989512 -3.334791 -0.339733
1.907303 -3.199530 -0.195213
5.794747 -9.724637 2.613482
1.909534 -3.205817 -0.065132
5.434782 -9.127794 2.846492
1.874944 -3.157765 -0.984030
1.914703 -3.226008 0.065481
2.025451 -3.413963 -0.916451
1.948940 -3.286307 0.200237
2.023913 -3.412728 -0.771250
1.984256 -3.347189 0.340430
2.000973 -3.376731 -0.621671
4.664888 -7.875341 1.123879
2.022777 -3.416246 -0.487477
1.876379 -3.170257 -0.322302
5.295267 -8.950241 2.021431
1.879856 -3.178662 -0.193538
5.651679 -9.560276 2.563992
1.906471 -3.226236 -0.065412
5.412712 -9.163344 2.851668
1.864890 -3.165955 -0.984548
1.913576 -3.249904 0.065830
2.021430 -3.434448 -0.920050
1.938470 -3.294811 0.200342
2.023935 -3.440077 -0.775829
1.990741 -3.385008 0.343568
1.998183 -3.399021 -0.624486
4.359791 -7.419212 1.056607
2.010840 -3.423286 -0.487477
1.863284 -3.173352 -0.321953
1.856620 -3.164532 -0.192282
5.693197 -9.707700 2.598185
1.880028 -3.206994 -0.064888
5.462738 -9.322189 2.895150
1.855777 -3.175781 -0.985583
1.904237 -3.260018 0.065900
2.015325 -3.451580 -0.922749
1.927963 -3.303283 0.200447
3.175718 -5.441127 -1.224612
1.974896 -3.385053 0.342871
2.004219 -3.436691 -0.630118
4.301875 -7.379506 1.048808
1.999878 -3.432000 -0.487721
1.862223 -3.197052 -0.323696
6.163211 -10.585205 2.380915
1.843553 -3.167542 -0.192073
5.639677 -9.693826 2.589187
1.860780 -3.199708 -0.064609
5.639874 -9.701956 3.006960
1.856306 -3.202296 -0.991795
1.896856 -3.273566 0.066040
2.761203 -4.767160 -1.271873
1.921425 -3.318635 0.200970
3.155721 -5.450480 -1.224231
5.114756 -8.837631 0.893346
3.286059 -5.680168 -1.039351
4.291990 -7.421973 1.052707
1.958083 -3.387401 -0.480409
1.844074 -3.191458 -0.322476
1.832485 -3.173958 -0.192073
5.592167 -9.689823 2.582888
1.842604 -3.194059 -0.064364
5.592463 -9.698154 2.999713
1.834524 -3.190334 -0.986101
1.888408 -3.285368 0.066145
2.754254 -4.793666 -1.276372
1.916792 -3.337445 0.201703
3.137654 -5.463165 -1.224612
4.653358 -8.105527 0.817695
3.252447 -5.667617 -1.034971
4.319394 -7.529892 1.065869
1.821034 -3.177132 -0.320385
1.821395 -3.180335 -0.192073
5.548629 -9.692372 2.578389
1.831444 -3.200471 -0.064364
5.535555 -9.677371 2.987290
2.429254 -4.258934 -1.313766
1.878909 -3.295414 0.066214
2.733644 -4.796479 -1.274573
33.184071 -58.248699 3.513313
3.119537 -5.475790 -1.224994
5.090398 -8.938913 0.899970
3.218962 -5.654902 -1.030590
4.342170 -7.631191 1.078056
1.865687 -3.280202 -0.463347
1.805439 -3.176856 -0.319687
1.809296 -3.184937 -0.191968
5.499365 -9.684568 2.571191
1.824210 -3.213801 -0.064504
5.496021 -9.686553 2.984184
2.412677 -4.266128 -1.313248
1.875269 -3.315878 0.066494
2.715926 -4.804295 -1.274123
4.273272 -7.562217 0.455218
3.109102 -5.504282 -1.228810
5.036052 -8.919343 0.896135
3.188505 -5.649459 -1.027462
4.301847 -7.622099 1.074644
1.873733 -3.321274 -0.468222
6.453602 -11.443957 2.080892
1.805101 -3.202231 -0.321605
1.798591 -3.193287 -0.192073
5.458097 -9.694470 2.568491
1.815923 -3.225376 -0.064609
5.448911 -9.682109 2.976937
2.402496 -4.282948 -1.315836
1.870928 -3.336682 0.066773
2.702111 -4.821017 -1.275922
3.089870 -5.515101 -1.228810
5.039933 -8.999447 0.902411
3.166836 -5.657107 -1.026836
4.242860 -7.582381 1.066844
6.434831 -11.504342 2.087775
1.904756 -3.406762 -0.341476
1.791329 -3.206520 -0.192492
5.393819 -9.659019 2.554094
1.824153 -3.266614 -0.065307
5.405664 -9.684201 2.971760
2.395984 -4.306502 -1.320495
2.692739 -4.841873 -1.279072
3.068692 -5.522420 -1.228047
3.136548 -5.646855 -1.023082
4.262020 -7.676243 1.078056
6.377385 -11.495641 2.082143
1.785527 -3.221177 -0.193015
5.350426 -9.656397 2.548696
1.794331 -3.239725 -0.064644
5.345628 -9.655688 2.957267
2.372354 -4.297511 -1.315318
6.204372 -11.243837 0.224159
2.674880 -4.849536 -1.278622
3.054154 -5.539443 -1.229573
4.990099 -9.054483 0.904502
3.109192 -5.643928 -1.020579
4.242858 -7.704984 1.080006
1.764347 -3.206684 -0.320210
1.770424 -3.220389 -0.192596
5.307301 -9.657935 2.544196
1.783974 -3.247721 -0.064679
5.293294 -9.640422 2.946914
2.359194 -4.309155 -1.316354
5.393250 -9.855055 0.196095
2.662612 -4.867392 -1.280871
3.032916 -5.546626 -1.228810
3.916889 -7.166217 0.714503
3.074319 -5.627010 -1.015573
1.812313 -3.321258 -0.331017
1.762040 -3.231810 -0.192910
5.266096 -9.662714 2.540597
1.772626 -3.253928 -0.064679
5.241134 -9.624907 2.936561
2.344137 -4.317364 -1.316354
5.353094 -9.863276 0.195886
2.642817 -4.871518 -1.279522
5.356462 -9.877705 0.588884
3.019151 -5.567533 -1.231100
4.949553 -9.131139 0.908686
3.047130 -5.623813 -1.013070
5.336653 -9.853483 1.375905
1.802252 -3.329029 -0.464810
5.331555 -9.852281 1.774280
1.764676 -3.260978 -0.324394
5.332621 -9.858363 2.178657
1.755498 -3.246725 -0.193434
5.216582 -9.651894 2.532949
1.782168 -3.298802 -0.065447
5.201997 -9.632945 2.933455
2.333632 -4.334024 -1.318942
6.406619 -11.903360 0.235957
2.627643 -4.884146 -1.280421
3.007137 -5.591871 -1.234153
4.908216 -9.130812 0.906943
3.018131 -5.617014 -1.009941
4.312226 -8.028802 1.119004
5.297132 -9.870831 1.774280
1.756108 -3.272384 -0.324917
5.285184 -9.852696 2.173315
1.741322 -3.247553 -0.193120
5.165369 -9.637408 2.524401
1.780085 -3.322630 -0.065796
5.170164 -9.654450 2.934490
2.319399 -4.343848 -1.319459
6.009115 -11.258802 0.222763
2.614248 -4.900166 -1.282221
6.212144 -11.648990 0.691881
2.980208 -5.588475 -1.231100
4.906304 -9.204150 0.912521
2.994790 -5.620542 -1.008690
4.190856 -7.868598 1.094630
1.769639 -3.324007 -0.462372
5.630128 -10.579819 1.898176
1.792410 -3.368196 -0.333806
5.700693 -10.716930 2.359544
1.734664 -3.262429 -0.193643
5.123465 -9.639894 2.520352
1.763785 -3.319993 -0.065621
5.120124 -9.641728 2.925173
2.302414 -4.348504 -1.318424
6.218598 -11.749844 0.232047
2.600772 -4.916152 -1.284021
2.959765 -5.597108 -1.230718
3.745690 -7.086337 0.701255
2.962233 -5.606509 -1.004309
6.221407 -11.780007 1.635731
1.767293 -3.347719 -0.464810
5.583944 -10.581937 1.895047
1.813186 -3.436105 -0.339907
1.724197 -3.270231 -0.193748
5.078881 -9.637032 2.514953
1.765234 -3.350899 -0.066110
5.068435 -9.625354 2.914820
2.288119 -4.358224 -1.318942
6.584549 -12.547038 0.247336
2.584500 -4.926925 -1.284470
5.739326 -10.941082 0.647501
2.940210 -5.607406 -1.230718
4.120495 -7.861717 0.776558
2.938977 -5.609816 -1.003058
4.755597 -9.081169 1.258667
1.803028 -3.445944 -0.340256
5.662131 -10.826056 2.374809
1.717398 -3.285079 -0.194271
5.032450 -9.626190 2.507754
1.769857 -3.386863 -0.066703
5.031122 -9.631835 2.911715
2.278116 -4.374355 -1.321530
6.546598 -12.575899 0.247475
2.567248 -4.933740 -1.284021
5.964838 -11.463231 0.677227
2.917069 -5.608417 -1.228810
4.090726 -7.868267 0.775860
2.914893 -5.609014 -1.001181
4.749249 -9.142692 1.265004
5.530025 -10.650293 1.900679
5.664173 -10.917966 2.390837
1.708334 -3.294303 -0.194480
4.998706 -9.639365 2.506855
1.780702 -3.435322 -0.067541
4.990267 -9.631312 2.906538
2.267144 -4.388752 -1.323601
2.551767 -4.943958 -1.284470
5.939439 -11.512383 0.678902
2.891176 -5.606350 -1.226139
4.022605 -7.800332 0.767842
2.885416 -5.597580 -0.997426
4.739816 -9.198977 1.270610
5.644715 -10.964592 1.953241
1.704130 -3.314456 -0.195318
4.943644 -9.615161 2.496057
5.053820 -9.833669 -0.192989
4.942492 -9.621179 2.898256
2.251924 -4.398751 -1.324118
2.534517 -4.955013 -1.284920
6.002675 -11.740356 0.691044
2.852739 -5.581946 -1.218506
4.003054 -7.832766 0.769585
2.864880 -5.608118 -0.997426
5.543828 -10.856938 1.496799
2.978980 -5.836500 -0.804581
5.694262 -11.161168 1.984528
1.707104 -3.347492 -0.328751
4.895983 -9.608907 2.489758
4.997778 -9.812924 -0.192221
4.896679 -9.618570 2.892044
2.230542 -4.396638 -1.321012
2.518101 -4.967745 -1.285820
2.831463 -5.588367 -1.217743
5.772891 -11.398703 1.117859
2.835385 -5.600956 -0.994298
4.733203 -9.353919 1.287184
3.015806 -5.962520 -0.820424
5.348502 -10.579058 1.877527
1.687319 -3.337428 -0.327183
6.165689 -12.200698 2.657206
1.705584 -3.376482 -0.198249
4.850192 -9.605912 2.484360
4.959976 -9.827605 -0.192151
4.843989 -9.601958 2.881691
2.218653 -4.411301 -1.323083
2.505995 -4.986952 -1.288520
5.601158 -11.151204 0.653990
2.808413 -5.591199 -1.216217
3.903991 -7.775742 0.761218
2.805184 -5.589633 -0.990543
5.512279 -10.988598 1.509474
3.019888 -6.022697 -0.827249
1.679230 -3.350422 -0.327880
5.994674 -11.965873 2.601490
1.705413 -3.405630 -0.199609
4.806163 -9.601872 2.478961
4.914904 -9.823399 -0.191732
4.791432 -9.580795 2.870303
2.208413 -4.429391 -1.326189
2.485096 -4.988692 -1.286720
5.544394 -11.134931 0.651897
2.776628 -5.576365 -1.210874
4.475173 -8.991522 0.878704
2.775097 -5.578167 -0.986789
5.488030 -11.036211 1.513374
2.984709 -6.004760 -0.823349
1.789863 -3.602496 -0.351935
5.949377 -11.979691 2.599963
4.799920 -9.669374 -0.565752
4.764823 -9.602880 2.474911
4.862813 -9.804667 -0.191034
4.754529 -9.590539 2.868233
2.187803 -4.426682 -1.323083
5.764102 -11.667897 0.227161
2.471119 -5.004326 -1.288520
4.163594 -8.435510 0.493005
2.750194 -5.571939 -1.207821
5.501587 -11.151206 1.087878
2.753861 -5.584278 -0.986163
3.867905 -7.846788 1.074156
2.987419 -6.063221 -0.829930
8.276375 -16.805002 2.966937
1.696291 -3.444283 -0.335898
5.930068 -12.046181 2.609885
4.756438 -9.666357 -0.564600
4.714072 -9.584480 2.465914
4.823267 -9.810814 -0.190825
4.715910 -9.596674 2.865127
2.179137 -4.448171 -1.327224
6.374116 -13.016937 0.252990
2.455349 -5.016422 -1.289419
6.074326 -12.410203 0.724120
2.718649 -5.556816 -1.202478
5.569413 -11.388702 1.109144
2.722207 -5.569010 -0.981783
5.611283 -11.484479 1.569433
2.976882 -6.092714 -0.832611
8.362771 -17.123455 3.018247
4.053756 -8.304074 -0.808457
5.371417 -11.008161 2.380915
4.712161 -9.661361 -0.563344
4.670302 -9.575539 2.459615
4.778437 -9.801589 -0.190336
4.677290 -9.598367 2.860986
2.160998 -4.448422 -1.325154
6.320433 -13.016418 0.252571
2.441253 -5.029796 -1.290769
5.436626 -11.201265 0.652525
2.696780 -5.558734 -1.200952
2.695108 -5.560231 -0.978654
5.574899 -11.506598 1.569921
2.970510 -6.131135 -0.836511
4.341957 -8.965789 1.577798
4.065261 -8.398170 -0.816301
5.410131 -11.181432 2.414497
4.665314 -9.646366 -0.561565
4.635129 -9.583955 2.457815
4.730243 -9.784975 -0.189708
4.621900 -9.565120 2.846492
2.147911 -4.459044 -1.326189
6.294584 -13.073341 0.253269
2.425406 -5.039619 -1.291219
2.675778 -5.562339 -1.199807
5.861562 -12.190315 1.183401
2.669809 -5.554894 -0.976151
4.977969 -10.361962 1.411491
2.969933 -6.182106 -0.842117
4.039976 -8.416995 -0.816824
5.782348 -12.052490 2.598437
4.628118 -9.650979 -0.560937
4.592368 -9.576430 2.451967
4.683939 -9.771754 -0.189149
4.585982 -9.571684 2.843904
2.138940 -4.478345 -1.329812
5.379338 -11.267892 0.217946
2.409519 -5.049393 -1.291669
2.649711 -5.555234 -1.196373
2.649674 -5.560151 -0.975525
5.092118 -10.690248 1.453901
2.894782 -6.077223 -0.826518
4.007761 -8.421350 -0.815952
5.760901 -12.110602 2.606833
4.582366 -9.637415 -0.559262
4.553055 -9.575768 2.447917
4.639491 -9.761949 -0.188661
4.547585 -9.572878 2.839763
2.123338 -4.487901 -1.330330
8.068560 -17.061457 0.329432
2.390163 -5.056429 -1.291219
5.069889 -10.730278 0.621961
2.622622 -5.550707 -1.193320
5.041193 -10.674372 1.032796
2.624218 -5.559107 -0.973648
5.115588 -10.841691 1.471938
2.826546 -5.993135 -0.813600
8.021434 -17.015570 2.979451
3.865573 -8.199898 -0.793117
5.746603 -12.195570 2.620571
4.541055 -9.641497 -0.558529
4.500482 -9.559680 2.439369
4.600272 -9.776072 -0.188591
4.497639 -9.562300 2.831481
2.108480 -4.497035 -1.330848
5.430949 -11.588568 0.223391
2.376632 -5.073565 -1.293469
2.588246 -5.527825 -1.186450
5.395771 -11.529211 1.113676
2.591405 -5.539605 -0.968642
3.686995 -7.885217 1.068794
2.798885 -5.988578 -0.811650
5.226337 -11.187515 1.955744
3.822592 -8.182653 -0.790154
5.449820 -11.671220 2.503796
4.496392 -9.633760 -0.557169
4.463789 -9.568268 2.437570
4.550905 -9.759449 -0.187962
4.459335 -9.567435 2.828375
2.090327 -4.499112 -1.329295
5.425840 -11.683629 0.224857
2.360548 -5.085366 -1.294368
5.378168 -11.591568 0.669691
2.568934 -5.536826 -1.186450
4.933022 -10.637005 1.025823
2.573713 -5.552201 -0.969268
4.889557 -10.552933 1.428065
2.798820 -6.043344 -0.817743
5.187253 -11.205690 1.955744
3.250809 -7.022514 -0.677026
5.418941 -11.711553 2.508375
4.456028 -9.634895 -0.556331
4.419734 -9.560795 2.431721
4.506747 -9.753491 -0.187544
4.412951 -9.554882 2.820092
2.077841 -4.513400 -1.331365
5.339046 -11.602585 0.222937
2.349297 -5.107738 -1.297968
5.112420 -11.120309 0.641430
2.544672 -5.535057 -1.184161
5.182042 -11.276936 1.085786
2.541125 -5.532431 -0.964262
4.877539 -10.624058 1.435377
2.683323 -5.847399 -0.789957
5.442942 -11.866522 2.067751
3.224614 -7.030197 -0.676677
5.391119 -11.758950 2.514481
4.412385 -9.628604 -0.555075
4.383086 -9.569077 2.429921
4.469342 -9.761891 -0.187404
4.361083 -9.529824 2.808187
2.066884 -4.531171 -1.334471
5.317594 -11.662999 0.223740
2.329029 -5.110588 -1.296618
5.000712 -10.978141 0.632218
2.522079 -5.536759 -1.182634
4.871852 -10.700199 1.028612
2.526707 -5.552054 -0.966139
4.851930 -10.666317 1.438790
2.652215 -5.833238 -0.786789
5.293605 -11.648063 2.026452
5.304568 -11.677600 2.493110
4.363885 -9.611212 -0.553191
4.337577 -9.557701 2.423173
4.418719 -9.741011 -0.186706
4.319814 -9.527395 2.803010
2.052646 -4.541880 -1.335506
5.192882 -11.495606 0.220180
2.311977 -5.120462 -1.297068
5.000155 -11.079270 0.637033
2.496276 -5.531213 -1.179581
4.806616 -10.655389 1.022685
2.508935 -5.564442 -0.966765
5.261635 -11.674952 1.572358
2.627759 -5.833410 -0.785570
5.183165 -11.511566 1.999546
3.869115 -8.593122 -0.824493
4.320477 -9.604529 -0.551935
4.293000 -9.547901 2.416874
4.374853 -9.734487 -0.186287
4.283364 -9.535367 2.800940
2.040727 -4.557832 -1.338094
5.270349 -11.776499 0.225206
2.293294 -5.126723 -1.296618
5.178301 -11.581656 0.664876
2.470544 -5.525555 -1.176528
2.578119 -5.771563 -1.001181
5.215994 -11.682371 1.570896
2.688281 -6.023824 -0.809944
5.648315 -12.662522 2.196027
3.802573 -8.524696 -0.816649
5.550695 -12.449520 2.649574
4.282047 -9.608605 -0.551307
4.247752 -9.536126 2.410126
4.334339 -9.735085 -0.186008
4.238271 -9.523787 2.793175
2.020888 -4.556099 -1.335506
5.232452 -11.802136 0.225345
2.280122 -5.145387 -1.299317
2.443289 -5.516195 -1.172712
5.206371 -11.759923 1.125181
2.570747 -5.809430 -1.006187
5.152699 -11.649675 1.564071
2.776399 -6.280090 -0.843092
5.179323 -11.720927 2.029581
3.812252 -8.627214 -0.825191
5.305732 -12.012665 2.552643
4.240414 -9.605223 -0.550260
4.205785 -9.531283 2.405177
4.298717 -9.746496 -0.185938
4.194871 -9.515543 2.786446
2.004195 -4.561357 -1.334989
2.266063 -5.162236 -1.301567
5.185592 -11.818710 0.676390
2.420864 -5.517498 -1.171186
5.208499 -11.876556 1.134593
2.538556 -5.791231 -1.001494
5.086511 -11.609406 1.556272
2.726589 -6.226100 -0.834561
3.795696 -8.671498 -0.828154
5.263769 -12.031112 2.552643
4.200458 -9.605327 -0.549423
4.165464 -9.529837 2.401128
4.240652 -9.706469 -0.184891
4.150806 -9.505342 2.779199
1.994429 -4.582495 -1.339130
2.244145 -5.161180 -1.299317
5.077433 -11.682874 0.667598
2.400024 -5.522314 -1.170422
2.512032 -5.785560 -0.998991
4.475370 -10.312329 1.380292
2.725379 -6.282929 -0.840899
5.546838 -12.793471 2.208542
3.685357 -8.500069 -0.810548
5.156164 -11.898098 2.520587
4.152614 -9.586942 -0.547539
4.127529 -9.533588 2.398428
4.214686 -9.739565 -0.185240
4.117601 -9.519773 2.779199
1.978420 -4.589429 -1.339130
2.231511 -5.181510 -1.302467
5.053995 -11.740885 0.669900
2.377629 -5.523445 -1.168896
7.350770 -17.084711 1.627198
2.500406 -5.814256 -1.002432
4.437779 -10.324241 1.379805
2.696378 -6.275990 -0.838705
5.519292 -12.852688 2.215425
3.693398 -8.600758 -0.818915
4.112824 -9.586694 -0.546701
4.085008 -9.526446 2.393029
4.180664 -9.754216 -0.185240
4.080542 -9.525209 2.776611
1.964664 -4.601638 -1.340683
2.211881 -5.185683 -1.301567
4.989483 -11.703337 0.666760
2.347555 -5.506427 -1.163553
4.794857 -11.252269 1.070098
2.489384 -5.844757 -1.006187
4.925784 -11.570712 1.544085
2.670568 -6.276230 -0.837486
3.671152 -8.631930 -0.820658
5.091409 -11.977166 2.529746
4.073087 -9.586287 -0.545864
4.044113 -9.522710 2.388530
4.146588 -9.768751 -0.185240
4.040476 -9.523388 2.771952
1.947084 -4.604909 -1.339647
2.195283 -5.196962 -1.302467
5.365661 -12.702296 0.722655
2.324501 -5.505545 -1.161645
4.329496 -10.259339 0.974227
2.924989 -6.934545 -1.192031
3.651053 -8.668563 -0.822924
5.008435 -11.897156 2.509138
4.033403 -9.585718 -0.545027
4.004805 -9.522397 2.384931
4.075412 -9.690282 -0.183495
3.995400 -9.504680 2.762635
1.930252 -4.609895 -1.339130
5.026379 -12.004174 0.227161
2.184056 -5.218595 -1.306066
5.153264 -12.319274 0.699836
2.299211 -5.499135 -1.158592
4.940510 -11.822258 1.120997
2.905785 -6.953320 -1.193595
4.387848 -10.504938 1.397841
3.518755 -8.428377 -1.121442
3.607732 -8.649995 -0.819961
3.992372 -9.576920 -0.543771
3.964209 -9.514040 2.379532
3.956258 -9.504299 2.758494
1.916435 -4.619840 -1.340165
5.005892 -12.073368 0.228138
2.162842 -5.218986 -1.304266
4.680683 -11.300168 0.641011
2.279459 -5.503101 -1.157829
2.415472 -5.837226 -1.000555
4.349637 -10.516521 1.397354
3.490830 -8.444277 -1.121929
3.569138 -8.637972 -0.817695
3.948248 -9.564951 -0.542305
3.923542 -9.509806 2.375033
3.914960 -9.498405 2.752800
1.904701 -4.637223 -1.343271
2.144611 -5.226503 -1.304266
5.112607 -12.465822 0.706117
2.261726 -5.514657 -1.158592
4.250828 -10.369744 0.980502
2.427285 -5.924222 -1.014008
4.892168 -11.946147 1.585033
3.468852 -8.474783 -1.124367
3.577439 -8.744425 -0.826585
3.907281 -9.560186 -0.541259
3.879270 -9.496384 2.368285
3.875211 -9.495914 2.748141
1.889230 -4.645633 -1.343789
5.191049 -12.771220 0.240634
2.132956 -5.250207 -1.308315
5.079581 -12.509500 0.707582
2.230644 -5.493415 -1.152486
4.217602 -10.391903 0.981199
2.375404 -5.855777 -1.000868
3.449687 -8.512596 -1.127779
3.569289 -8.816574 -0.832163
3.869391 -9.562659 -0.540631
3.838060 -9.489994 2.363336
3.939716 -9.746240 -0.183495
3.836251 -9.495054 2.743999
1.871469 -4.650734 -1.343271
2.117525 -5.264853 -1.310115
5.091011 -12.664286 0.715328
2.204640 -5.486980 -1.149433
2.355397 -5.868111 -1.001494
2.454648 -6.118468 -0.809456
3.639296 -9.080497 -0.855869
7.096756 -17.716249 3.709709
3.826892 -9.558234 -0.539584
3.796013 -9.485904 2.358837
3.835835 -9.585415 -0.180214
3.787300 -9.468925 2.732612
1.853794 -4.653649 -1.342236
3.813920 -9.579090 0.179969
2.101096 -5.279820 -1.311915
4.895386 -12.301557 0.693870
2.181119 -5.483696 -1.147144
4.910079 -12.351030 1.162832
2.356052 -5.929534 -1.010567
2.462966 -6.204916 -0.819693
3.672968 -9.257971 -0.871383
3.789089 -9.560394 -0.538956
3.758571 -9.488228 2.356138
3.778784 -9.539254 -0.179097
3.747113 -9.464127 2.727435
1.840373 -4.667280 -1.344306
3.758661 -9.532156 0.178852
2.082147 -5.283133 -1.311015
3.764665 -9.557159 0.538328
2.166280 -5.502237 -1.149433
3.760914 -9.557416 0.898576
2.337101 -5.939152 -1.010880
3.749836 -9.534150 1.257936
2.426399 -6.172405 -0.814331
3.751327 -9.552622 -0.897878
3.747878 -9.548737 -0.537595
3.722815 -9.489754 2.353438
3.741084 -9.541216 -0.178887
3.707711 -9.460960 2.722776
1.826291 -4.676957 -1.345341
3.718821 -9.528452 0.178538
2.066526 -5.297631 -1.312814
3.720400 -9.542330 0.536758
2.143743 -5.498415 -1.147144
3.713284 -9.528995 0.894741
2.331409 -5.985929 -1.017450
3.715094 -9.543482 1.257448
2.468180 -6.343637 -0.835780
3.713642 -9.549613 1.622851
2.762823 -7.104586 -0.666916
3.707688 -9.539231 1.989375
3.702229 -9.530113 -0.535816
3.682614 -9.484525 2.348939
3.708479 -9.556082 -0.178922
3.675362 -9.475647 2.723294
1.814133 -4.694115 -1.348447
3.684097 -9.537645 0.178468
2.050828 -5.312084 -1.314614
3.681314 -9.540352 0.535920
2.117468 -5.487549 -1.143327
3.682867 -9.549334 0.895438
2.303396 -5.975599 -1.014321
3.671766 -9.530459 1.254036
2.446735 -6.354065 -0.836024
3.673190 -9.544082 1.619723
3.674768 -9.548182 -0.895089
3.668728 -9.537457 1.986322
3.663206 -9.528064 -0.534978
3.641098 -9.475492 2.343540
3.660760 -9.531633 -0.178224
3.635340 -9.470383 2.718118
1.794285 -4.691397 -1.345859
3.644355 -9.533636 0.178154
2.032969 -5.321030 -1.315064
3.641578 -9.536350 0.534978
2.091998 -5.478400 -1.139893
3.636012 -9.526763 0.892126
2.285339 -5.990985 -1.015573
3.634941 -9.533943 1.252817
2.355975 -6.182635 -0.812381
3.632821 -9.538386 1.616594
3.626524 -9.521853 -0.891429
3.629827 -9.535525 1.983269
3.624243 -9.525859 -0.534141
3.603842 -9.477216 2.340841
3.616810 -9.516315 -0.177700
3.591283 -9.454119 2.709836
1.782685 -4.710279 -1.349483
3.603979 -9.527596 0.177805
2.018517 -5.339031 -1.317763
3.600503 -9.528453 0.533827
2.070780 -5.480159 -1.138748
3.592177 -9.511439 0.889511
2.257437 -5.980445 -1.012444
3.595332 -9.529857 1.250623
2.371499 -6.289266 -0.825299
3.585572 -9.514040 1.610337
3.584833 -9.512081 -0.889337
3.586138 -9.520579 1.977545
3.586044 -9.525368 -0.533408
3.565936 -9.476971 2.337691
3.577938 -9.513908 -0.177421
3.552822 -9.452131 2.705694
1.768942 -4.723710 -1.351553
3.565794 -9.527007 0.177561
1.997820 -5.340569 -1.316414
3.564421 -9.533480 0.533408
2.048887 -5.479999 -1.137222
3.556164 -9.516457 0.888814
2.216505 -5.934624 -1.003371
3.555102 -9.523752 1.248186
2.322469 -6.224970 -0.815793
3.548889 -9.517242 1.608772
3.546736 -9.511468 -0.888117
3.543970 -9.509124 1.972583
3.541618 -9.507881 -0.531733
3.523313 -9.463793 2.331393
3.537734 -9.507598 -0.177072
3.513747 -9.448179 2.701036
1.750429 -4.724421 -1.350000
3.523489 -9.515018 0.177107
1.981195 -5.352993 -1.317763
3.524194 -9.527132 0.532361
2.028384 -5.483435 -1.136458
3.517397 -9.513861 0.887420
2.163594 -5.855237 -0.988666
3.515648 -9.519344 1.245992
3.230091 -8.750837 -1.145328
3.512226 -9.520307 1.607208
3.511443 -9.518184 -0.887594
3.512114 -9.525122 1.973347
3.502882 -9.505193 -0.530896
3.481502 -9.452261 2.325544
3.497616 -9.501123 -0.176723
3.477410 -9.451323 2.698447
1.735922 -4.735943 -1.351553
3.485438 -9.514117 0.176863
1.965177 -5.367196 -1.319563
3.485425 -9.524370 0.531524
2.004508 -5.477576 -1.133787
3.479375 -9.512982 0.886200
2.108555 -5.768134 -0.972710
3.473542 -9.507319 1.242824
3.204972 -8.776977 -1.147278
3.469492 -9.506529 1.602828
3.472050 -9.513537 -0.886025
3.462697 -9.493057 1.964188
3.464208 -9.502351 -0.530059
3.444484 -9.453370 2.322845
3.458955 -9.498242 -0.176444
3.441754 -9.456141 2.696377
1.718721 -4.740159 -1.351035
3.444031 -9.503665 0.176444
1.947758 -5.377687 -1.320463
3.444000 -9.513944 0.530268
1.979361 -5.467926 -1.130352
3.440047 -9.508207 0.884631
2.113262 -5.844192 -0.984286
3.442358 -9.524986 1.243555
3.175663 -8.791844 -1.147766
3.428907 -9.498144 1.599386
3.457085 -9.576198 -0.890732
3.428874 -9.503240 1.963806
3.428986 -9.508750 -0.529745
3.401552 -9.437838 2.316096
3.420358 -9.495208 -0.176165
3.399565 -9.442651 2.689130
1.702165 -4.746129 -1.351035
3.404089 -9.496803 0.176095
1.931602 -5.391792 -1.322262
3.407403 -9.516505 0.529745
1.958940 -5.471105 -1.129589
3.400123 -9.501399 0.882888
2.059586 -5.758533 -0.968642
3.398397 -9.507037 1.239655
2.179228 -6.099763 -0.795319
3.392411 -9.500753 1.597822
3.390809 -9.496265 -0.882190
3.386442 -9.489264 1.958464
3.389735 -9.503730 -0.528803
3.364662 -9.438640 2.313397
3.381152 -9.490135 -0.175850
3.359453 -9.434441 2.683436
1.690108 -4.764787 -1.354659
3.366241 -9.495435 0.175850
1.910818 -5.392991 -1.320913
3.369496 -9.515162 0.529012
1.937208 -5.470507 -1.128063
3.363612 -9.503819 0.882016
2.091514 -5.912809 -0.993359
3.354604 -9.488895 1.235755
2.198925 -6.223378 -0.810431
3.352650 -9.493911 1.594693
3.352334 -9.493014 -0.880796
3.346110 -9.480663 1.954266
3.347238 -9.489135 -0.527337
3.327806 -9.439300 2.310697
3.346676 -9.498109 -0.175781
3.319442 -9.426066 2.677742
1.681778 -4.794356 -1.361388
3.327782 -9.492031 0.175571
1.892626 -5.401467 -1.321362
3.323719 -9.491051 0.527023
1.914207 -5.466118 -1.125773
3.326469 -9.504219 0.880970
2.089775 -5.974147 -1.002432
3.317531 -9.489304 1.234293
2.227608 -6.375313 -0.829199
3.314929 -9.492501 1.592503
3.314577 -9.491491 -0.879576
3.311702 -9.488579 1.953503
3.308832 -9.485675 -0.526500
3.285214 -9.423257 2.303949
3.308237 -9.494626 -0.175501
3.283979 -9.430298 2.675671
1.667565 -4.807498 -1.363459
3.290045 -9.490363 0.175327
1.876949 -5.417248 -1.323612
3.285994 -9.489384 0.526290
1.891261 -5.461636 -1.123483
3.286104 -9.495062 0.879053
1.975925 -5.712578 -0.957379
3.281792 -9.493323 1.233318
2.160611 -6.253588 -0.812381
3.275328 -9.485343 1.589374
3.277524 -9.491704 -0.878530
3.274078 -9.487089 1.950831
3.270490 -9.482062 -0.525662
3.244680 -9.412558 2.298550
3.264653 -9.475864 -0.174943
3.244750 -9.423438 2.670495
0.392325 -1.143933 -0.324041
3.253005 -9.490440 0.175117
1.862449 -5.436671 -1.326761
3.249614 -9.491348 0.525767
1.870913 -5.464489 -1.122720
3.245199 -9.483853 0.876961
1.945745 -5.689535 -0.952373
3.244782 -9.493450 1.231856
2.106684 -6.167166 -0.800194
3.233263 -9.470547 1.584994
3.234072 -9.472918 -0.875741
3.233333 -9.476163 1.946252
3.233505 -9.482079 -0.525034
3.212432 -9.425672 2.299000
3.227043 -9.473953 -0.174699
3.201876 -9.405446 2.662213
0.384608 -1.134318 -0.320936
3.214082 -9.484694 0.174803
1.846585 -5.452369 -1.329011
3.210702 -9.485607 0.524825
