# This PCD file was generated using the MATLAB® pcwrite function
# from Computer Vision Toolbox®.
# .PCD v.7 - Point Cloud Data file format
VERSION .7
FIELDS x y z
SIZE 4 4 4
TYPE F F F
COUNT 1 1 1
WIDTH 1652
HEIGHT 1
VIEWPOINT 0 0 0 1 0 0 0
POINTS 1652
DATA ascii
2.007433 -8.361557 -0.752328
2.244558 -9.356446 1.870310
2.242200 -9.353815 -0.504100
2.228806 -9.305110 2.209019
2.240269 -9.360174 -0.167997
2.221100 -9.287241 2.558685
2.225101 -9.361735 0.167962
2.221431 -9.360822 0.504205
1.625048 -6.853060 0.616191
1.809469 -7.636729 -1.243028
1.639122 -6.923179 0.873560
1.919431 -8.113435 -1.023703
1.641873 -6.945613 1.130396
2.033694 -8.603127 -0.773420
1.439236 -6.093147 1.216980
2.208616 -9.357697 -0.503891
2.195418 -9.309040 2.208120
2.203455 -9.350420 -0.167683
2.187781 -9.291177 2.557650
2.190585 -9.361657 0.167822
1.561503 -6.678469 0.359443
2.185398 -9.361580 0.841053
1.549462 -6.642656 -1.080337
2.183602 -9.368650 1.181158
1.865883 -8.011818 -1.010053
2.177560 -9.350112 1.520543
1.915141 -8.229828 -0.739255
2.172514 -9.343205 1.864586
2.170968 -9.343950 -0.502739
1.486890 -6.404719 1.517970
2.171078 -9.351831 -0.167578
2.153904 -9.285208 2.554026
2.155038 -9.349384 0.167473
1.553858 -6.752001 0.363107
2.147354 -9.345849 0.838961
1.536272 -6.686262 -1.086594
2.151634 -9.371971 1.180670
1.870373 -8.153399 -1.027115
2.141820 -9.344178 1.518353
1.595838 -6.967797 1.389471
2.139078 -9.347203 -0.502530
1.468250 -6.421013 1.520669
2.135749 -9.347656 -0.167369
2.116319 -9.270069 2.547815
1.609707 -7.096619 0.127019
2.121394 -9.367616 0.503367
1.703897 -7.530140 0.675457
1.502034 -6.643415 -1.078772
2.111470 -9.346507 1.176527
1.797756 -7.964305 -1.002497
2.108753 -9.349670 1.518040
2.136220 -9.479156 -0.850117
2.104551 -9.338626 1.860770
2.100734 -9.329283 -0.501169
2.089605 -9.287425 2.197772
2.100474 -9.343349 -0.167159
1.449280 -6.451958 1.771875
1.667679 -7.473015 0.133651
2.078594 -9.345055 0.837567
1.477245 -6.646948 -1.078459
2.077109 -9.346069 1.175552
1.791891 -8.069364 -1.014928
1.376083 -6.201985 1.006187
1.877584 -8.469234 -0.758952
2.066062 -9.327107 1.856953
2.063937 -9.325219 -0.500541
1.446250 -6.539813 1.546314
2.066121 -9.342813 -0.167020
2.049050 -9.273300 2.544709
2.048954 -9.342498 0.166950
2.045336 -9.341585 0.501169
2.045962 -9.352253 0.837567
1.469219 -6.721537 -1.089723
2.041145 -9.345862 1.174577
1.717018 -7.868355 -0.988848
2.034221 -9.329781 1.512408
1.890453 -8.670403 -0.776383
1.412078 -6.481807 1.289487
2.029249 -9.322610 -0.500018
2.018123 -9.279289 2.192373
1.514662 -6.970242 -0.124505
2.015048 -9.280747 2.544709
2.015065 -9.343730 0.166845
2.012296 -9.346715 0.501064
2.009532 -9.341807 0.835998
1.448654 -6.740144 -1.091913
2.007677 -9.349049 1.174089
1.735767 -8.089744 -1.015903
2.000813 -9.332962 1.511783
1.808807 -8.437330 -0.754943
2.000898 -9.341304 1.856953
1.995859 -9.325729 -0.499808
1.983683 -9.276749 2.190123
1.991275 -9.320203 -0.166356
1.977800 -9.265053 2.538497
1.976631 -9.323320 0.166356
1.977177 -9.341958 0.500436
1.973614 -9.333171 0.834603
1.415725 -6.700707 -1.084717
1.971749 -9.340461 1.172139
1.689084 -8.008348 -1.004935
1.967409 -9.336022 1.511157
1.862745 -8.839355 -0.790328
1.960187 -9.309810 1.849321
1.962472 -9.328732 -0.499599
1.948484 -9.270267 2.186974
1.956673 -9.317312 -0.166182
1.943463 -9.262447 2.535909
1.941628 -9.318417 0.166147
1.942113 -9.337070 0.499808
1.941429 -9.341953 0.834778
1.420438 -6.840997 -1.106618
1.936714 -9.335626 1.170677
1.663133 -8.023913 -1.006153
1.331533 -6.429726 1.039976
1.833090 -8.851657 -0.790851
1.925292 -9.305059 1.847031
1.925853 -9.315966 -0.498552
1.918082 -9.286554 2.189224
1.922522 -9.316253 -0.166042
1.911119 -9.269175 2.535909
1.411361 -6.887817 0.122725
1.910740 -9.341502 0.499704
1.381938 -6.768251 -1.094103
1.295097 -6.348589 0.795563
1.630570 -8.000208 -1.002497
1.297984 -6.374102 1.030277
1.757610 -8.631216 -0.770631
1.894816 -9.313316 1.847413
1.893359 -9.314471 -0.498134
1.879132 -9.252759 2.179776
1.890027 -9.314736 -0.165903
1.881522 -9.281141 2.537462
1.875788 -9.319654 0.165937
1.874187 -9.328535 0.498657
1.585284 -7.897697 0.704741
1.355974 -6.761414 -1.092226
1.610036 -8.042833 -1.007128
1.863809 -9.318984 1.505213
1.725127 -8.625578 -0.769585
1.289489 -6.453258 1.279184
1.860051 -9.317107 -0.497924
1.847203 -9.261172 2.180226
1.854765 -9.307549 -0.165658
1.843079 -9.257338 2.529180
1.840917 -9.314375 0.165728
1.838520 -9.319344 0.497820
1.561559 -7.922730 0.706484
1.327784 -6.742847 -1.088471
1.268372 -6.447073 0.806775
1.591907 -8.099048 -1.013466
1.828604 -9.311865 1.503023
1.846656 -9.403792 -0.838438
1.827861 -9.316686 1.845505
1.824444 -9.307863 -0.497087
1.810745 -9.246528 2.175277
1.821880 -9.312006 -0.165623
1.806307 -9.240963 2.522968
1.805347 -9.305039 0.165449
1.805598 -9.323744 0.497715
1.803736 -9.322843 0.830769
1.296741 -6.708652 -1.082214
1.802920 -9.336102 1.167508
1.557985 -8.075318 -1.009809
1.797583 -9.325948 1.504274
1.822492 -9.455176 -0.842447
1.789760 -9.294091 1.839780
1.790809 -9.308291 -0.496773
1.778458 -9.252791 2.175277
1.788610 -9.314380 -0.165554
1.773674 -9.245315 2.522450
1.772106 -9.307357 0.165379
1.772431 -9.317907 0.497087
1.767837 -9.311466 0.829200
1.274052 -6.717019 -1.082839
1.251421 -6.604000 0.825299
1.584805 -8.371325 -1.046127
1.761135 -9.302746 1.499581
1.780960 -9.416455 -0.838438
1.757308 -9.300282 1.839780
1.754602 -9.294859 -0.495726
1.745427 -9.255114 2.174377
1.757712 -9.320259 -0.165554
1.741217 -9.241653 2.519862
1.739395 -9.303353 0.165204
1.385614 -7.425460 0.395869
1.197983 -6.432401 0.572439
1.247792 -6.699844 -1.079398
1.734247 -9.320835 1.164096
1.569370 -8.442891 -1.054414
1.728292 -9.306894 1.499268
1.754984 -9.459833 -0.841750
1.190363 -6.416374 1.268498
1.722314 -9.292772 -0.495308
1.134991 -6.129828 1.439237
1.296695 -7.009993 -0.124436
1.708596 -9.245774 2.519345
1.705106 -9.299533 0.165030
1.701944 -9.300585 0.495517
1.183094 -6.471616 0.575576
1.226526 -6.715819 -1.081275
1.698850 -9.311209 1.162146
1.512125 -8.295990 -1.035402
1.689777 -9.279831 1.493949
1.706264 -9.379654 -0.834080
1.691502 -9.298508 1.837109
1.688437 -9.290867 -0.494889
1.170327 -6.446290 1.512571
1.686892 -9.300822 -0.164995
1.672525 -9.230773 2.513651
1.672281 -9.303460 0.164995
1.182099 -6.589625 0.350860
1.664966 -9.300050 0.826585
1.196339 -6.689157 -1.076269
1.664240 -9.305358 1.160684
1.464653 -8.197647 -1.022484
1.658417 -9.291508 1.494888
1.654626 -9.279634 -0.824668
1.655688 -9.294980 1.835201
1.652974 -9.289128 -0.494470
1.639205 -9.221080 2.162230
1.650917 -9.286965 -0.164646
1.636914 -9.217535 2.508474
1.638517 -9.311497 0.165030
1.146539 -6.528997 0.347406
1.629739 -9.290104 0.825191
1.177074 -6.716641 -1.080024
1.350791 -7.715827 0.961793
1.465033 -8.376993 -1.044177
1.463122 -8.374677 -0.743787
1.319446 -7.560085 1.491745
1.621567 -9.300743 -0.494784
1.166635 -6.698318 1.569708
1.616867 -9.292954 -0.164646
1.602458 -9.219666 2.507439
1.277194 -7.409585 0.131242
1.109522 -6.450289 0.343010
1.597299 -9.295736 0.825191
1.171000 -6.821948 -1.096293
1.014527 -5.916568 0.737066
1.445502 -8.438797 -1.051245
1.587554 -9.277825 1.490821
1.461771 -8.542733 -0.758255
1.585466 -9.275351 1.829095
1.584721 -9.280753 -0.493423
1.085904 -6.366176 1.490976
1.583074 -9.290657 -0.164506
1.567996 -9.211872 2.503816
1.565817 -9.277357 0.164227
1.565651 -9.296142 0.494051
1.294780 -7.696033 0.682778
0.089050 -0.529872 -0.085100
1.373140 -8.179255 1.018340
1.424573 -8.494693 -1.057582
1.556465 -9.291102 1.492072
1.410217 -8.418094 -0.746750
1.555022 -9.292446 1.831385
1.550341 -9.274408 -0.492795
1.538061 -9.210831 2.155931
1.553596 -9.313878 -0.164821
1.534561 -9.209667 2.501745
1.533750 -9.284739 0.164262
1.528643 -9.273961 0.492586
1.529452 -9.288968 0.823622
1.304799 -7.933197 -1.273377
1.526091 -9.288779 1.155809
1.396198 -8.507450 -1.058557
1.518911 -9.265290 1.487066
1.365030 -8.326623 -0.738209
1.519721 -9.280380 1.827950
1.152655 -7.046550 -0.374202
1.504955 -9.210373 2.154581
1.289468 -7.900241 -0.139724
1.501471 -9.209247 2.500192
1.499096 -9.276218 0.164018
1.495945 -9.277269 0.492481
1.128862 -7.008554 0.621072
1.282747 -7.972809 -1.279008
1.492398 -9.286210 1.154834
1.365549 -8.506391 -1.057826
1.484370 -9.256882 1.484876
1.331539 -8.303795 -0.735769
1.485763 -9.275936 1.826042
1.485240 -9.283033 -0.492691
1.473104 -9.217495 2.155031
1.481915 -9.283029 -0.164088
0.954599 -5.986519 1.624348
1.047203 -6.626746 0.117106
1.462306 -9.274543 0.492063
1.141277 -7.246658 0.641815
1.264118 -8.035779 -1.288394
1.255983 -7.993160 0.993479
1.330923 -8.479729 -1.053926
1.100510 -7.019688 1.125390
1.293289 -8.249342 -0.730539
1.450642 -9.263609 1.822608
1.452209 -9.284216 -0.492481
1.441522 -9.226432 2.155931
1.448269 -9.280241 -0.163948
0.933101 -5.985997 1.623313
1.029559 -6.665933 0.117734
1.431141 -9.287487 0.492481
1.426944 -9.270999 0.820658
1.240263 -8.067476 -1.292775
0.910210 -5.927486 0.736335
1.266104 -8.254751 -1.025409
1.140014 -7.441342 1.192344
1.255131 -8.192755 -0.725136
1.242199 -8.117801 1.596308
1.415266 -9.259612 -0.490911
1.413153 -9.267449 -0.163634
0.911037 -5.981578 1.621243
1.020604 -6.764398 0.119409
1.390361 -9.269918 1.150934
1.194343 -7.972496 -0.989823
1.385306 -9.258244 1.482686
1.213848 -8.112356 -0.717640
1.009272 -6.753197 1.327267
1.386180 -9.286226 -0.492063
1.371040 -9.195794 2.146483
1.381384 -9.276280 -0.163704
1.369049 -9.204473 2.493463
1.065472 -7.232831 0.127612
0.938818 -6.388525 0.338404
0.907641 -6.183871 0.546815
0.077934 -0.531620 -0.085100
1.053150 -7.192716 0.892571
1.161910 -7.945189 -0.985923
1.351553 -9.253249 1.481122
1.157879 -7.927283 -0.700907
1.350439 -9.256923 1.818410
1.155055 -7.927299 -0.419839
0.874753 -6.010906 1.402345
1.344394 -9.249384 -0.163145
1.337467 -9.213018 2.494498
1.332709 -9.271277 0.163494
1.036428 -7.228051 0.382681
1.325263 -9.253878 0.817869
0.854826 -5.983856 0.742184
1.129122 -7.913824 -0.981536
1.033882 -7.255355 1.160744
1.007933 -7.073255 -0.625081
0.833471 -5.856273 1.149815
1.071725 -7.539761 -0.399114
0.881979 -6.212651 1.448685
1.317714 -9.293618 -0.163843
1.300423 -9.183202 2.485181
1.296728 -9.250129 0.163040
0.893650 -6.382900 0.337776
1.001680 -7.172731 0.633622
0.844887 -6.065448 0.751934
1.104226 -7.937377 -0.983973
1.290442 -9.275929 1.483312
1.004624 -7.230658 -0.638677
1.283622 -9.250567 1.815357
1.097217 -7.917365 -0.418897
0.933776 -6.746649 -0.118886
0.835885 -6.047153 1.635736
0.886856 -6.482622 0.114209
0.870285 -6.378065 0.337358
1.264119 -9.288568 0.820136
1.067790 -7.856226 0.973492
1.079501 -7.952798 -0.985436
0.795274 -5.866546 0.937668
0.961201 -7.099863 -0.626824
1.252675 -9.252827 1.814975
1.071492 -7.924918 -0.419106
0.850362 -6.297690 1.467131
0.909684 -6.745904 -0.118816
1.235307 -9.172695 2.480004
1.231887 -9.244865 0.162796
0.945367 -7.113610 0.376086
1.229379 -9.263083 0.817521
1.069012 -8.076378 1.000304
1.065261 -8.058852 -0.998110
0.930938 -7.052152 1.126641
1.047865 -7.948602 -0.701429
0.827265 -6.275238 1.230337
0.919731 -6.986047 -0.369283
1.203314 -9.152418 2.131186
1.215958 -9.261092 -0.163040
1.203029 -9.175036 2.479487
1.198065 -9.237210 0.162587
1.194410 -9.234297 0.487980
1.197202 -9.281359 0.818741
0.926690 -7.194088 0.890621
1.189083 -9.243843 -1.144353
0.844150 -6.571417 1.049363
1.184893 -9.236739 -0.814732
1.188927 -9.281028 1.818792
0.879420 -6.874467 -0.363212
1.169513 -9.154835 2.130736
1.180328 -9.239494 -0.162587
0.885703 -6.942832 1.875403
1.163951 -9.239556 0.162552
0.978831 -7.791983 0.411570
1.158846 -9.238035 0.814558
1.156564 -9.245968 1.144109
1.163069 -9.311172 -1.152153
0.811501 -6.505860 1.038412
0.076834 -0.616859 -0.054385
1.150214 -9.234468 1.808869
1.147790 -9.228131 -0.487352
1.137550 -9.158861 2.130736
0.812463 -6.550804 -0.115221
1.134732 -9.162320 2.473793
0.931696 -7.610011 0.133825
0.955256 -7.825090 0.413140
1.123535 -9.230354 0.813512
1.124282 -9.249949 1.144109
0.088971 -0.733075 -0.090671
0.807799 -6.665535 1.063442
0.073244 -0.605256 -0.053339
0.810185 -6.704823 1.312766
1.114199 -9.234259 -0.487457
0.821453 -6.818054 1.585455
0.784329 -6.509923 -0.114453
0.841998 -6.998860 1.888861
1.101032 -9.247265 0.162552
0.756014 -6.368482 0.336102
0.725388 -6.119619 0.539145
1.090108 -9.224055 1.140453
0.074908 -0.634795 -0.078484
0.660868 -5.608803 0.894492
0.073674 -0.625270 -0.055082
0.684743 -5.820173 1.139130
1.083784 -9.225812 -0.486829
0.799576 -6.816730 1.584555
0.757387 -6.466807 -0.113650
1.069872 -9.148725 2.468098
0.888825 -7.693649 0.135186
1.059420 -9.198486 0.485259
0.918894 -7.990615 0.703695
0.061290 -0.533795 -0.085100
1.057676 -9.225833 1.140210
0.072692 -0.635053 -0.078484
1.054903 -9.230109 1.471423
0.074658 -0.653236 -0.057523
1.049721 -9.199009 1.799711
0.848765 -7.449514 -0.392938
0.927760 -8.155494 1.894988
0.729619 -6.423712 -0.112847
1.037060 -9.144726 2.466028
0.859961 -7.678819 0.134872
0.871969 -7.810693 0.411884
0.703394 -6.310666 0.555531
0.067292 -0.604683 -0.096364
0.876403 -7.887861 0.974467
0.071788 -0.647141 -0.079946
0.745208 -6.728475 1.072202
0.071500 -0.645572 -0.056826
1.019979 -9.224082 1.803908
0.822975 -7.454417 -0.393043
1.007106 -9.136871 2.122188
0.703691 -6.394417 -0.112289
1.004711 -9.144448 2.464993
0.789165 -7.276215 0.127752
0.858810 -7.957217 0.700209
0.057562 -0.534210 -0.085100
0.702148 -6.527042 0.806044
0.069105 -0.643440 -0.079459
0.680440 -6.346067 1.010880
0.069671 -0.649779 -0.057174
0.864693 -8.077797 1.579135
0.984991 -9.216797 -0.485782
0.975414 -9.142269 2.122638
0.981066 -9.210488 -0.161679
0.970742 -9.128691 2.459816
0.788804 -7.517579 0.131940
0.965323 -9.230927 0.486410
0.832270 -7.972057 0.701255
0.055697 -0.534408 -0.085100
0.959775 -9.224556 1.138747
0.069319 -0.667371 -0.082384
0.956151 -9.221004 1.468294
0.068224 -0.657946 -0.057871
0.951717 -9.193874 1.796658
0.953019 -9.222165 -0.485887
0.943294 -9.143680 2.122188
0.796494 -7.733911 -0.135710
0.937883 -9.122415 2.457228
0.934637 -9.217324 0.161714
0.932694 -9.230266 0.486201
0.798040 -7.911479 0.695677
0.058185 -0.577839 -0.091983
0.661330 -6.579188 0.811894
0.067386 -0.671559 -0.082871
0.921989 -9.204629 1.465165
0.065133 -0.650250 -0.057174
0.919227 -9.193233 1.795894
0.918441 -9.201587 -0.484631
0.910599 -9.139160 2.120389
0.915554 -9.205173 -0.161470
0.904888 -9.114099 2.454122
0.901288 -9.208590 0.161505
0.897173 -9.199672 0.484422
0.661930 -6.799761 0.597714
0.058078 -0.597699 -0.095112
0.578184 -5.961049 0.735360
0.063511 -0.655983 -0.080921
0.780024 -8.071318 1.284327
0.062671 -0.648490 -0.057000
0.887131 -9.196386 1.795894
0.885741 -9.198772 -0.484317
0.876828 -9.122884 2.115890
0.689584 -7.187898 -0.126041
0.873253 -9.119125 2.454640
0.868950 -9.209689 0.161470
0.864868 -9.200758 0.484317
0.637260 -6.792112 0.596843
0.056728 -0.605766 -0.096364
0.748214 -8.004732 0.987142
0.061958 -0.664107 -0.081896
0.632245 -6.789627 1.080024
0.060592 -0.650689 -0.057174
0.855389 -9.203336 1.796658
0.682237 -7.354287 -0.387077
0.844078 -9.116188 2.113640
0.664857 -7.194243 -0.126111
0.840353 -9.110575 2.451534
0.617855 -6.828696 0.359339
0.696871 -7.717002 0.677897
0.057096 -0.633504 -0.100744
0.660512 -7.342986 0.905246
0.059285 -0.660365 -0.081409
0.571169 -6.374684 1.013695
0.057431 -0.640974 -0.056303
0.820984 -9.180845 1.791697
0.811215 -9.107433 2.110941
0.659395 -7.417615 -0.129986
0.807691 -9.103832 2.448946
0.801677 -9.181664 0.160876
0.800094 -9.200603 0.484003
0.797231 -9.186249 0.806714
0.048748 -0.562851 -0.089481
0.639149 -7.394690 0.911339
0.058003 -0.672434 -0.082871
0.790333 -9.181180 1.459534
0.055535 -0.645141 -0.056651
0.788092 -9.173874 1.789788
0.597952 -6.974808 -0.366875
0.780415 -9.121859 2.113640
0.589270 -6.901835 -0.120910
0.775580 -9.102746 2.447911
0.574253 -6.852935 0.120038
0.767642 -9.199360 0.483794
0.048746 -0.586641 -0.093235
0.636463 -7.675817 0.945706
0.055655 -0.672633 -0.082871
0.757792 -9.177976 1.458595
0.052463 -0.635403 -0.055780
0.756225 -9.178526 1.790170
0.755094 -9.184366 -0.482956
0.748251 -9.120643 2.112740
0.567784 -6.935739 -0.121469
0.743642 -9.103472 2.447393
0.551608 -6.870844 0.120317
0.595486 -7.449983 0.391682
0.623308 -7.815236 0.685916
0.047325 -0.594684 -0.094486
0.614693 -7.741315 0.953506
0.053620 -0.676781 -0.083359
0.726686 -9.192380 1.460472
0.051030 -0.645513 -0.056651
0.723255 -9.169367 1.787880
0.722088 -9.174999 -0.482328
0.616790 -7.854577 1.818954
0.721012 -9.202392 -0.161121
0.711561 -9.102160 2.446358
0.527774 -6.874722 0.120352
0.703552 -9.206486 0.483898
0.700688 -9.190122 0.806365
0.046148 -0.606663 -0.096364
0.052157 -0.688840 -0.084821
0.694444 -9.192891 1.460160
0.048626 -0.643700 -0.056477
0.690802 -9.165962 1.786736
0.689608 -9.171489 -0.482014
0.683247 -9.108154 2.108691
0.686796 -9.176934 -0.160632
0.679641 -9.102662 2.445840
0.672673 -9.181992 0.160702
0.669087 -9.177014 0.482224
0.668027 -9.184562 0.805668
0.042171 -0.581208 -0.092296
0.524663 -7.248460 0.892327
0.049752 -0.689018 -0.084821
0.422361 -5.863529 0.931098
0.045520 -0.631943 -0.055431
0.526214 -7.341064 -0.385716
0.651589 -9.112428 2.109141
0.654190 -9.171298 -0.160492
0.646627 -9.087637 2.441181
0.640478 -9.182288 0.160667
0.471468 -6.776297 0.355989
0.502907 -7.264798 0.637108
0.040142 -0.581352 -0.092296
0.490629 -7.123501 0.876728
0.048979 -0.712953 -0.087746
0.411579 -5.991024 0.951122
0.043722 -0.638061 -0.055954
0.501401 -7.354812 -0.386344
0.619512 -9.110759 2.108241
0.624044 -9.177407 -0.160562
0.616489 -9.089731 2.441181
0.609097 -9.170395 0.160423
0.443071 -6.706156 0.352221
0.602845 -9.173098 0.804273
0.038992 -0.593309 -0.094174
0.600469 -9.161395 1.127291
0.050629 -0.774518 -0.095302
0.596919 -9.156189 1.453276
0.041883 -0.644174 -0.056477
0.064747 -0.998530 -0.052441
0.589674 -9.118597 2.109591
0.471802 -7.315686 -0.127961
0.584507 -9.087972 2.440146
0.577208 -9.174460 0.160457
0.573556 -9.167471 0.481386
0.572546 -9.177034 0.804447
0.040355 -0.648645 -0.102934
0.402304 -6.484740 0.797757
0.049151 -0.794503 -0.097739
0.483464 -7.837225 1.243654
0.039746 -0.644309 -0.056477
0.564479 -9.176576 1.787117
0.059549 -0.970841 -0.050975
0.462903 -7.568405 1.750569
0.411692 -6.750428 -0.118048
0.551961 -9.076459 2.436523
0.434769 -7.317980 0.127961
0.540728 -9.155459 0.480653
0.540744 -9.182955 0.804796
0.036932 -0.629062 -0.099805
0.537193 -9.177254 1.128754
0.044758 -0.766926 -0.094327
0.532065 -9.144357 1.450773
0.037497 -0.644444 -0.056477
0.531647 -9.164770 1.784446
0.056275 -0.973036 -0.051080
0.408438 -7.083598 1.638094
0.367354 -6.390476 -0.111730
0.520495 -9.082187 2.437558
0.410226 -7.337422 0.128275
0.375923 -6.766265 0.355152
0.376473 -6.797577 0.595622
0.034954 -0.633132 -0.100431
0.407854 -7.411046 0.911339
0.044690 -0.814648 -0.100177
0.500142 -9.146158 1.450773
0.035247 -0.644571 -0.056477
0.499119 -9.156768 1.782538
0.052770 -0.971233 -0.050975
0.491413 -9.073678 2.097893
0.494661 -9.163260 -0.160178
0.488789 -9.083949 2.437558
0.479952 -9.158035 0.160073
0.330914 -6.356657 0.333589
0.475177 -9.158650 0.802356
0.030500 -0.589850 -0.093548
0.352254 -6.835528 0.840411
0.040421 -0.787044 -0.096764
0.468010 -9.143903 1.450148
0.033099 -0.646680 -0.056651
0.466452 -9.144730 1.779866
0.048873 -0.961438 -0.050452
0.359468 -7.096007 1.640343
0.462470 -9.160937 -0.160108
0.455914 -9.062447 2.431346
0.309788 -6.379718 0.334741
0.358183 -7.403029 0.648439
0.029772 -0.617576 -0.097928
0.439347 -9.146686 1.124367
0.035206 -0.735627 -0.090427
0.436278 -9.149426 1.450773
0.033593 -0.704505 -0.061706
0.433504 -9.124731 1.775669
0.044950 -0.949632 -0.049824
0.333228 -7.066074 1.633145
0.430490 -9.162497 -0.160108
0.423914 -9.056264 2.429276
0.277942 -6.120759 0.106948
0.287427 -6.378766 0.334636
0.331535 -7.386321 0.646870
0.029558 -0.661091 -0.104811
0.325633 -7.311789 0.898665
0.032990 -0.743678 -0.091402
0.404250 -9.148920 1.450461
0.028847 -0.652867 -0.057174
0.317229 -7.207983 1.402446
0.040410 -0.921848 -0.048358
0.396028 -9.070539 2.096094
0.028583 -0.657279 -0.011484
0.392133 -9.053828 2.428240
0.280022 -6.681116 0.116722
0.380446 -9.153524 0.480130
0.305833 -7.389424 0.647044
0.028877 -0.700664 -0.111068
0.376620 -9.177298 1.127779
0.031042 -0.759656 -0.093352
0.253455 -6.229135 0.987414
0.027135 -0.666899 -0.058394
0.370586 -9.147152 1.779485
0.026727 -0.662551 -0.034751
0.364051 -9.064077 2.094294
0.025649 -0.641390 -0.011204
0.360679 -9.059003 2.429276
0.025179 -0.655417 0.011449
0.348948 -9.166773 0.480758
0.026877 -0.712604 -0.112946
0.249781 -6.653312 0.817500
0.031948 -0.854978 -0.105051
0.269154 -7.236728 1.146978
0.028214 -0.758576 -0.066413
0.337928 -9.128771 1.775669
0.023899 -0.648669 -0.034018
0.331767 -9.047767 2.090245
0.023993 -0.657462 -0.011484
0.328635 -9.048623 2.426170
0.025670 -0.731438 0.012775
0.199951 -5.754625 0.301769
0.317276 -9.177441 0.803402
0.024786 -0.720586 -0.114197
0.229074 -6.693783 0.822374
0.030194 -0.886822 -0.108951
0.247027 -7.292860 1.155738
0.028115 -0.834338 -0.073037
0.307257 -9.118068 1.773379
0.021882 -0.652737 -0.034228
0.223951 -6.715523 1.551262
0.021945 -0.661535 -0.011553
0.298436 -9.043870 2.424617
0.023117 -0.731523 0.012775
0.285982 -9.150968 0.479816
0.021847 -0.706961 0.061881
0.022508 -0.732519 -0.116074
0.206804 -6.730257 0.826762
0.027098 -0.886922 -0.108951
0.215871 -7.106103 1.126015
0.027488 -0.910107 -0.079660
0.273718 -9.115209 1.772616
0.019310 -0.646824 -0.033914
0.268537 -9.047915 2.089795
0.026102 -0.879479 -0.015358
0.266866 -9.044857 2.424617
0.013678 -0.486634 -0.130445
0.019319 -0.691625 0.012077
0.252606 -9.157944 0.480130
0.019597 -0.714999 0.062578
0.019951 -0.732593 -0.116074
0.246784 -9.120146 1.120223
0.025074 -0.932656 -0.114557
0.181121 -6.781026 1.074392
0.025162 -0.942064 -0.082449
0.241898 -9.116109 1.772616
0.016737 -0.634908 -0.033286
0.236645 -9.037108 2.087096
0.025635 -0.985517 -0.017208
0.233513 -9.038050 2.422546
0.012550 -0.509854 -0.136656
0.017589 -0.719675 0.012566
0.221599 -9.198705 0.482224
0.017101 -0.715063 0.062578
0.017113 -0.720809 -0.114197
0.174492 -7.404324 0.909389
0.020240 -0.865264 -0.106270
0.211735 -9.119832 1.444829
0.022244 -0.958081 -0.083844
0.209804 -9.105121 1.770326
0.014475 -0.632966 -0.033181
0.205054 -9.035931 2.086646
0.014991 -0.665730 -0.011623
0.201919 -9.036879 2.422029
0.014658 -0.699740 0.012217
0.014686 -0.719103 0.062926
0.014677 -0.724815 -0.114823
0.147929 -7.369164 0.905002
0.017614 -0.885176 -0.108707
0.179862 -9.118541 1.444516
0.018428 -0.934249 -0.081752
0.131741 -6.738565 1.310095
0.012342 -0.637006 -0.033390
0.173511 -9.036591 2.086646
0.012782 -0.671776 -0.011728
0.170082 -9.022076 2.417887
0.011447 -0.655800 0.011449
0.012311 -0.727118 0.063624
0.012345 -0.736712 -0.116700
0.151234 -9.120246 1.119979
0.014459 -0.881262 -0.108220
0.116161 -7.155848 1.133524
0.015361 -0.946260 -0.082798
0.146108 -9.098512 1.768800
0.010024 -0.631054 -0.033076
0.141906 -9.033245 2.085746
0.010592 -0.681814 -0.011903
0.138530 -9.018751 2.416852
0.006828 -0.482915 -0.129410
0.008990 -0.643839 0.011239
0.009719 -0.723172 0.063275
0.009826 -0.740701 -0.117326
0.119423 -9.122704 1.120223
0.011255 -0.871383 -0.107001
0.083329 -6.539941 1.035909
0.011499 -0.902479 -0.078963
0.114520 -9.112707 1.771471
0.007771 -0.627091 -0.032867
0.081447 -6.666143 1.539115
0.008332 -0.691844 -0.012077
0.107138 -9.026907 2.418923
0.005430 -0.509980 -0.136656
0.007162 -0.683858 0.011937
0.007905 -0.780888 0.040927
0.007076 -0.711248 0.062229
0.007240 -0.740731 -0.117326
0.087464 -9.111155 1.118761
0.008213 -0.871417 -0.107001
0.084309 -9.113998 1.443577
0.008220 -0.888568 -0.077743
0.082515 -9.091456 1.767273
0.005564 -0.625117 -0.032762
0.078703 -9.018427 2.082147
0.005746 -0.671873 -0.011728
0.075580 -9.021431 2.417370
0.003594 -0.502269 -0.134586
0.004635 -0.663883 0.011588
0.004914 -0.740967 0.038833
0.004490 -0.695329 0.060835
0.004778 -0.760505 -0.120455
0.046940 -7.684149 0.943513
0.005171 -0.871440 -0.107001
0.041971 -7.287045 1.154174
0.005198 -0.902537 -0.078963
0.050800 -9.095616 1.768036
0.003393 -0.627130 -0.032867
0.047222 -9.018646 2.082147
0.003239 -0.639894 -0.011170
0.031655 -6.477422 1.735641
0.001798 -0.490687 -0.131480
0.002304 -0.659896 0.011519
0.002328 -0.740979 0.038833
0.002016 -0.679402 0.059440
0.002124 -0.760517 -0.120455
0.020695 -7.904611 0.970568
0.002154 -0.881378 -0.108220
0.016445 -7.247639 1.147916
0.001903 -0.838794 -0.073385
0.019071 -9.105554 1.769944
0.001215 -0.633130 -0.033181
0.015737 -9.016807 2.081697
0.001052 -0.669897 -0.011693
0.012572 -9.004353 2.412711
0.000088 -0.502281 -0.134586
-0.000000 -0.651901 0.011379
-0.000245 -0.701038 0.036740
-0.000364 -0.695344 0.060835
-0.000523 -0.748668 -0.118577
-0.007945 -9.105617 1.118029
-0.000973 -0.929023 -0.114070
-0.011118 -9.100554 1.441387
-0.001088 -0.890597 -0.077917
-0.012682 -9.083970 1.765747
-0.000991 -0.631133 -0.033076
-0.015750 -9.024601 2.083497
-0.001290 -0.671896 -0.011728
-0.013627 -6.506463 1.743405
-0.001691 -0.510006 -0.136656
-0.002303 -0.659896 0.011519
-0.002722 -0.709022 0.037159
-0.002743 -0.683384 0.059789
-0.003136 -0.748661 -0.118577
-0.039687 -9.095607 1.116811
-0.004360 -0.960775 -0.117970
-0.042857 -9.094534 1.440449
-0.003277 -0.695336 -0.060835
-0.044402 -9.085833 1.766128
-0.003215 -0.635120 -0.033286
-0.047222 -9.018646 2.082147
-0.003603 -0.665889 -0.011623
-0.050375 -9.019674 2.416852
-0.003340 -0.490679 -0.131480
-0.004691 -0.671881 0.011728
-0.005022 -0.685041 0.035902
-0.005189 -0.691340 0.060486
-0.005931 -0.772350 -0.122332
-0.059151 -7.531208 0.924745
-0.007395 -0.921053 -0.113095
-0.074603 -9.094329 1.440449
-0.006701 -0.816852 -0.071468
-0.076100 -9.083660 1.765747
-0.005346 -0.625119 -0.032762
-0.078669 -9.014529 2.081247
-0.005820 -0.653875 -0.011414
-0.059751 -6.583479 1.764111
-0.005451 -0.529299 -0.141833
-0.006910 -0.659863 0.011519
-0.007218 -0.667046 0.034960
-0.007558 -0.687333 0.060137
-0.008495 -0.760473 -0.120455
-0.086071 -7.586535 0.931569
-0.010610 -0.921022 -0.113095
-0.106208 -9.082162 1.438571
-0.007642 -0.653459 -0.057174
-0.107809 -9.083339 1.765747
-0.007552 -0.627094 -0.032867
-0.110039 -9.006405 2.079448
-0.008004 -0.645852 -0.011274
-0.113149 -9.003650 2.412711
-0.006712 -0.486780 -0.130445
-0.009158 -0.655836 0.011449
-0.009633 -0.673007 0.035274
-0.009380 -0.647459 0.056651
-0.010686 -0.728836 -0.115449
-0.134726 -9.080798 1.115105
-0.014182 -0.944798 -0.116020
-0.137821 -9.075810 1.437633
-0.013462 -0.886511 -0.077569
-0.139574 -9.086833 1.766510
-0.009834 -0.633055 -0.033181
-0.141539 -9.009863 2.080347
-0.010417 -0.655817 -0.011449
-0.144359 -8.989679 2.409088
-0.008812 -0.509933 -0.136656
-0.011168 -0.639805 0.011170
-0.011982 -0.672970 0.035274
-0.011855 -0.659374 0.057697
-0.013302 -0.732744 -0.116074
-0.166641 -9.092181 1.116567
-0.017186 -0.928864 -0.114070
-0.169464 -9.073299 1.437320
-0.017673 -0.946220 -0.082798
-0.170811 -9.060773 1.761549
-0.012158 -0.639007 -0.033495
-0.172987 -9.009315 2.080347
-0.012822 -0.661775 -0.011553
-0.175512 -8.977531 2.405982
-0.010110 -0.486722 -0.130445
-0.013652 -0.651758 0.011379
-0.014246 -0.668930 0.035065
-0.014285 -0.665305 0.058220
-0.015603 -0.720844 -0.114197
-0.198075 -9.077652 1.114861
-0.020778 -0.944676 -0.116020
-0.201528 -9.090425 1.440136
-0.020534 -0.926234 -0.081055
-0.202439 -9.060122 1.761549
-0.014164 -0.628977 -0.032972
-0.204522 -9.012552 2.081247
-0.014446 -0.631739 -0.011030
-0.206937 -8.980726 2.407017
-0.012653 -0.521446 -0.139762
-0.015585 -0.637712 0.011135
-0.016482 -0.664883 0.034856
-0.016955 -0.679193 0.059440
-0.018913 -0.752381 -0.119203
-0.229610 -9.070951 1.114130
-0.023266 -0.912846 -0.112120
-0.233209 -9.087692 1.439823
-0.024380 -0.950057 -0.083147
-0.234215 -9.065248 1.762694
-0.016151 -0.620938 -0.032553
-0.235676 -9.000095 2.078548
-0.016862 -0.639680 -0.011170
-0.238490 -8.987675 2.409088
-0.013508 -0.486639 -0.130445
-0.017979 -0.643651 0.011239
-0.018802 -0.664821 0.034856
-0.018872 -0.663197 0.058046
-0.020861 -0.728615 -0.115449
-0.261786 -9.087954 1.116323
-0.026797 -0.924665 -0.113582
-0.264525 -9.073001 1.437633
-0.019335 -0.663184 -0.058046
-0.265685 -9.058487 1.761549
-0.018495 -0.626867 -0.032867
-0.267090 -8.999218 2.078548
-0.018319 -0.613633 -0.010716
-0.269862 -8.986787 2.409088
-0.020414 -0.649580 0.011344
-0.021504 -0.676729 0.035484
-0.020933 -0.655162 0.057348
-0.024546 -0.764077 -0.121080
-0.293444 -9.085000 1.116079
-0.028930 -0.890837 -0.109439
-0.248300 -7.605100 1.205171
-0.026266 -0.804497 -0.070422
-0.297239 -9.055542 1.761167
-0.021013 -0.636779 -0.033390
-0.298567 -9.000178 2.078998
-0.021794 -0.653537 -0.011414
-0.300840 -8.974206 2.405982
-0.022053 -0.631519 0.011030
-0.023795 -0.674654 0.035379
-0.023502 -0.663049 0.058046
-0.025947 -0.728452 -0.115449
-0.032538 -0.904617 -0.111145
-0.327860 -9.070933 1.437633
-0.023173 -0.641131 -0.056128
-0.328703 -9.050526 1.760404
-0.023163 -0.634706 -0.033286
-0.329981 -8.999081 2.078998
-0.024002 -0.651459 -0.011379
-0.331736 -8.961517 2.402876
-0.024564 -0.639431 0.011170
-0.025841 -0.666584 0.034960
-0.025971 -0.666945 0.058394
-0.028644 -0.732305 -0.116074
-0.280174 -7.130905 0.876241
-0.034365 -0.870778 -0.107001
-0.358739 -9.049994 1.434504
-0.030225 -0.762486 -0.066761
-0.359982 -9.041475 1.758877
-0.025458 -0.636617 -0.033390
-0.361391 -8.997874 2.078998
-0.025873 -0.641381 -0.011204
-0.363407 -8.969956 2.405464
-0.020462 -0.490263 -0.131480
-0.026713 -0.637343 0.011135
-0.027746 -0.656512 0.034437
-0.027961 -0.658888 0.057697
-0.032041 -0.751936 -0.119203
-0.387545 -9.057630 1.113155
-0.037575 -0.874619 -0.107489
-0.390669 -9.056582 1.435756
-0.028164 -0.652897 -0.057174
-0.391880 -9.048010 1.760404
-0.027072 -0.622556 -0.032658
-0.392119 -8.980983 2.075398
-0.027411 -0.625304 -0.010925
-0.395224 -8.980213 2.408570
-0.029119 -0.641241 0.011204
-0.029307 -0.640450 0.033600
-0.030901 -0.672718 0.058917
-0.033574 -0.728140 -0.115449
-0.419711 -9.068119 1.114617
-0.039522 -0.850687 -0.104564
-0.282593 -6.059796 0.960821
-0.030721 -0.658765 -0.057697
-0.322209 -6.883486 1.339479
-0.029714 -0.632433 -0.033181
-0.423373 -8.977612 2.074948
-0.029215 -0.617215 -0.010786
-0.425928 -8.965272 2.404947
-0.031552 -0.645131 0.011274
-0.032721 -0.664282 0.034856
-0.032462 -0.656687 0.057523
-0.036311 -0.731965 -0.116074
-0.327591 -6.580373 0.808969
-0.043284 -0.866405 -0.106514
-0.454477 -9.065472 1.437633
-0.032621 -0.650694 -0.057000
-0.455333 -9.050937 1.761549
-0.031922 -0.632326 -0.033181
-0.454708 -8.976080 2.074948
-0.032385 -0.637080 -0.011135
-0.457515 -8.969518 2.406500
-0.033595 -0.641023 0.011204
-0.036302 -0.688097 0.036112
-0.033912 -0.640653 0.056128
-0.038657 -0.727888 -0.115449
-0.482479 -9.055058 1.113398
-0.045460 -0.850390 -0.104564
-0.484322 -9.030296 1.432314
-0.034786 -0.648587 -0.056826
-0.485974 -9.031648 1.758114
-0.034452 -0.638194 -0.033495
-0.486144 -8.976384 2.075398
-0.035476 -0.652937 -0.011414
-0.488400 -8.960151 2.404429
-0.035944 -0.642898 0.011239
-0.037134 -0.660049 0.034646
-0.036148 -0.640530 0.056128
-0.039188 -0.692249 -0.109817
-0.512959 -9.033499 1.110961
-0.048880 -0.858154 -0.105539
-0.517304 -9.054189 1.436381
-0.037277 -0.652440 -0.057174
-0.516936 -9.020096 1.756206
-0.035762 -0.622118 -0.032658
-0.517473 -8.974632 2.075398
-0.037409 -0.646820 -0.011309
-0.519563 -8.956462 2.403911
-0.037832 -0.636780 0.011135
-0.040152 -0.671878 0.035274
-0.038979 -0.650344 0.057000
-0.045159 -0.751262 -0.119203
-0.416549 -6.909472 0.849917
-0.048760 -0.806460 -0.099202
-0.370043 -6.102582 0.968329
-0.040157 -0.662249 -0.058046
-0.548181 -9.014318 1.755443
-0.038177 -0.625976 -0.032867
-0.548561 -8.968881 2.074499
-0.038687 -0.630718 -0.011030
-0.550942 -8.956523 2.404429
-0.041435 -0.658597 0.011519
-0.042749 -0.675720 0.035484
-0.041754 -0.658158 0.057697
-0.046026 -0.723501 -0.114823
-0.051068 -0.798361 -0.098227
-0.578858 -9.024730 1.432314
-0.042086 -0.656140 -0.057523
-0.579769 -9.014309 1.755824
-0.040619 -0.629825 -0.033076
-0.579361 -8.959133 2.072699
-0.040500 -0.624593 -0.010925
-0.582705 -8.962255 2.406500
-0.043337 -0.652463 0.011414
-0.047503 -0.711437 0.037368
-0.043519 -0.650056 0.057000
-0.050139 -0.746987 -0.118577
-0.606994 -9.019710 1.109986
-0.054389 -0.806100 -0.099202
-0.609556 -9.010829 1.430437
-0.043838 -0.648038 -0.056826
-0.612161 -9.025941 1.758496
-0.042817 -0.629680 -0.033076
-0.610498 -8.955112 2.072249
-0.043362 -0.634423 -0.011100
-0.612532 -8.938966 2.400805
-0.043800 -0.626375 0.010960
-0.049146 -0.699313 0.036740
-0.047188 -0.669775 0.058743
-0.051076 -0.723162 -0.114823
-0.639597 -9.033377 1.111936
-0.054954 -0.774223 -0.095302
-0.643110 -9.038203 1.435130
-0.046241 -0.649868 -0.057000
-0.641848 -8.998292 1.753535
-0.045015 -0.629527 -0.033076
-0.641615 -8.950982 2.071799
-0.047153 -0.656208 -0.011484
-0.644563 -8.948335 2.403911
-0.047451 -0.646161 0.011309
-0.051881 -0.703121 0.036949
-0.051289 -0.693450 0.060835
-0.052723 -0.711159 -0.112946
-0.669949 -9.015252 1.109986
-0.059425 -0.797782 -0.098227
-0.674066 -9.028023 1.433878
-0.048509 -0.649703 -0.057000
-0.673694 -9.001869 1.754680
-0.046913 -0.625382 -0.032867
-0.673731 -8.960347 2.074499
-0.048541 -0.644075 -0.011274
-0.675505 -8.942177 2.402876
-0.053235 -0.691849 0.012112
-0.053719 -0.694970 0.036530
-0.050631 -0.653538 0.057348
-0.056735 -0.730665 -0.116074
-0.701105 -9.008901 1.109499
-0.059740 -0.765904 -0.094327
-0.705268 -9.021676 1.433253
-0.051243 -0.655489 -0.057523
-0.706032 -9.011207 1.756969
-0.049096 -0.625215 -0.032867
-0.703323 -8.936572 2.069550
-0.050789 -0.643902 -0.011274
-0.707323 -8.947470 2.404947
-0.051961 -0.645814 0.011309
-0.055179 -0.682834 0.035902
-0.055807 -0.689103 0.060486
-0.058007 -0.714712 -0.113571
-0.732871 -9.010355 1.109986
-0.062413 -0.765691 -0.094327
-0.735308 -9.001439 1.430437
-0.054179 -0.663249 -0.058220
-0.737003 -9.002818 1.755824
-0.051931 -0.633002 -0.033286
-0.734833 -8.937946 2.070450
-0.051066 -0.619805 -0.010855
-0.738234 -8.941094 2.403911
-0.054550 -0.649614 0.011379
-0.060248 -0.714480 0.037577
-0.056534 -0.669051 0.058743
-0.061834 -0.730252 -0.116074
-0.763982 -9.003786 1.109499
-0.065422 -0.769425 -0.094814
-0.766724 -8.998818 1.430437
-0.054803 -0.643204 -0.056477
-0.768256 -8.998234 1.755443
-0.054140 -0.632817 -0.033286
-0.765861 -8.933385 2.070000
-0.055454 -0.645524 -0.011309
-0.768777 -8.930764 2.401841
-0.056817 -0.649420 0.011379
-0.061693 -0.702328 0.036949
-0.058171 -0.660911 0.058046
-0.061606 -0.698547 -0.111068
-0.796105 -9.008974 1.110474
-0.067407 -0.761282 -0.093839
-0.797957 -8.994120 1.430124
-0.057224 -0.644993 -0.056651
-0.799488 -8.993543 1.755061
-0.056703 -0.636603 -0.033495
-0.798079 -8.942304 2.072699
-0.058598 -0.655285 -0.011484
-0.799601 -8.924177 2.400805
-0.059808 -0.657184 0.011519
-0.066325 -0.725976 0.038205
-0.062657 -0.684513 0.060137
-0.064766 -0.706197 -0.112320
-0.827185 -9.002187 1.109986
-0.069700 -0.757089 -0.093352
-0.829892 -8.997181 1.431063
-0.059658 -0.646773 -0.056826
-0.831057 -8.992651 1.755443
-0.058188 -0.628446 -0.033076
-0.828749 -8.933642 2.071349
-0.060515 -0.651094 -0.011414
-0.831465 -8.929026 2.402876
-0.063984 -0.676879 0.011868
-0.073763 -0.777437 0.040927
-0.065423 -0.688257 0.060486
-0.069478 -0.729564 -0.116074
-0.600682 -6.295914 0.776551
-0.072342 -0.756841 -0.093352
-0.862988 -9.011927 1.433878
-0.063055 -0.658461 -0.057871
-0.862629 -8.991651 1.755824
-0.060000 -0.624263 -0.032867
-0.859181 -8.922936 2.069550
-0.063363 -0.656850 -0.011519
-0.862627 -8.926069 2.402876
-0.067517 -0.688592 0.012077
-0.068998 -0.699921 0.061532
-0.072801 -0.737180 -0.117326
-0.893920 -9.035702 1.114861
-0.075767 -0.764485 -0.094327
-0.892878 -8.993134 1.431376
-0.064565 -0.650306 -0.057174
-0.893428 -8.982722 1.754680
-0.062772 -0.630012 -0.033181
-0.890710 -8.923760 2.070450
-0.067446 -0.674533 -0.011833
-0.893780 -8.923004 2.402876
-0.067495 -0.664479 0.011658
-0.072250 -0.707604 0.062229
-0.072158 -0.705480 -0.112320
-0.922420 -9.002904 1.111205
-0.077219 -0.752368 -0.092864
-0.922850 -8.976207 1.429186
-0.066631 -0.648095 -0.057000
-0.926186 -8.993219 1.757351
-0.065381 -0.633762 -0.033390
-0.921053 -8.912843 2.068650
-0.067330 -0.650425 -0.011414
-0.924324 -8.914066 2.401323
-0.071487 -0.680149 0.011937
-0.073673 -0.697441 0.061358
-0.070463 -0.665935 -0.106063
-0.953212 -8.993708 1.110474
-0.080132 -0.756056 -0.093352
-0.952820 -8.975061 1.429498
-0.069104 -0.649840 -0.057174
-0.956740 -8.982123 1.755824
-0.068864 -0.645446 -0.034018
-0.951430 -8.917491 2.070450
-0.072036 -0.674059 -0.011833
-0.953879 -8.910952 2.401323
-0.078485 -0.723645 0.012705
-0.075338 -0.691251 0.060835
-0.074814 -0.685335 -0.109191
-0.980873 -8.970764 1.108036
-0.081775 -0.747893 -0.092377
-0.983008 -8.975780 1.430124
-0.071910 -0.655549 -0.057697
-0.985021 -8.965240 1.753153
-0.068601 -0.623376 -0.032867
-0.980997 -8.914287 2.070450
-0.073614 -0.667853 -0.011728
-0.983847 -8.911580 2.402359
-1.013723 -9.066113 0.159236
-1.010973 -9.013032 0.475315
-0.078075 -0.694957 0.061183
-0.073552 -0.653675 -0.104185
-1.011506 -8.975353 1.109011
-0.083940 -0.743657 -0.091889
-1.016330 -8.989960 1.432940
-0.073525 -0.649354 -0.057174
-1.016531 -8.963698 1.753535
-0.071678 -0.631071 -0.033286
-1.011667 -8.906937 2.069550
-0.073684 -0.647723 -0.011379
-1.014511 -8.904253 2.401323
-1.049698 -9.086174 0.159655
-1.049059 -9.052913 0.477618
-0.076946 -0.663000 0.058394
-0.077772 -0.669099 -0.106688
-1.048986 -9.011020 1.113886
-0.087125 -0.747288 -0.092377
-1.049273 -8.986174 1.432940
-0.077293 -0.660954 -0.058220
-1.052575 -8.987211 1.758877
-0.074223 -0.632787 -0.033390
-1.043852 -8.899297 2.068650
-0.077224 -0.657379 -0.011553
-1.047140 -8.900475 2.401323
-1.082994 -9.082266 0.159655
-1.084679 -9.082911 0.479397
-1.091120 -9.109842 0.802704
-0.074578 -0.621738 -0.099179
-1.091477 -9.085952 1.123635
-0.087018 -0.723313 -0.089452
-1.091252 -9.070711 1.447019
-0.077455 -0.642877 -0.056651
-1.089348 -9.028313 1.767655
-0.077151 -0.638473 -0.033704
-1.078805 -8.914758 2.073149
-0.075675 -0.625342 -0.010995
-1.076807 -8.885258 2.398217
-0.058775 -0.479373 -0.129410
-1.116270 -9.104427 0.160108
-1.116865 -9.083034 0.479607
-1.118037 -9.066430 0.799218
-0.082442 -0.668539 -0.106688
-1.122331 -9.088194 1.124367
-0.090391 -0.730901 -0.090427
-1.123879 -9.074689 1.448270
-0.079944 -0.644580 -0.056826
-1.126047 -9.079204 1.778340
-0.079514 -0.640196 -0.033809
-1.106917 -8.899528 2.070450
-1.132758 -9.094329 -0.159969
-1.107577 -8.879528 2.397700
-1.147041 -9.092539 0.159969
-1.147730 -9.085223 0.479921
-1.154607 -9.114063 0.803750
-0.081791 -0.644732 -0.102934
-1.153797 -9.082251 1.124123
-0.092942 -0.730581 -0.090427
-1.155960 -9.086589 1.450773
-0.081829 -0.642335 -0.056651
-1.156241 -9.063532 1.776050
-0.079723 -0.624065 -0.032972
-1.137976 -8.895610 2.070450
-1.164433 -9.102425 -0.160178
-1.138734 -8.889220 2.401323
-0.063525 -0.490457 -0.132515
-1.177701 -9.092652 0.160039
-1.179694 -9.083143 0.480025
-1.185384 -9.102076 0.803053
-0.080358 -0.617033 -0.098554
-1.182882 -9.070501 1.123148
-0.096906 -0.742079 -0.091889
-0.893122 -6.829992 1.090974
-0.085882 -0.655874 -0.057871
-1.189859 -9.086901 1.781393
-0.084389 -0.643600 -0.034018
-1.166707 -8.885991 2.069100
-1.197241 -9.106236 -0.160318
-1.170766 -8.892852 2.403394
-0.066853 -0.501711 -0.135621
-1.210755 -9.074187 0.159794
-1.211655 -9.068860 0.479502
-1.219795 -9.105568 0.803750
-0.084827 -0.632383 -0.101057
-1.220344 -9.085567 1.125585
-0.097638 -0.725963 -0.089940
-1.227798 -9.128986 1.458908
-0.089349 -0.663454 -0.058569
-1.235237 -9.160091 1.796658
-0.091403 -0.676920 -0.035798
-1.200296 -8.877583 2.068200
-1.229002 -9.089896 -0.160108
-1.202575 -8.882757 2.401841
-1.242738 -9.083992 0.160039
-1.244389 -9.072490 0.479921
-1.247771 -9.073622 0.801310
-0.083156 -0.604701 -0.096677
-1.252632 -9.097202 1.127535
-0.099503 -0.721702 -0.089452
-1.256956 -9.105077 1.455779
-0.087299 -0.631560 -0.055780
-1.265605 -9.155945 1.796658
-0.098302 -0.710246 -0.037577
-1.230531 -8.879346 2.069550
-1.259626 -9.077627 -0.159969
-1.233308 -8.876593 2.401323
-1.274438 -9.079598 0.160039
-0.069430 -0.494022 -0.115175
-1.277164 -9.076003 0.480339
-1.280078 -9.085217 0.802704
-0.086922 -0.616143 -0.098554
-1.286046 -9.104568 1.128998
-0.101465 -0.717419 -0.088965
-1.287622 -9.092810 1.454528
-0.089952 -0.635212 -0.056128
-1.294803 -9.132033 1.792842
-0.103026 -0.725717 -0.038415
-1.262341 -8.880783 2.070899
-1.288486 -9.053378 -0.159620
-1.264013 -8.870319 2.400805
-1.305553 -9.071136 0.159969
-1.308838 -9.071489 0.480339
-1.310644 -9.072806 0.802007
-0.088507 -0.611925 -0.097928
-1.312128 -9.060731 1.124123
-0.103399 -0.713131 -0.088477
-1.322192 -9.107810 1.457657
-0.093600 -0.644753 -0.057000
-1.324977 -9.115801 1.790552
-0.097506 -0.670013 -0.035484
-1.293053 -8.874394 2.070450
-1.322966 -9.068612 -0.159969
-1.295248 -8.867766 2.401323
-1.338962 -9.078393 0.160178
-1.340786 -9.068841 0.480444
-1.343473 -9.076059 0.802704
-0.088326 -0.595980 -0.095425
-1.346079 -9.071805 1.126073
-0.099470 -0.669568 -0.083115
-1.353976 -9.103139 1.457657
-0.095850 -0.644422 -0.057000
-1.360838 -9.138307 1.795894
-0.101611 -0.681521 -0.036112
-1.323446 -8.865973 2.069550
-1.326765 -8.867012 2.402359
-1.368850 -9.061800 0.159969
-1.372137 -9.062130 0.480339
-1.379924 -9.102833 0.805493
-0.093369 -0.615199 -0.098554
-1.376545 -9.059200 1.125098
-0.101807 -0.669217 -0.083115
-1.388124 -9.113979 1.460160
-0.098699 -0.648023 -0.057348
-1.391544 -9.125736 1.794368
-0.104893 -0.687086 -0.036426
-1.354386 -8.861299 2.069550
-0.472164 -3.085608 -0.054486
-1.356831 -8.856597 2.400805
-1.401391 -9.062896 0.160073
-1.403148 -9.053338 0.480130
-1.405580 -9.058584 0.802007
-0.094910 -0.610965 -0.097928
-1.409989 -9.066109 1.126560
-0.107196 -0.688472 -0.085552
-1.416887 -9.089560 1.457031
-0.097891 -0.627988 -0.055605
-1.422784 -9.116944 1.793605
-0.106058 -0.678822 -0.036007
-1.386514 -8.864219 2.071349
-0.473032 -3.020721 -0.053369
-1.386243 -8.842265 2.398217
-1.431143 -9.046098 0.159864
-1.436930 -9.062194 0.480863
-1.440316 -9.073299 0.803750
-0.095182 -0.598925 -0.096051
-1.442876 -9.068974 1.127535
-0.107413 -0.674371 -0.083846
-1.455449 -9.127475 1.463914
-0.105103 -0.659123 -0.058394
-1.449649 -9.080903 1.787499
-0.111579 -0.698170 -0.037054
-1.417447 -8.859324 2.071349
-0.484206 -3.023001 -0.053439
-1.416488 -8.833557 2.397182
-0.079516 -0.492034 -0.133551
-1.461752 -9.035125 0.159759
-1.468236 -9.055151 0.480758
-1.471341 -9.064283 0.803402
-0.101708 -0.625886 -0.100431
-1.473885 -9.059963 1.127048
-0.109767 -0.673992 -0.083846
-1.482851 -9.095045 1.459534
-0.108685 -0.666618 -0.059092
-1.478175 -9.056412 1.783683
-0.110472 -0.676094 -0.035902
-1.450881 -8.869707 2.074948
-0.492493 -3.007478 -0.053195
-1.448876 -8.838090 2.399770
-1.495239 -9.041804 0.159969
-1.497549 -9.036178 0.480025
-1.501668 -9.051230 0.802704
-0.101303 -0.609938 -0.097928
-1.505501 -9.054763 1.127048
-0.112770 -0.677521 -0.084334
-1.517837 -9.109298 1.462662
-0.108719 -0.652478 -0.057871
-1.516885 -9.093799 1.792078
-0.111516 -0.667824 -0.035484
-1.479262 -8.849213 2.071349
-0.501669 -2.997852 -0.053055
-1.479718 -8.832979 2.399770
-1.527458 -9.040474 0.160039
-1.529084 -9.030895 0.480025
-1.536582 -9.065578 0.804447
-0.102770 -0.605685 -0.097302
-1.533111 -9.025968 1.124123
-0.114469 -0.673209 -0.083846
-1.549624 -9.103944 1.462662
-0.114339 -0.671736 -0.059615
-1.550598 -9.100060 1.794368
-0.118212 -0.693026 -0.036845
-1.511126 -8.849758 2.072699
-0.510108 -2.984256 -0.052846
-1.511845 -8.835378 2.401841
-1.562067 -9.052822 0.160353
-0.084250 -0.487757 -0.114275
-1.561618 -9.031407 0.480339
-1.566179 -9.048379 0.803402
-0.101511 -0.585859 -0.094174
-1.569357 -9.047945 1.127535
-0.116818 -0.672806 -0.083846
-1.579365 -9.086802 1.460785
-0.115319 -0.663481 -0.058917
-4.447550 -25.562344 5.043464
-0.116175 -0.667029 -0.035484
-1.541340 -8.840590 2.071799
-0.521553 -2.988367 -0.052951
-1.542345 -8.828143 2.401323
-1.592617 -9.041407 0.160248
-1.593640 -9.037980 0.480967
-1.598448 -9.046781 0.803750
-0.108372 -0.612734 -0.098554
-1.601623 -9.046321 1.128023
-0.117781 -0.664575 -0.082871
-1.602594 -9.042614 1.454528
-0.116938 -0.659150 -0.058569
-1.610657 -9.069684 1.790552
-0.524349 -2.949645 -0.157008
-1.573214 -8.840912 2.073149
-0.532861 -2.994496 -0.053090
-1.570935 -8.819176 2.400288
-1.619763 -9.020329 0.159969
-1.626593 -9.040226 0.481386
-1.630724 -9.045068 0.804099
-0.112507 -0.624035 -0.100431
-1.629496 -9.029238 1.126560
-0.120690 -0.668088 -0.083359
-1.637664 -9.056403 1.457657
-0.117464 -0.648936 -0.057697
-1.642822 -9.075885 1.792842
-0.527362 -2.910550 -0.155019
-1.603914 -8.843316 2.074948
-0.546169 -3.008358 -0.053369
-1.604818 -8.830746 2.404947
-1.653041 -9.024456 0.160143
-1.656337 -9.024670 0.480863
-1.660709 -9.039611 0.804099
-0.109682 -0.596439 -0.096051
-1.663162 -9.035210 1.128023
-0.126618 -0.687185 -0.085796
-1.672849 -9.070057 1.460785
-0.120452 -0.652440 -0.058046
-1.675207 -9.073956 1.793605
-0.536793 -2.904764 -0.154810
-1.632646 -8.826166 2.072249
-0.568317 -3.069354 -0.054486
-1.636337 -8.828889 2.405982
-1.686000 -9.026492 0.160283
-1.688563 -9.022760 0.481072
-1.698236 -9.056962 0.806191
-0.114054 -0.607682 -0.097928
-1.693958 -9.025447 1.127535
-0.128283 -0.682837 -0.085309
-1.700120 -9.040866 1.457031
-0.121991 -0.648100 -0.057697
-4.801845 -25.486179 5.041174
-0.544105 -2.885113 -0.153868
-1.666430 -8.827782 2.074049
-0.570125 -3.020191 -0.053649
-1.668940 -8.832614 2.408570
-1.721320 -9.032039 0.160492
-1.719673 -9.014849 0.480967
-1.724605 -9.023581 0.803750
-0.116174 -0.607281 -0.097928
-1.731506 -9.042573 1.130460
-0.129290 -0.674564 -0.084334
-1.739104 -9.073678 1.463288
-0.121625 -0.633973 -0.056477
-4.891517 -25.473120 5.041937
-0.552287 -2.873389 -0.153344
-1.697236 -8.821911 2.074049
-1.698300 -8.819146 2.406500
-1.745548 -8.996835 0.159969
-1.752656 -9.016633 0.481386
-1.757615 -9.025329 0.804447
-0.109881 -0.564235 -0.091045
-1.763003 -9.044576 1.131435
-0.133807 -0.685821 -0.085796
-1.770009 -9.063674 1.462662
-0.124984 -0.639411 -0.057000
-4.976716 -25.460611 5.042700
-0.557978 -2.851941 -0.152298
-1.727978 -8.823885 2.075848
-0.575041 -2.933719 -0.052183
-1.727214 -8.803686 2.403911
-1.776555 -8.988726 0.159934
-1.782179 -9.000665 0.480863
-1.785211 -9.007725 0.803402
-0.131068 -0.660729 -0.106688
-1.786830 -8.999424 1.126560
-0.137748 -0.693138 -0.086771
-1.799325 -9.045815 1.460785
-0.130602 -0.656580 -0.058569
-0.563636 -2.828430 -0.151146
-1.760294 -8.825443 2.077648
-0.579797 -2.904240 -0.051694
-1.760205 -8.808969 2.407017
-1.812261 -9.004034 0.160318
-1.813982 -8.996346 0.480967
-1.822949 -9.032685 0.806191
-0.134155 -0.664140 -0.107314
-1.819808 -9.000916 1.127535
-0.159853 -0.789936 -0.098958
-1.822262 -8.996887 1.453902
-0.132102 -0.652214 -0.058220
-1.820832 -8.981765 1.781393
-0.573903 -2.828402 -0.151251
-1.790313 -8.815426 2.076748
-0.590728 -2.906117 -0.051764
-1.791329 -8.804665 2.407535
-1.822003 -8.891866 0.158433
-1.825293 -8.892136 0.475734
-1.842440 -8.967720 0.800961
-0.138064 -0.671407 -0.108566
-1.852416 -9.000341 1.128266
-0.164211 -0.797150 -0.099933
-1.858444 -9.013688 1.457657
-0.582572 -2.825548 -0.252403
-1.855347 -8.990737 1.784446
-0.585388 -2.834206 -0.151670
-1.821470 -8.811030 2.077198
-0.603299 -2.915787 -0.051973
-1.826361 -8.819167 2.413229
-1.852214 -8.881537 0.158363
-1.855504 -8.881801 0.475525
-1.858236 -8.887125 0.794337
-0.139598 -0.667054 -0.107940
-1.864694 -8.902503 1.116811
-0.179212 -0.854858 -0.107245
-1.871236 -8.918215 1.443265
-0.587931 -2.802048 -0.250486
-1.890754 -9.003419 1.788262
-0.594456 -2.828236 -0.151460
-1.854220 -8.814154 2.079448
-0.619242 -2.941058 -0.052462
-1.853152 -8.793836 2.408053
-1.887588 -8.872790 0.793640
-0.138634 -0.651106 -0.105437
-1.894518 -8.890115 1.116079
-0.187992 -0.881407 -0.110657
-1.895343 -8.878787 1.437946
-0.598124 -2.801927 -0.250660
-1.895097 -8.870049 1.763075
-0.602655 -2.818331 -0.151042
-1.885383 -8.809533 2.079897
-0.632017 -2.950611 -0.052671
-1.885051 -8.792980 2.409606
-0.664919 -3.080578 0.055010
-0.659696 -3.051215 0.163602
