# This PCD file was generated using the MATLAB® pcwrite function
# from Computer Vision Toolbox®.
# .PCD v.7 - Point Cloud Data file format
VERSION .7
FIELDS x y z
SIZE 4 4 4
TYPE F F F
COUNT 1 1 1
WIDTH 1728
HEIGHT 1
VIEWPOINT 0 0 0 1 0 0 0
POINTS 1728
DATA ascii
4.132612 7.111951 -1.302786
4.508345 7.755455 1.101455
4.580552 7.876504 -1.118761
4.517784 7.765444 1.422928
4.548678 7.818547 -0.791374
4.531893 7.786577 1.751245
4.503234 7.734232 -0.469035
4.512860 7.747645 2.070000
4.510423 7.740364 -0.156374
4.517290 7.749038 2.403394
2.895642 4.953312 -1.537385
4.529645 7.745351 0.156618
3.018153 5.158752 -1.379850
4.536916 7.751572 0.470710
3.482848 5.950639 -1.340242
4.546331 7.764550 0.787191
4.155411 7.094077 -1.302161
4.543420 7.753370 1.103405
4.626091 7.891292 -1.123148
4.551853 7.761559 1.425118
4.549072 7.753706 -0.786493
4.566995 7.784256 1.754298
4.534251 7.725354 -0.469454
4.543818 7.738570 2.071799
4.548558 7.743538 -0.156758
4.573676 7.783188 2.418923
2.913777 4.942667 -1.537385
4.569855 7.751888 0.157072
3.050993 5.173364 -1.386598
4.572063 7.749450 0.471547
3.494654 5.920927 -1.336426
4.583874 7.763276 0.788759
4.179380 7.075394 -1.301535
4.625987 7.831468 1.116811
4.655627 7.878514 -1.123635
4.581936 7.750721 1.426057
4.581182 7.746353 -0.787365
4.607489 7.787741 1.758877
4.580844 7.739622 -0.471338
4.578114 7.731922 2.074499
4.580657 7.736216 -0.156932
4.596876 7.760529 2.416852
2.922131 4.917518 -1.532727
4.611518 7.757433 0.157525
3.072920 5.167171 -1.387948
4.654561 7.823612 0.477095
3.511287 5.901942 -1.334900
4.750546 7.981786 0.812640
4.201015 7.055673 -1.300596
4.769449 8.007178 1.144353
4.693615 7.876747 -1.125829
4.622453 7.754236 1.429811
4.612274 7.737162 -0.788062
4.641687 7.783413 1.761549
4.618067 7.740735 -0.472384
4.622053 7.744343 2.082147
4.620255 7.738263 -0.157316
4.630245 7.751920 2.419441
2.932330 4.895688 -1.529103
4.640626 7.744719 0.157595
3.099957 5.171456 -1.391997
4.791748 7.990596 0.488295
3.533886 5.893018 -1.335663
9.645933 16.078949 1.640445
4.212407 7.018946 -1.296529
7.563392 12.597562 1.804154
4.735394 7.884138 -1.129241
4.653560 7.744828 1.431063
4.648487 7.736385 -0.789631
4.677929 7.782308 1.764983
4.665643 7.758802 -0.474478
4.666132 7.756551 2.089795
4.669921 7.759783 -0.158084
4.665245 7.748950 2.423582
2.957387 4.898653 -1.533244
4.677972 7.745588 0.157944
3.120004 5.163940 -1.392897
3.552405 5.877285 -1.334900
9.657675 15.971867 1.632950
4.238925 7.007581 -1.297155
7.568269 12.506545 1.794892
4.769055 7.877748 -1.130704
4.697633 7.759768 1.436694
4.685784 7.737155 -0.791374
4.711172 7.776005 1.767273
4.690629 7.739051 -0.474268
4.703281 7.756879 2.094294
4.697700 7.747674 -0.158154
4.705946 7.758212 2.431346
2.973466 4.886649 -1.532727
4.712986 7.745409 0.158258
3.144206 5.165216 -1.396046
3.572898 5.864850 -1.334900
9.657373 15.846188 1.623537
4.261113 6.991797 -1.296842
7.561130 12.401720 1.783436
4.795151 7.861891 -1.130704
4.736007 7.761874 1.440136
4.725221 7.741158 -0.793466
4.747159 7.777098 1.771089
4.724592 7.737091 -0.475106
4.731012 7.744565 2.095194
4.734103 7.746585 -0.158468
4.743075 7.758222 2.436523
2.985614 4.870174 -1.530656
4.747310 7.740844 0.158503
3.172409 5.170819 -1.400545
3.582056 5.836237 -1.331084
9.657741 15.729183 1.614822
4.284461 6.975196 -1.296529
7.576317 12.329583 1.776855
4.847514 7.885692 -1.136554
4.768961 7.757907 1.442326
4.759218 7.739022 -0.794860
4.786624 7.780545 1.775669
4.765179 7.742665 -0.476467
4.768236 7.744596 2.099693
4.767107 7.742762 -0.158712
4.780935 7.762188 2.442734
3.003613 4.861366 -1.531174
4.788722 7.750575 0.159026
3.197734 5.173532 -1.404144
3.595178 5.812010 -1.328412
9.666460 15.620827 1.607152
4.309646 6.964311 -1.297155
7.573268 12.233506 1.766618
4.897677 7.908389 -1.142160
4.806417 7.758004 1.445455
4.793545 7.734220 -0.796081
4.817565 7.772975 1.777577
4.800303 7.742097 -0.477409
4.805190 7.746960 2.104642
4.809918 7.751562 -0.159236
4.816150 7.758583 2.446875
3.011549 4.838258 -1.527032
4.822091 7.743996 0.159236
3.226076 5.178880 -1.408643
3.619622 5.808387 -1.330320
9.661295 15.497384 1.597739
4.325565 6.935815 -1.294652
7.577050 12.144681 1.757600
4.942072 7.918187 -1.146059
4.839745 7.751235 1.447332
4.870124 7.796860 -0.804273
4.857152 7.776092 1.782156
4.836826 7.740536 -0.478351
4.848728 7.756579 2.111840
4.844367 7.746595 -0.159480
4.851402 7.754826 2.451016
3.034395 4.835371 -1.529621
4.853340 7.733895 0.159375
3.236883 5.156034 -1.405494
3.637752 5.790096 -1.329176
9.709544 15.448375 1.596344
4.342547 6.906536 -1.292149
7.570795 12.040852 1.746388
4.995043 7.941220 -1.151909
4.879398 7.754354 1.451086
4.868655 7.734287 -0.799567
4.896080 7.774852 1.785972
4.871550 7.732896 -0.478979
4.889595 7.758538 2.117239
4.880976 7.744862 -0.159794
4.888740 7.754189 2.456193
3.047127 4.818217 -1.527550
4.899834 7.744779 0.159969
3.266180 5.160603 -1.409993
3.661093 5.782338 -1.330320
9.752754 15.397555 1.594602
4.369800 6.896343 -1.293087
7.578739 11.956019 1.738101
5.019868 7.916149 -1.150934
4.919132 7.757292 1.454841
4.910563 7.740799 -0.802007
4.942127 7.787549 1.792842
4.911361 7.736078 -0.480235
4.918735 7.744714 2.118139
4.921916 7.749722 -0.160248
4.928212 7.756643 2.462405
3.057696 4.797777 -1.524444
4.939456 7.750413 0.160423
3.294798 5.167819 -1.414942
3.670694 5.752973 -1.326504
9.842879 15.420526 1.600528
4.393707 6.883480 -1.293400
7.582024 11.873934 1.729814
5.058914 7.919535 -1.153859
4.951494 7.748400 1.456405
4.947214 7.738718 -0.803576
4.982730 7.794275 1.798184
4.949899 7.739941 -0.481491
4.953841 7.743135 2.122188
4.950017 7.734177 -0.160283
4.967759 7.758914 2.468616
3.072545 4.785986 -1.523927
4.982691 7.758361 0.160946
3.320192 5.167762 -1.418091
3.687630 5.737465 -1.325741
4.409160 6.854809 -1.290897
7.581530 11.782292 1.720308
5.089749 7.906836 -1.154590
4.983860 7.739372 1.457969
4.975005 7.725620 -0.803925
5.021601 7.794990 1.802382
4.989867 7.742762 -0.482747
4.993513 7.745449 2.127587
4.996496 7.747099 -0.160911
5.005284 7.757761 2.473793
3.080839 4.762255 -1.519786
5.011918 7.744278 0.161016
3.349859 5.174136 -1.423040
3.704432 5.719615 -1.324596
4.424464 6.826116 -1.288394
7.586970 11.700792 1.712264
5.121641 7.895681 -1.155565
5.021596 7.738499 1.461098
5.016039 7.729935 -0.806191
5.050916 7.780708 1.803145
5.036447 7.755446 -0.484631
5.031134 7.744314 2.132086
5.034400 7.746382 -0.161260
5.041812 7.754816 2.478451
3.102720 4.759563 -1.522374
5.053119 7.748513 0.161470
3.365771 5.159146 -1.422141
9.710723 14.879184 0.931161
3.722230 5.703360 -1.323833
4.441785 6.800706 -1.286517
7.586509 11.611087 1.703002
5.167634 7.906005 -1.159709
5.065877 7.747375 1.466104
5.054988 7.730721 -0.808108
5.089869 7.781101 1.807343
5.064579 7.739491 -0.484736
5.072014 7.747900 2.137935
5.073462 7.747161 -0.161644
5.078378 7.751715 2.483110
3.114010 4.740630 -1.519786
5.091115 7.747539 0.161819
3.388043 5.153878 -1.423940
9.692364 14.738399 0.924462
3.739958 5.687053 -1.323070
4.468757 6.790109 -1.287456
7.583327 11.518216 1.693253
5.205024 7.902840 -1.161902
5.105935 7.749438 1.469859
5.097291 7.736320 -0.810548
5.125642 7.776402 1.810396
5.108055 7.746778 -0.486306
5.107614 7.743160 2.141534
5.113688 7.749434 -0.162063
5.122432 7.759738 2.491392
3.128408 4.726509 -1.518750
5.126958 7.743060 0.162098
3.414621 5.155018 -1.427539
9.677560 14.604578 0.918182
3.752196 5.662506 -1.320398
4.479330 6.754714 -1.283701
7.592763 11.445355 1.686428
5.242459 7.899506 -1.164096
5.135137 7.734860 1.470484
5.139691 7.741719 -0.812989
5.171222 7.786263 1.816883
5.145014 7.743870 -0.487248
5.145397 7.741515 2.146033
5.145139 7.738197 -0.162203
5.164468 7.764328 2.498639
3.144887 4.715561 -1.518750
5.167275 7.745077 0.162517
3.440166 5.154415 -1.430689
9.695207 14.520879 0.915042
3.767577 5.642843 -1.318872
4.498489 6.732468 -1.282450
7.599572 11.369273 1.679116
5.294276 7.917464 -1.169458
5.179677 7.743159 1.475490
5.173328 7.733668 -0.814035
5.219113 7.799167 1.824134
5.188678 7.750760 -0.488818
5.192993 7.754269 2.154581
5.181025 7.733479 -0.162482
5.202293 7.762302 2.503816
3.157019 4.698140 -1.516680
5.207669 7.746905 0.162936
3.469011 5.158546 -1.435188
9.689806 14.409097 0.910018
3.785061 5.626399 -1.318109
4.519755 6.713448 -1.281824
7.592641 11.273521 1.668879
5.337138 7.924560 -1.173114
5.217469 7.743959 1.478932
5.208086 7.727129 -0.815255
5.246307 7.780900 1.824134
5.220171 7.739223 -0.489237
5.229574 7.753163 2.159080
5.229007 7.749411 -0.163180
5.238815 7.761018 2.508992
3.172580 4.687645 -1.516680
5.240055 7.739530 0.163145
3.489378 5.151854 -1.436537
9.690497 14.307429 0.905621
3.807001 5.618693 -1.319253
4.528691 6.678802 -1.278070
7.596551 11.198999 1.661567
5.366729 7.911747 -1.173846
5.260870 7.752767 1.483938
5.252707 7.737839 -0.818218
5.289726 7.789446 1.830240
5.254787 7.735085 -0.490074
5.264019 7.748672 2.162679
5.261422 7.741951 -0.163389
5.279727 7.765971 2.516239
3.194638 4.686676 -1.519786
5.281462 7.745242 0.163634
3.514129 5.151525 -1.439687
9.706612 14.224023 0.902481
3.820081 5.597929 -1.317345
4.553041 6.667012 -1.278696
7.593336 11.114737 1.652792
5.414477 7.922464 -1.178233
5.297928 7.749035 1.486753
5.290705 7.738471 -0.820136
5.328830 7.791307 1.834819
5.299581 7.745640 -0.491853
5.299834 7.743118 2.166279
5.309882 7.754886 -0.164053
5.320998 7.768212 2.522968
3.204413 4.665943 -1.516680
5.327718 7.754777 0.164227
3.546440 5.160103 -1.445535
3.831808 5.573238 -1.314674
9.664881 14.051981 1.492106
4.580766 6.657586 -1.279947
7.598315 11.039113 1.645480
5.444348 7.906787 -1.178720
5.332792 7.741881 1.488943
5.324469 7.729799 -0.821181
5.369364 7.792056 1.839399
5.342453 7.750116 -0.493319
5.340109 7.743822 2.171677
5.344870 7.747825 -0.164297
5.363442 7.771852 2.530215
3.216285 4.648374 -1.514609
5.368413 7.755862 0.164646
3.577742 5.166919 -1.450934
9.696490 13.998299 0.892433
3.845651 5.551758 -1.312766
9.662809 13.944462 1.484262
4.601725 6.638310 -1.279321
7.605132 10.966846 1.638655
5.476443 7.894258 -1.179695
5.374423 7.744318 1.493011
5.363912 7.729172 -0.823099
5.407722 7.789398 1.843215
5.378591 7.744543 -0.494156
5.386008 7.752343 2.179326
5.381007 7.742260 -0.164576
5.390540 7.753081 2.530215
3.224759 4.626024 -1.510986
5.396593 7.738720 0.164681
3.605793 5.168782 -1.454983
9.706435 13.908676 0.888874
3.865008 5.538299 -1.312766
9.672639 13.855108 1.478336
4.613560 6.606010 -1.276192
7.604715 10.884902 1.630368
5.521018 7.899502 -1.183351
5.417271 7.748173 1.497391
5.403419 7.728361 -0.825016
5.441633 7.780125 1.845505
5.426197 7.755181 -0.496040
5.429800 7.757440 2.186074
5.424059 7.746361 -0.165065
5.436407 7.761120 2.539015
3.249768 4.627387 -1.515127
5.439669 7.742741 0.165170
3.628297 5.162541 -1.456783
9.710018 13.815950 0.885001
3.888833 5.531199 -1.314292
9.668222 13.746293 1.470317
4.633183 6.585017 -1.275254
7.602672 10.801476 1.621837
5.572561 7.914267 -1.188470
5.458855 7.752779 1.501771
5.449871 7.737143 -0.827980
5.489110 7.789970 1.852374
5.460140 7.745986 -0.496668
5.466955 7.752772 2.190123
5.465853 7.751209 -0.165554
5.476593 7.763570 2.545744
3.262555 4.611283 -1.513574
5.483796 7.750777 0.165728
3.658903 5.169571 -1.462182
9.698160 13.697216 0.879558
3.903578 5.511181 -1.312766
9.679291 13.660438 1.464739
4.653851 6.568006 -1.274941
7.604009 10.727622 1.614525
5.605667 7.905458 -1.189932
5.501887 7.756233 1.506151
5.492982 7.740824 -0.830420
5.526273 7.787737 1.856190
5.493892 7.739235 -0.497401
5.499402 7.744134 2.192823
5.506772 7.751647 -0.165972
5.512614 7.757002 2.549885
3.273344 4.594146 -1.511503
5.527065 7.754386 0.166217
3.681452 5.163113 -1.463982
9.704165 13.604740 0.875790
3.917272 5.491814 -1.311239
9.675928 13.560150 1.457418
4.681338 6.558153 -1.276192
7.611419 10.659010 1.608188
5.641303 7.897151 -1.191639
5.538114 7.749839 1.508654
5.530207 7.738774 -0.832163
5.567127 7.787564 1.860770
5.534817 7.739505 -0.498657
5.543407 7.748666 2.199572
5.543105 7.745388 -0.166252
5.564400 7.772268 2.561274
3.288233 4.581123 -1.510986
5.561096 7.744793 0.166426
3.709686 5.164474 -1.468031
9.710799 13.514017 0.872127
3.929543 5.468541 -1.308950
9.672032 13.455112 1.449749
4.697285 6.532149 -1.274315
7.618436 10.590480 1.601851
5.681592 7.895133 -1.194320
5.574368 7.743284 1.511157
5.566501 7.732357 -0.833557
5.617220 7.799947 1.868402
5.578142 7.742826 -0.500122
5.585235 7.749820 2.205420
5.577123 7.735725 -0.166461
5.598275 7.762200 2.564379
3.298545 4.561789 -1.508397
5.599819 7.741536 0.166775
3.733401 5.159389 -1.470280
9.713413 13.418558 0.868149
3.955516 5.464333 -1.311239
9.673370 13.358331 1.442950
4.710784 6.502915 -1.271812
7.615756 10.509168 1.593564
5.737078 7.913827 -1.200169
5.622236 7.752564 1.516789
5.607493 7.732236 -0.835649
5.655944 7.796182 1.872218
5.628596 7.755637 -0.502216
5.628280 7.752355 2.211719
5.626421 7.746951 -0.167124
5.644638 7.769182 2.573179
3.323550 4.562739 -1.512539
5.646826 7.749416 0.167369
3.757129 5.154198 -1.472530
9.726071 13.337768 0.865113
3.969941 5.444146 -1.309713
9.730506 13.338972 1.444519
4.728800 6.480049 -1.270561
7.612601 10.428004 1.585276
5.772860 7.904975 -1.201876
5.667910 7.758411 1.521795
5.657958 7.744789 -0.839135
5.693551 7.790656 1.875653
5.668598 7.753679 -0.503367
5.670263 7.753109 2.217567
5.673503 7.754698 -0.167718
5.685413 7.768139 2.579391
3.334884 4.544880 -1.510468
5.689226 7.750612 0.167822
3.777401 5.144196 -1.473429
9.786755 13.323052 0.866369
3.984270 5.423927 -1.308187
9.810045 13.349876 1.449400
4.749048 6.460320 -1.269935
7.620728 10.362988 1.579427
5.800421 7.884774 -1.201876
5.706663 7.754489 1.524923
5.694403 7.737830 -0.840530
5.737004 7.792870 1.880995
5.703922 7.745100 -0.504100
5.711161 7.752097 2.222966
5.712400 7.750945 -0.168067
5.726254 7.766904 2.585603
3.344988 4.525443 -1.507880
5.732890 7.753218 0.168311
3.798813 5.135678 -1.474779
9.738163 13.160367 0.857996
3.993838 5.397359 -1.305134
9.877918 13.344378 1.452538
4.770394 6.442117 -1.269622
7.622591 10.290064 1.572358
5.832634 7.870861 -1.202851
5.745460 7.750393 1.528052
5.736802 7.738714 -0.842796
5.780546 7.794872 1.886338
5.748775 7.749202 -0.505670
5.750959 7.749328 2.227915
5.751343 7.747013 -0.168416
5.774065 7.774782 2.594920
3.359607 4.512192 -1.507362
5.776644 7.755611 0.168800
3.816718 5.122386 -1.474779
9.923686 13.313659 0.870242
4.012650 5.383389 -1.305134
9.869659 13.236341 1.444519
4.785767 6.415924 -1.267745
7.635900 10.233170 1.567727
5.876699 7.872722 -1.206263
5.790208 7.754031 1.532745
5.779279 7.739395 -0.845062
5.822989 7.795097 1.891299
5.790135 7.748289 -0.506926
5.796645 7.754179 2.235114
5.792716 7.746110 -0.168835
5.806953 7.762316 2.597508
3.373020 4.497345 -1.506327
5.813284 7.748194 0.169079
3.832234 5.105915 -1.473879
4.031418 5.369348 -1.305134
9.705213 12.921424 1.413840
4.801013 6.389705 -1.265868
7.662035 10.193757 1.565777
5.907726 7.856918 -1.206994
5.826738 7.746402 1.535248
5.820630 7.738282 -0.847154
5.852525 7.777860 1.892062
5.835165 7.751963 -0.508496
5.840086 7.755692 2.241412
5.836566 7.748203 -0.169323
5.844479 7.755883 2.602167
3.395687 4.494792 -1.509433
5.852346 7.743812 0.169428
3.857087 5.101832 -1.476579
4.046585 5.350544 -1.303989
9.687739 12.804853 1.404776
4.820905 6.369756 -1.265242
7.666419 10.125798 1.559440
5.924324 7.822011 -1.204800
5.878796 7.759079 1.541818
5.866859 7.743324 -0.849943
5.902174 7.787110 1.899313
5.863390 7.733144 -0.508601
5.883613 7.756996 2.247711
5.881710 7.751676 -0.169847
5.887863 7.756981 2.609414
3.405505 4.475225 -1.506845
5.902357 7.753566 0.170091
3.867785 5.079039 -1.473879
4.064046 5.334826 -1.303607
9.691321 12.717076 1.398850
4.834729 6.341891 -1.263052
7.672825 10.061093 1.553590
5.946777 7.794968 -1.203825
5.921427 7.758923 1.545886
5.913196 7.748138 -0.852732
5.949572 7.792990 1.905800
5.909746 7.738025 -0.510276
5.922486 7.751893 2.252210
5.917231 7.742220 -0.170091
5.936026 7.764004 2.618731
3.419932 4.461776 -1.506327
5.947636 7.756720 0.170615
3.883120 5.062413 -1.472980
4.083840 5.322163 -1.303989
9.689550 12.623115 1.392226
4.864051 6.334380 -1.264929
7.671623 9.987020 1.546278
5.998139 7.805645 -1.208700
5.955544 7.750213 1.548076
5.952343 7.743250 -0.854475
5.988708 7.787735 1.909616
5.963515 7.752173 -0.512578
5.966144 7.752799 2.258509
5.959944 7.744743 -0.170580
5.980597 7.768769 2.627013
3.430760 4.443697 -1.504256
5.989210 7.757533 0.171068
3.904652 5.055676 -1.474779
4.105994 5.312536 -1.305134
9.694560 12.538774 1.386648
4.883823 6.316651 -1.264616
7.680408 9.930122 1.541404
6.019135 7.779430 -1.207725
5.997071 7.748120 1.551830
5.989096 7.735026 -0.855869
6.038537 7.798880 1.917249
6.008756 7.757620 -0.514253
6.014499 7.762237 2.267057
6.004096 7.746017 -0.171068
6.017148 7.760059 2.631155
3.440736 4.426194 -1.502186
6.032213 7.757099 0.171522
3.917491 5.035862 -1.472980
4.121176 5.295794 -1.304370
9.714053 12.478259 1.383510
4.896135 6.287096 -1.262113
8.884962 11.405028 1.775149
6.058454 7.774031 -1.210163
6.039872 7.747390 1.555897
6.026965 7.730834 -0.857612
6.076588 7.791689 1.920684
6.045624 7.749197 -0.515091
6.061943 7.767311 2.274705
6.053246 7.753385 -0.171697
6.065601 7.766415 2.640472
3.459740 4.418719 -1.503739
6.069120 7.748588 0.171801
3.937448 5.025226 -1.473879
4.143271 5.286010 -1.305515
4.904639 6.252870 -1.258672
8.885508 11.323967 1.767349
6.092909 7.762203 -1.211625
6.087616 7.752673 1.561216
6.080983 7.744226 -0.861447
6.117091 7.787412 1.924881
6.087448 7.746891 -0.516347
6.102265 7.762958 2.279654
6.093873 7.749497 -0.172081
6.111786 7.769487 2.648754
3.476338 4.408133 -1.504256
6.114707 7.750906 0.172325
3.942892 4.996154 -1.469380
4.158047 5.266893 -1.304370
4.923985 6.232613 -1.258046
8.888060 11.246157 1.760037
6.090418 7.703515 -1.205775
6.134245 7.756167 1.566222
6.126515 7.746394 -0.864062
6.156420 7.781407 1.928697
6.129325 7.744389 -0.517603
6.143839 7.759944 2.285053
6.146961 7.761097 -0.172814
6.154464 7.767792 2.655483
3.489302 4.392945 -1.503221
6.157900 7.749866 0.172779
3.966369 4.989988 -1.471630
4.165411 5.238515 -1.300936
4.943250 6.212296 -1.257420
8.896352 11.176238 1.753944
6.117273 7.682207 -1.205775
6.171127 7.747071 1.568725
6.178344 7.756130 -0.867548
6.211683 7.795184 1.937475
6.183712 7.757303 -0.519905
6.190331 7.762827 2.292251
6.182743 7.750536 -0.173058
6.199618 7.768910 2.663248
3.499787 4.374704 -1.501150
6.207404 7.756428 0.173407
3.976457 4.966984 -1.468930
4.187352 5.228542 -1.302081
4.969848 6.201168 -1.258672
8.893090 11.092458 1.745657
6.121695 7.632935 -1.201388
6.220384 7.753213 1.574357
6.214109 7.745392 -0.868768
6.262206 7.802544 1.944725
6.223254 7.751246 -0.520952
6.236913 7.765483 2.299450
6.228548 7.752288 -0.173582
6.242431 7.766798 2.669977
3.511399 4.357949 -1.499598
6.249502 7.753395 0.173826
3.998665 4.959140 -1.470730
4.212972 5.223063 -1.304370
4.982780 6.173021 -1.256482
8.894340 11.015016 1.738344
6.135830 7.596075 -1.198951
6.263552 7.751426 1.578424
6.257390 7.743799 -0.871035
6.304209 7.798963 1.949305
6.272881 7.757430 -0.522836
6.281143 7.764875 2.305748
6.270661 7.749158 -0.174000
6.280445 7.758472 2.674636
3.522939 4.341165 -1.498045
6.294171 7.753269 0.174315
4.009808 4.937590 -1.468480
4.227466 5.203753 -1.303226
13.913805 17.120922 1.930151
4.989343 6.137198 -1.252727
8.891406 10.933077 1.730301
6.132244 7.537653 -1.193101
6.309274 7.752498 1.583117
6.300730 7.742000 -0.873301
6.348749 7.798223 1.954647
6.312535 7.750971 -0.523883
6.324208 7.762544 2.311597
6.320414 7.755122 -0.174629
6.339230 7.775431 2.688095
3.547850 4.340808 -1.502186
6.341447 7.756022 0.174873
4.025787 4.922053 -1.468031
26.936760 32.922035 2.229303
4.241874 5.184406 -1.302081
13.986090 17.087675 1.931894
5.010737 6.119743 -1.252727
8.890525 10.854364 1.722745
6.140899 7.494709 -1.189689
6.355082 7.753342 1.587810
6.339085 7.733825 -0.874869
6.387136 7.789675 1.958082
6.357281 7.750512 -0.525348
6.363630 7.755485 2.316096
6.370285 7.760833 -0.175257
6.383490 7.774161 2.695342
3.556843 4.320939 -1.499598
6.390095 7.760080 0.175467
4.046657 4.912486 -1.469380
26.980396 32.741482 2.223441
4.252455 5.160476 -1.299791
5.032064 6.102219 -1.252727
8.903094 10.792640 1.717870
6.167025 7.473225 -1.189689
6.394677 7.746348 1.590939
6.396479 7.748531 -0.879053
6.445539 7.805179 1.967622
6.403379 7.751369 -0.526918
6.403079 7.748244 2.320595
6.404980 7.747798 -0.175467
6.429057 7.774160 2.703106
3.569440 4.305521 -1.498562
6.432460 7.756199 0.175885
4.055071 4.887830 -1.466231
27.194021 32.766979 2.231606
4.277967 5.154665 -1.302081
5.043240 6.072458 -1.250224
6.697925 8.061959 1.286940
6.185459 7.442494 -1.188226
6.446938 7.754357 1.597196
6.434953 7.739943 -0.880622
6.487813 7.800745 1.972202
6.449557 7.752002 -0.528489
6.458754 7.760301 2.330943
6.446062 7.742296 -0.175850
6.468517 7.766518 2.708283
3.569586 4.275243 -1.492351
6.467188 7.742905 0.176095
4.078358 4.881122 -1.468480
4.303485 5.148741 -1.304370
5.056803 6.045724 -1.248347
6.751497 8.068984 1.291815
6.211403 7.420856 -1.188226
6.496709 7.761715 1.603141
6.484957 7.744928 -0.883759
6.522562 7.787085 1.974492
6.491971 7.747811 -0.529745
6.509590 7.766083 2.339491
6.492253 7.745400 -0.176409
6.510375 7.764267 2.715012
3.596922 4.277542 -1.497527
6.519855 7.753559 0.176828
4.088250 4.860113 -1.466231
22.023146 26.171875 1.792611
4.330283 5.144200 -1.307042
15.155028 17.997166 2.058444
5.071735 6.022877 -1.247096
6.778221 8.046549 1.291815
6.235976 7.400218 -1.188226
6.539043 7.757113 1.606895
6.532501 7.746616 -0.886548
6.579991 7.802932 1.984032
6.533082 7.744561 -0.531001
6.552904 7.765302 2.345790
6.542466 7.750196 -0.177037
6.561118 7.769539 2.724847
3.606096 4.259691 -1.495457
6.564970 7.752119 0.177316
4.107706 4.848790 -1.467131
4.362550 5.147784 -1.311621
5.095280 6.008153 -1.247721
6.829385 8.050085 1.296202
6.246358 7.360242 -1.185301
6.587813 7.759842 1.612214
6.580077 7.750730 -0.889511
6.630066 7.806850 1.990901
6.580767 7.746061 -0.532675
6.600160 7.766140 2.352988
6.596682 7.759304 -0.177770
6.608225 7.770133 2.733129
3.623448 4.250019 -1.496492
6.619243 7.761105 0.178049
4.119549 4.828491 -1.465331
4.384315 5.137005 -1.312766
5.118788 5.993333 -1.248347
6.874204 8.045818 1.299371
6.259113 7.323305 -1.182864
6.627695 7.751814 1.615342
6.623922 7.747402 -0.891778
6.677691 7.807532 1.997007
6.629838 7.748843 -0.534455
6.655105 7.775628 2.362886
6.640636 7.755975 -0.178224
6.657927 7.773431 2.742447
3.631969 4.230017 -1.493904
6.659325 7.753119 0.178398
4.135108 4.812604 -1.464881
4.412460 5.133580 -1.315819
6.910523 8.037060 0.927337
5.131948 5.966444 -1.246470
6.916493 8.038325 1.302052
6.300179 7.319464 -1.185789
6.676624 7.754082 1.620661
6.662624 7.737823 -0.893346
6.729251 7.812436 2.004258
6.685529 7.758938 -0.536758
6.706378 7.780396 2.371434
6.680726 7.747893 -0.178573
6.703950 7.772083 2.750211
3.636604 4.205622 -1.489762
6.699428 7.744952 0.178748
4.156983 4.804034 -1.466681
6.952784 8.032179 0.556750
4.448340 5.138928 -1.321162
6.955489 8.032470 0.929603
5.142398 5.936548 -1.243967
6.975706 8.050138 1.307902
6.312686 7.282428 -1.183351
6.728240 7.759082 1.626606
6.713090 7.741611 -0.896484
6.765483 7.799282 2.006929
6.738751 7.765726 -0.538851
6.764157 7.792256 2.382231
6.737885 7.759255 -0.179376
6.748773 7.769054 2.757458
3.656337 4.198731 -1.491833
6.751381 7.750166 0.179411
4.160926 4.774802 -1.462182
4.481731 5.141129 -1.325741
14.298275 16.396191 1.903307
5.157896 5.912606 -1.242715
7.018120 8.042193 1.310583
6.330238 7.251375 -1.181889
6.778674 7.762330 1.632237
6.763664 7.745142 -0.899622
6.822372 7.809626 2.015706
6.772391 7.749674 -0.539374
6.806709 7.786201 2.387630
6.780724 7.753752 -0.179795
6.794933 7.767258 2.765223
3.676067 4.191751 -1.493904
6.800807 7.752112 0.180004
4.180137 4.763178 -1.463082
4.521670 5.150534 -1.332228
14.555246 16.573740 1.929802
5.181110 5.897534 -1.243341
7.068429 8.042994 1.314727
6.342402 7.214327 -1.179452
6.831817 7.768289 1.638495
6.816972 7.751409 -0.903108
6.876827 7.816717 2.023721
6.824470 7.754475 -0.541363
6.849298 7.779948 2.393029
6.830217 7.755546 -0.180388
6.850098 7.775383 2.776611
3.688118 4.175998 -1.492868
6.858280 7.762792 0.180807
4.196740 4.748557 -1.463082
4.533118 5.127366 -1.330320
9.723971 10.994823 1.284153
5.197740 5.874974 -1.242403
7.122772 8.048003 1.319601
6.362282 7.186200 -1.178477
6.866752 7.753264 1.640372
6.869090 7.755903 -0.906420
6.917088 7.807360 2.027536
6.867392 7.748543 -0.542619
6.897099 7.779320 2.400228
6.875826 7.752600 -0.180877
6.914377 7.793334 2.791622
3.697538 4.157323 -1.490798
6.905275 7.761212 0.181331
4.206808 4.726603 -1.460832
9.731111 10.929639 0.766931
4.569267 5.132038 -1.335663
9.735791 10.931053 1.280666
5.216897 5.855323 -1.242090
7.165352 8.039391 1.322282
6.387330 7.163946 -1.178477
6.920066 7.758737 1.646629
6.905398 7.742291 -0.907640
6.965213 7.806605 2.033643
6.923658 7.757304 -0.544922
6.946271 7.779915 2.407876
6.934814 7.764347 -0.181714
6.937679 7.764827 2.790070
3.704294 4.135756 -1.487692
6.949670 7.756424 0.181784
4.227185 4.716242 -1.462182
4.602881 5.133596 -1.340242
5.229391 5.828254 -1.240213
7.222545 8.046827 1.327645
6.404338 7.132745 -1.177014
6.972188 7.762454 1.652574
6.949692 7.737407 -0.909906
7.006856 7.798306 2.037840
6.982735 7.768740 -0.547434
7.002053 7.787498 2.417774
6.993971 7.775773 -0.182552
6.994459 7.773594 2.801975
3.718706 4.122803 -1.487692
6.994120 7.751416 0.182238
4.237094 4.694223 -1.459932
4.635242 5.133530 -1.344440
15.239311 16.871595 1.989068
5.244408 5.804100 -1.238961
7.266558 8.039245 1.330570
6.423874 7.104455 -1.176039
7.023096 7.764438 1.658206
7.014083 7.754473 -0.914787
7.051154 7.792730 2.042801
7.023216 7.759125 -0.548481
7.047509 7.783232 2.424073
7.027778 7.758727 -0.182727
7.048794 7.779192 2.812846
3.731776 4.108366 -1.487174
7.045336 7.753600 0.182866
4.250832 4.676521 -1.459033
4.670305 5.136200 -1.349401
5.259316 5.779915 -1.237710
7.322639 8.044657 1.335688
6.443290 7.076115 -1.175064
7.074077 7.768855 1.664150
7.059890 7.750564 -0.917227
7.107405 7.799994 2.051197
7.067750 7.753748 -0.549842
7.087762 7.772985 2.428571
7.075029 7.759020 -0.183285
7.092777 7.775759 2.820092
3.752613 4.102443 -1.489762
7.092606 7.753799 0.183425
4.265000 4.660963 -1.458583
4.692182 5.124211 -1.350546
5.275784 5.759531 -1.237084
7.377441 8.051063 1.340807
6.461350 7.048861 -1.174089
7.115833 7.760135 1.667592
7.111145 7.752299 -0.920365
7.157122 7.802421 2.058066
7.124476 7.764120 -0.552249
7.134583 7.772409 2.435770
7.127769 7.762260 -0.183948
7.152550 7.786518 2.833033
3.753112 4.075764 -1.484586
7.148081 7.759879 0.184158
4.269360 4.633147 -1.454533
4.729109 5.130275 -1.356270
5.305234 5.751242 -1.239274
7.433769 8.055900 1.345925
6.480532 7.020427 -1.173114
7.168326 7.765522 1.673849
7.154385 7.747706 -0.922631
7.200298 7.794697 2.062645
7.167803 7.756804 -0.553505
7.189451 7.777507 2.445218
7.168400 7.754734 -0.184332
7.191447 7.776942 2.838210
3.771256 4.066889 -1.486139
7.195529 7.759595 0.184716
4.292654 4.627535 -1.457233
4.769694 5.138197 -1.362758
5.306804 5.714798 -1.235207
7.475302 8.047204 1.348606
6.498369 6.993083 -1.172139
7.222291 7.769388 1.680106
7.201735 7.744572 -0.925245
7.243485 7.789469 2.067606
7.217971 7.759316 -0.555389
7.235118 7.775020 2.451967
7.222674 7.758940 -0.185030
7.240929 7.775828 2.847010
3.789996 4.060009 -1.488210
7.240312 7.753432 0.185170
4.300798 4.603979 -1.454533
9.767409 10.455956 0.749870
4.801454 5.138130 -1.366956
5.329418 5.699126 -1.235832
7.535895 8.055851 1.354456
6.520030 6.967457 -1.171652
7.269608 7.768474 1.685112
7.249166 7.743918 -0.928034
7.296130 7.791363 2.074857
7.269592 7.760308 -0.557273
7.290195 7.779580 2.461414
7.279817 7.768505 -0.185833
7.295743 7.782779 2.858398
3.800174 4.042532 -1.486657
7.296118 7.761432 0.185938
4.318711 4.592533 -1.455433
9.735420 10.349062 0.744636
4.839540 5.142786 -1.372680
5.332038 5.664163 -1.232078
7.582979 8.052496 1.358112
6.534930 6.937129 -1.170189
7.315646 7.763179 1.689492
7.313051 7.757713 -0.932741
7.340779 7.787127 2.080200
7.315842 7.757953 -0.558843
7.341359 7.782297 2.469963
7.328850 7.766314 -0.186392
7.345411 7.781143 2.867197
3.813010 4.025107 -1.485621
7.349226 7.755303 0.186496
4.339794 4.577987 -1.456333
9.736616 10.271016 0.741705
4.866004 5.131289 -1.374588
15.896531 16.757305 2.020793
5.365611 5.654174 -1.234581
7.648042 8.056545 1.363962
6.553317 6.903348 -1.168727
7.367167 7.757949 1.694498
7.366114 7.754129 -0.935704
7.393616 7.780369 2.086306
7.374446 7.757476 -0.560937
7.385958 7.769586 2.474911
7.376528 7.756956 -0.186845
7.404527 7.783677 2.878586
3.823672 4.009643 -1.484586
7.399745 7.756935 0.187125
4.344187 4.552292 -1.452734
9.727876 10.193882 0.738460
4.889773 5.122223 -1.376496
5.376147 5.627779 -1.232704
9.029726 9.449072 1.604776
6.576175 6.881577 -1.168727
7.428341 7.770603 1.702633
7.415199 7.754137 -0.938667
7.449235 7.787015 2.094701
7.426364 7.760397 -0.562926
7.445364 7.780251 2.486159
7.424339 7.755562 -0.187404
7.442321 7.771638 2.883244
3.830257 3.989974 -1.481998
7.450362 7.758314 0.187753
4.367361 4.546292 -1.455433
9.734335 10.129623 0.736262
4.933938 5.134293 -1.384128
15.993513 16.637142 2.019050
5.386563 5.601378 -1.230826
9.036237 9.393329 1.600388
6.597405 6.855717 -1.168240
7.477342 7.767393 1.707639
7.468474 7.755479 -0.941979
7.481825 7.769343 2.096609
7.482545 7.767370 -0.565228
7.492762 7.775260 2.492908
7.477729 7.756958 -0.188067
7.498909 7.776205 2.894632
3.844854 3.975909 -1.481998
7.499634 7.755266 0.188311
4.366944 4.514213 -1.450034
9.729359 10.053957 0.733227
4.963651 5.127456 -1.387182
5.404307 5.578761 -1.230201
9.049637 9.341765 1.596976
6.610246 6.821240 -1.166290
7.536032 7.773869 1.714835
7.526016 7.760827 -0.945814
7.543064 7.775682 2.105768
7.527652 7.757094 -0.566484
7.557857 7.785500 2.505055
7.547941 7.775285 -0.189149
7.561001 7.786012 2.908091
3.861406 3.965231 -1.483033
7.561502 7.762096 0.189149
4.375299 4.489805 -1.447335
9.729894 9.981048 0.730505
5.000701 5.129783 -1.392524
9.732950 9.980689 1.219657
5.420988 5.557036 -1.229575
8.975673 9.197720 1.577964
6.618561 6.779922 -1.163365
7.593459 7.775873 1.721405
7.587863 7.770144 -0.950172
7.585246 7.764758 2.109966
7.577021 7.753624 -0.568159
7.599974 7.774397 2.510004
7.590368 7.761867 -0.189498
7.611100 7.780344 2.916373
3.869814 3.946210 -1.480963
7.616553 7.764210 0.189847
4.401865 4.485630 -1.450934
9.728298 9.909964 0.727784
5.024079 5.117898 -1.394051
9.723052 9.901172 1.214079
5.437585 5.535260 -1.228949
8.145077 8.288492 1.426846
6.642182 6.756783 -1.163365
7.633018 7.761996 1.724221
7.647069 7.776285 -0.954181
7.635711 7.762024 2.116454
7.633454 7.757029 -0.570357
7.657140 7.778375 2.519902
7.644077 7.762394 -0.190161
7.668040 7.784004 2.927761
3.880850 3.929929 -1.479927
7.668908 7.763182 0.190476
4.414757 4.467464 -1.450034
9.731629 9.847814 0.725586
5.051574 5.110105 -1.396722
9.715528 9.824668 1.208850
5.454096 5.513435 -1.228324
9.746196 9.848802 1.701296
6.676902 6.744840 -1.165315
7.683730 7.761913 1.729853
7.706414 7.782103 -0.958190
7.687627 7.760431 2.123322
7.690009 7.760126 -0.572555
7.710315 7.777893 2.528450
7.699342 7.766824 -0.190894
7.708769 7.773627 2.933455
3.904081 3.925946 -1.483551
7.719992 7.763228 0.191104
4.436419 4.459709 -1.452284
9.726492 9.774150 0.722655
5.086003 5.109136 -1.401301
9.718838 9.759633 1.205015
5.454228 5.477123 -1.224256
8.969036 9.003551 1.560415
6.690826 6.714223 -1.163852
7.744250 7.768618 1.737361
7.757446 7.779140 -0.961154
7.745206 7.766866 2.132100
7.749556 7.768516 -0.575068
7.767722 7.784009 2.538798
7.754660 7.768207 -0.191593
7.768621 7.779478 2.945879
3.903410 3.899326 -1.478374
7.769681 7.758843 0.191662
4.446442 4.438689 -1.450484
9.739347 9.718974 0.721085
5.107086 5.096403 -1.402446
9.720119 9.696392 1.201180
5.480306 5.465026 -1.225821
9.034154 9.005821 1.566265
6.702976 6.679615 -1.161902
7.800708 7.770817 1.743932
7.824080 7.791380 -0.966034
7.811221 7.778574 2.142785
7.797860 7.762551 -0.576638
7.825234 7.787091 2.548696
7.810081 7.769299 -0.192291
7.828607 7.785003 2.958302
3.914931 3.882273 -1.477339
7.827954 7.762654 0.192430
4.443918 4.405305 -1.444636
9.736326 9.648368 0.718363
5.120151 5.072124 -1.400920
9.718782 9.624252 1.196648
5.498895 5.443515 -1.225508
9.085283 8.993784 1.569677
6.712140 6.642216 -1.159465
7.857279 7.772711 1.750502
7.885233 7.797643 -0.970218
7.864812 7.774734 2.149654
7.853249 7.760594 -0.578626
7.875906 7.780267 2.555894
7.868453 7.772904 -0.193059
7.877726 7.779349 2.966584
3.931213 3.871294 -1.478374
7.883431 7.760563 0.193093
4.464200 4.393089 -1.445985
9.744324 9.589105 0.716479
5.137826 5.054220 -1.400920
9.723904 9.562331 1.193162
5.510820 5.417361 -1.223943
9.140842 8.982684 1.573577
6.729620 6.613181 -1.158490
7.909727 7.770156 1.756134
7.947940 7.804971 -0.974575
7.908714 7.763740 2.154234
7.911651 7.763911 -0.580929
7.926698 7.778677 2.563992
7.915520 7.764997 -0.193547
7.935176 7.781562 2.977972
3.935745 3.850130 -1.475269
7.944863 7.769332 0.193966
4.478745 4.378260 -1.445985
9.741795 9.523228 0.713967
5.154560 5.037153 -1.400920
9.718503 9.493836 1.188630
5.532996 5.403196 -1.224882
9.198992 8.980054 1.578452
6.751514 6.590827 -1.158490
7.963723 7.771478 1.762391
7.993749 7.798048 -0.977016
7.959718 7.762139 2.161103
7.960234 7.759942 -0.582604
7.988729 7.787718 2.575690
7.972736 7.769408 -0.194315
7.989999 7.783512 2.988842
3.941563 3.830326 -1.472680
7.987798 7.759662 0.194385
4.490442 4.360670 -1.445086
9.763511 9.478038 0.713130
5.174051 5.022768 -1.401683
9.735637 9.447679 1.186887
5.533868 5.368314 -1.221128
9.268620 8.988195 1.585276
6.771628 6.564457 -1.158003
8.023431 7.775248 1.769587
8.041023 7.792296 -0.979631
8.030536 7.779415 2.173315
8.028968 7.775181 -0.585744
8.052270 7.795023 2.587387
8.028546 7.769344 -0.195013
8.051830 7.789155 3.001783
3.949347 3.811179 -1.470610
8.049378 7.765050 0.195223
4.500024 4.339559 -1.443286
9.790783 9.438356 0.712711
5.180244 4.993778 -1.398630
9.768559 9.413634 1.186887
5.562533 5.358556 -1.223318
9.314235 8.969559 1.587714
6.791642 6.538024 -1.157515
8.086109 7.781435 1.777409
8.114117 7.808388 -0.985209
8.081694 7.774477 2.179802
8.079096 7.769256 -0.587419
8.101910 7.788475 2.594585
8.087337 7.771757 -0.195781
8.099870 7.781075 3.009548
3.972391 3.806726 -1.474233
8.111085 7.770111 0.196060
4.517961 4.326518 -1.444186
5.201348 4.977473 -1.399393
5.568357 5.326818 -1.220502
9.265147 8.860158 1.574064
6.802938 6.503308 -1.155565
8.133214 7.772269 1.781789
8.174375 7.808874 -0.989043
8.145632 7.778698 2.189342
8.139298 7.769934 -0.589722
8.148781 7.778986 2.600884
8.146245 7.773849 -0.196549
8.167521 7.791421 3.024559
3.986316 3.792141 -1.474233
8.168497 7.767884 0.196758
4.528138 4.304560 -1.442386
5.213866 4.952963 -1.397867
5.599301 5.317257 -1.223005
9.366664 8.891745 1.585764
6.820974 6.472860 -1.154590
8.190307 7.769599 1.788046
8.233298 7.807652 -0.992704
8.205435 7.778503 2.197738
8.205413 7.775771 -0.592443
8.218256 7.787942 2.613931
8.197908 7.765944 -0.197107
8.225478 7.789330 3.035430
3.988951 3.766895 -1.470092
8.227448 7.766722 0.197491
4.542468 4.286596 -1.441936
5.225408 4.929348 -1.396340
5.610129 5.288568 -1.221128
9.630341 9.075183 1.624762
6.853320 6.455985 -1.156053
8.247575 7.769405 1.794616
8.282262 7.799352 -0.995319
8.259693 7.775387 2.204989
8.265961 7.778560 -0.594851
8.277974 7.787142 2.623829
8.271577 7.781124 -0.198224
8.275130 7.781752 3.043712
3.996440 3.747662 -1.468022
8.289623 7.773594 0.198364
4.550972 4.266177 -1.440137
5.256912 4.924499 -1.400156
5.626195 5.268583 -1.220815
9.866171 9.235833 1.659373
6.857298 6.416949 -1.153128
8.317924 7.781050 1.804003
8.339994 7.798974 -0.998979
8.316980 7.777452 2.213384
8.332562 7.789298 -0.597781
8.340773 7.794239 2.635527
8.330834 7.782237 -0.198992
8.337543 7.785779 3.056653
4.020155 3.744921 -1.472163
8.338658 7.765054 0.198888
4.568686 4.252924 -1.441036
5.264591 4.899013 -1.397867
5.647441 5.251606 -1.221440
9.907075 9.209444 1.660836
6.882565 6.395673 -1.153615
8.369728 7.777631 1.809634
8.399384 7.802465 -1.002988
8.377169 7.779098 2.222162
8.378733 7.777827 -0.599142
8.392208 7.787617 2.643175
8.391774 7.787215 -0.199830
8.394477 7.786989 3.068041
4.024693 3.722995 -1.469057
8.406935 7.776736 0.199900
4.572750 4.228487 -1.437887
5.290310 4.888602 -1.400156
5.676435 5.243570 -1.223943
9.295861 8.583986 1.553590
6.886231 6.356658 -1.150690
8.433117 7.781860 1.817456
8.469040 7.812272 -1.008043
8.440436 7.785887 2.232084
8.433846 7.777076 -0.601236
8.462406 7.800687 2.657122
8.449789 7.786329 -0.200563
8.455711 7.789050 3.080464
4.048397 3.720087 -1.473198
8.467900 7.778459 0.200703
4.597531 4.221725 -1.441036
9.369566 8.603690 0.666655
5.300706 4.865722 -1.398630
9.290992 8.525572 1.103217
5.691793 5.221052 -1.223318
9.267243 8.497823 1.543841
6.902522 6.327218 -1.149715
8.483629 7.776544 1.822775
8.533094 7.819139 -1.012575
8.499412 7.785553 2.240479
8.490396 7.774572 -0.603329
8.508273 7.788204 2.662971
8.494740 7.775816 -0.201017
8.509993 7.787056 3.090817
4.044233 3.690305 -1.466986
8.526147 7.779987 0.201471
4.611504 4.206457 -1.441036
9.294755 8.475388 0.659224
5.306052 4.836607 -1.395577
9.282407 8.458196 1.098685
5.714916 5.207472 -1.224569
9.266024 8.440307 1.538966
6.911726 6.293600 -1.147766
8.539941 7.773475 1.829032
8.573597 7.801375 -1.014144
8.558581 7.787712 2.249256
8.551593 7.778625 -0.605841
8.571539 7.794035 2.674668
8.549945 7.771674 -0.201680
8.575728 7.792378 3.104793
4.059311 3.679469 -1.468022
8.594746 7.787771 0.202448
4.621826 4.186410 -1.439687
9.305044 8.428430 0.657968
5.324971 4.821622 -1.396340
9.283818 8.403298 1.095548
5.718410 5.174239 -1.221440
9.273344 8.387938 1.535310
6.945434 6.280084 -1.149715
8.609632 7.784857 1.838418
8.642282 7.811647 -1.019199
8.613389 7.782799 2.256507
8.611302 7.778177 -0.608144
8.634851 7.796719 2.685915
8.618709 7.782144 -0.202692
8.635942 7.794960 3.117217
4.063514 3.657523 -1.464916
8.656190 7.791340 0.203286
4.625543 4.161935 -1.436537
9.313621 8.377195 0.656502
5.333009 4.795130 -1.394051
9.289385 8.349532 1.092759
5.732600 5.152605 -1.220815
9.265673 8.325297 1.529460
6.951452 6.243754 -1.147278
8.669087 7.783792 1.845301
8.706568 7.814701 -1.023557
8.672757 7.784354 2.265285
8.657859 7.768254 -0.609609
8.695477 7.799267 2.696713
8.683045 7.785383 -0.203565
8.688992 7.787979 3.126534
4.079138 3.645890 -1.465951
8.711532 7.783541 0.203914
4.629138 4.134570 -1.432938
9.307014 8.309751 0.653885
5.361432 4.786945 -1.397104
9.291715 8.293177 1.089621
5.742601 5.123670 -1.218938
9.263531 8.262214 1.524098
6.956508 6.202383 -1.144353
8.732949 7.783513 1.852810
8.770852 7.814549 -1.027740
8.720284 7.769494 2.270246
8.714613 7.761706 -0.611598
8.758937 7.798442 2.707511
8.733927 7.773450 -0.204088
8.752118 7.786897 3.138958
4.092473 3.630916 -1.465951
8.780530 7.790246 0.204891
4.656665 4.130023 -1.436987
9.298604 8.244084 0.651269
5.367186 4.756845 -1.394051
9.126692 8.085980 1.066786
5.761343 5.102586 -1.218938
9.277457 8.216663 1.521661
6.975142 6.175433 -1.143866
8.783734 7.773926 1.857816
8.826431 7.808967 -1.031052
8.804584 7.786907 2.284747
8.781905 7.764111 -0.614320
8.813743 7.789519 2.715609
8.799967 7.777344 -0.204996
8.813988 7.787003 3.151381
4.105123 3.616608 -1.465951
8.854046 7.797658 0.205938
4.667382 4.109065 -1.435638
9.145840 8.048972 0.638499
5.363126 4.719922 -1.388708
9.256584 8.143559 1.078639
5.779119 5.082445 -1.218938
9.276198 8.155082 1.516542
7.000716 6.152441 -1.144353
8.849268 7.774275 1.865638
8.885067 7.805726 -1.034713
8.868592 7.788511 2.294287
8.861487 7.779524 -0.617983
8.880424 7.793413 2.727757
8.865993 7.778009 -0.205869
8.877334 7.785210 3.163804
4.114815 3.599711 -1.464916
8.914326 7.795668 0.206706
4.693436 4.103007 -1.439237
9.318257 8.143164 0.648547
5.385483 4.706338 -1.390234
9.298453 8.123003 1.080208
5.802777 5.067438 -1.220189
9.282180 8.103068 1.512886
7.013171 6.120140 -1.142891
8.918033 7.779696 1.874398
8.930279 7.790378 -1.036805
8.931239 7.788471 2.303446
8.918694 7.774799 -0.620076
8.953121 7.802053 2.741704
8.933802 7.782476 -0.206811
8.948155 7.792241 3.179333
4.121521 3.580259 -1.462845
8.961114 7.781546 0.207160
4.682709 4.064886 -1.431589
9.319565 8.089968 0.646768
5.404843 4.690085 -1.390998
9.302672 8.069604 1.077419
5.841326 5.065268 -1.224569
9.271407 8.036814 1.506549
7.040495 6.100821 -1.143866
8.979609 7.781128 1.881907
8.972480 7.772201 -1.038548
8.992506 7.786809 2.312224
8.975983 7.769761 -0.622170
9.018618 7.803905 2.753401
8.983758 7.773741 -0.207370
9.006092 7.790327 3.190722
4.133994 3.565849 -1.462845
9.029269 7.788355 0.208137
4.699115 4.051878 -1.432488
9.322031 8.035216 0.644988
5.418209 4.668625 -1.390234
9.303610 8.013680 1.074282
5.873055 5.058765 -1.227698
9.273937 7.985302 1.502649
7.048653 6.067079 -1.141916
9.054631 7.790967 1.891919
8.979913 7.723949 -1.036282
9.052510 7.786394 2.321001
9.030476 7.764691 -0.624159
9.062179 7.789201 2.758800
9.056334 7.781436 -0.208417
9.075732 7.795343 3.205733
4.145796 3.552122 -1.462845
9.103477 7.797122 0.209219
4.705830 4.029112 -1.430239
9.316643 7.974053 0.642686
5.427693 4.645527 -1.388708
9.308936 7.964651 1.071841
5.914697 5.058775 -1.232704
9.282143 7.936110 1.499481
7.054693 6.029544 -1.139478
9.108806 7.782407 1.897550
9.000762 7.687379 -1.035585
9.127409 7.795546 2.333213
9.113720 7.781111 -0.628032
9.133780 7.795475 2.772297
9.121475 7.782222 -0.209289
9.146982 7.801226 3.221262
4.155843 3.534400 -1.461810
9.171770 7.800273 0.210162
4.728775 4.020234 -1.432938
9.317025 7.918205 0.640801
5.441690 4.623061 -1.387945
9.304663 7.902099 1.068007
5.943739 5.046013 -1.234894
9.294653 7.890814 1.497043
7.069644 5.999743 -1.138503
9.170565 7.779954 1.904746
9.012344 7.643029 -1.033841
9.191858 7.792511 2.342371
9.169610 7.770892 -0.629916
9.224739 7.814853 2.791193
9.189778 7.785235 -0.210232
9.211012 7.800463 3.234203
4.162252 3.514886 -1.459739
9.224744 7.787245 0.210720
4.746456 4.005389 -1.433838
9.327819 7.871462 0.639650
5.448792 4.596442 -1.385655
9.300199 7.842605 1.064346
5.976421 5.037965 -1.238023
9.293154 7.831109 1.492168
7.103734 5.984020 -1.140453
9.244499 7.787350 1.914445
9.017634 7.593554 -1.031401
9.253551 7.789454 2.351149
9.242524 7.777417 -0.633056
9.272841 7.800164 2.797491
9.259748 7.789150 -0.211209
9.264801 7.790640 3.243520
4.165613 3.492889 -1.456634
9.294957 7.793870 0.211733
4.749257 3.980865 -1.430689
9.330744 7.818332 0.637975
5.467812 4.579916 -1.386418
9.316826 7.801137 1.063126
6.018842 5.039679 -1.243341
9.306896 7.790053 1.490219
7.114403 5.952788 -1.138991
9.311019 7.787987 1.922580
9.039503 7.558194 -1.030878
9.315480 7.788947 2.360307
9.292782 7.767220 -0.634731
9.333050 7.798111 2.807839
9.329857 7.792672 -0.212186
9.330493 7.790447 3.256979
4.183110 3.484002 -1.458704
9.363600 7.795921 0.212675
4.755634 3.958031 -1.428439
9.341267 7.774573 0.636929
5.476934 4.556735 -1.384892
9.367156 7.790581 1.065915
6.057661 5.036320 -1.247721
9.370671 7.787972 1.496068
7.119872 5.915231 -1.136554
9.385418 7.797460 1.932592
9.050717 7.516726 -1.029309
9.386415 7.792752 2.371374
9.359800 7.767897 -0.637452
9.390211 7.790369 2.816837
9.386426 7.787228 -0.212884
9.405349 7.800157 3.274061
4.198225 3.471840 -1.459739
9.427925 7.796689 0.213548
4.779248 3.950930 -1.431589
9.397600 7.766089 0.638917
5.483724 4.530088 -1.382602
9.443452 7.798434 1.071493
6.097178 5.035070 -1.252414
9.427061 7.782132 1.500943
7.133323 5.886536 -1.135579
9.458291 7.802363 1.941978
9.073828 7.482550 -1.028961
9.454615 7.796558 2.382060
9.434822 7.777471 -0.640801
9.456597 7.792650 2.828984
9.442875 7.778575 -0.213548
9.490679 7.815173 3.294249
4.200758 3.450541 -1.456634
9.492171 7.794188 0.214385
4.785480 3.928039 -1.429339
9.480239 7.778845 0.642686
5.492647 4.506896 -1.381076
9.506231 7.797403 1.075676
6.136103 5.031290 -1.256795
9.503299 7.789443 1.508743
7.159968 5.866633 -1.136554
9.531317 7.806849 1.951364
9.076770 7.431895 -1.026346
9.515193 7.790868 2.390455
9.499005 7.774852 -0.643314
9.530499 7.797845 2.842932
9.500930 7.770884 -0.214246
9.556786 7.813792 3.307708
4.201398 3.425356 -1.452493
9.554971 7.790069 0.215188
4.799161 3.911312 -1.429339
9.550688 7.781029 0.645616
5.512172 4.489214 -1.381839
9.562558 7.785149 1.078814
6.168290 5.019989 -1.259610
9.573540 7.791310 1.515567
7.174245 5.836592 -1.135579
9.607550 7.813416 1.961376
9.107293 7.403938 -1.026869
9.592437 7.795564 2.402667
9.570845 7.775244 -0.646244
9.598345 7.794805 2.854629
9.574564 7.775492 -0.215293
9.625999 7.814475 3.322201
4.220836 3.416748 -1.455081
9.622318 7.786444 0.216061
4.801344 3.883890 -1.425740
9.621272 7.782812 0.648547
5.524755 4.467478 -1.381076
9.629960 7.784288 1.083346
6.219579 5.025740 -1.266494
9.634462 7.782362 1.520686
7.180142 5.797788 -1.133141
9.690091 7.824510 1.972639
9.128433 7.368346 -1.026346
9.662373 7.796550 2.413352
9.638344 7.774392 -0.648966
9.695281 7.817518 2.875324
9.649907 7.780931 -0.216375
9.681798 7.803858 3.332036
4.234244 3.403203 -1.455598
9.694848 7.792072 0.217108
4.811159 3.865507 -1.424840
9.679520 7.774200 0.650641
5.540317 4.448164 -1.381076
9.713014 7.795518 1.089621
6.254697 5.019926 -1.270248
9.709759 7.790128 1.528485
7.199331 5.773944 -1.133141
9.788242 7.847474 1.987031
9.146319 7.330214 -1.025474
9.718809 7.789029 2.420985
9.709276 7.778599 -0.652001
9.736361 7.797508 2.879823
9.722281 7.783440 -0.217387
9.739144 7.794159 3.342389
4.242486 3.386733 -1.454563
9.775133 7.800590 0.218295
4.833762 3.855981 -1.427539
9.748762 7.773984 0.653467
5.539686 4.417529 -1.377259
9.782436 7.798037 1.094502
6.290719 5.012836 -1.274002
9.788134 7.797000 1.536529
7.203915 5.736412 -1.130704
9.852667 7.842786 1.994540
9.165902 7.296117 -1.024951
9.801245 7.799060 2.434723
9.791080 7.788174 -0.655665
9.803176 7.795011 2.891521
9.790087 7.781814 -0.218295
9.817719 7.800974 3.359989
4.245199 3.364703 -1.451457
9.825809 7.785055 0.218818
4.833445 3.828195 -1.423490
5.558152 4.400600 -1.378023
9.843962 7.791052 1.098337
6.325221 5.004326 -1.277444
9.857331 7.796031 1.543110
7.227005 5.713697 -1.131191
9.929579 7.847538 2.004552
9.174122 7.250486 -1.023034
9.876166 7.802526 2.446553
9.846414 7.776237 -0.657549
9.882333 7.801796 2.906818
9.840740 7.766173 -0.218818
9.887352 7.800167 3.374483
4.259953 3.352254 -1.452493
9.881216 7.772960 0.219447
4.849843 3.813707 -1.424390
9.904860 7.785965 0.660270
5.579653 4.386027 -1.379549
9.918097 7.793571 1.103566
6.367506 5.001739 -1.282450
9.931321 7.798357 1.550422
7.246907 5.688434 -1.131191
9.197810 7.217186 -1.022860
9.925366 7.782486 -0.661003
9.933897 7.783577 -0.220284
4.273153 3.338552 -1.453010
9.963447 7.781504 0.220668
4.849298 3.785965 -1.420341
9.979216 7.788205 0.663411
5.588739 4.361690 -1.378023
9.973516 7.780965 1.106704
6.412962 5.001353 -1.288082
7.260458 5.658219 -1.130216
9.224513 7.186267 -1.023034
9.982417 7.771100 -0.662992
10.002046 7.780775 -0.221192
4.289359 3.327168 -1.454563
10.050601 7.793238 0.221995
4.876348 3.779758 -1.424390
10.080542 7.810821 0.668330
5.603929 4.342156 -1.378023
9.906109 7.672897 1.096245
6.456935 4.999495 -1.293400
7.280163 5.632843 -1.130216
9.243239 7.149145 -1.022337
4.297885 3.309819 -1.453528
4.889511 3.762715 -1.424390
5.612826 4.317781 -1.376496
6.505668 5.001004 -1.299658
9.806239 7.535480 1.518492
7.277743 5.590465 -1.126804
9.255495 7.107131 -1.020942
12.272202 9.416791 -0.810684
4.297135 3.285408 -1.449387
4.887131 3.733792 -1.419891
5.615384 4.288629 -1.373443
6.541930 4.992644 -1.303412
7.290898 5.560213 -1.125829
9.270741 7.067530 -1.019897
12.247801 9.330327 -0.806916
4.310115 3.271557 -1.449904
4.909452 3.723775 -1.422590
5.636576 4.273746 -1.374970
6.568767 4.976935 -1.305289
7.310261 5.534730 -1.125829
9.281059 7.024302 -1.018328
12.251624 9.265828 -0.805032
4.316314 3.253757 -1.448351
4.917101 3.703960 -1.421241
5.653855 4.257392 -1.375733
6.601015 4.967006 -1.308418
7.331750 5.512842 -1.126317
9.289966 6.982714 -1.016759
12.269506 9.215556 -0.804194
4.326098 3.237514 -1.447834
4.923759 3.682104 -1.419441
5.668681 4.237631 -1.375733
6.637306 4.958118 -1.312172
7.328677 5.470593 -1.122904
9.312686 6.949054 -1.016585
