# This PCD file was generated using the MATLAB® pcwrite function
# from Computer Vision Toolbox®.
# .PCD v.7 - Point Cloud Data file format
VERSION .7
FIELDS x y z
SIZE 4 4 4
TYPE F F F
COUNT 1 1 1
WIDTH 1661
HEIGHT 1
VIEWPOINT 0 0 0 1 0 0 0
POINTS 1661
DATA ascii
3.337674 -2.712454 -0.992934
3.273063 -2.660895 0.221067
3.330066 -2.707237 -0.834217
3.315630 -2.696461 0.373898
3.322095 -2.702682 -0.678300
3.384149 -2.754149 0.535738
3.460640 -2.817404 -0.547925
3.479047 -2.833399 -0.392549
40.287479 -32.822552 10.101048
3.289937 -2.681295 -0.222428
3.198484 -2.608620 -0.072044
3.333183 -2.726236 -1.153815
3.222240 -2.636434 0.072672
3.323662 -2.720386 -0.991584
3.276118 -2.682426 0.221904
3.319077 -2.717600 -0.833835
3.324693 -2.723168 0.375990
3.301945 -2.705499 -0.676110
3.450785 -2.829467 -0.547925
3.452191 -2.831628 -0.390632
3.303714 -2.711771 -0.223998
3.261985 -2.679424 -0.073684
3.340049 -2.751366 -1.159509
3.222277 -2.655296 0.072881
3.303620 -2.723294 -0.988435
3.266735 -2.693846 0.221904
3.311085 -2.730418 -0.834217
3.324389 -2.742364 0.377036
3.294004 -2.718266 -0.676423
3.726123 -3.075951 0.593260
3.447010 -2.846551 -0.548900
3.738800 -3.088610 0.768093
3.391596 -2.801786 -0.384880
3.772828 -3.117829 0.951374
3.264980 -2.699107 -0.222009
3.674774 -3.038958 1.100910
3.264938 -2.700992 -0.073963
3.647829 -3.018819 1.268731
3.343805 -2.774110 -1.164168
3.225299 -2.676744 0.073160
3.289596 -2.731075 -0.987085
3.252702 -2.701404 0.221590
3.301534 -2.741960 -0.834217
3.461916 -2.876180 0.393770
3.299688 -2.742373 -0.679551
3.675676 -3.055942 0.586923
3.427895 -2.850950 -0.547437
3.667254 -3.051106 0.755579
3.398643 -2.827625 -0.386797
3.671382 -3.055625 0.928477
3.622217 -3.016847 1.088313
3.273926 -2.727732 -0.074382
3.619462 -3.016691 1.262519
3.345962 -2.795674 -1.168309
3.237417 -2.705940 0.073649
3.290508 -2.751291 -0.990235
3.250912 -2.719149 0.222114
3.288930 -2.750948 -0.833454
3.644389 -3.049344 0.415733
3.293124 -2.756410 -0.680177
3.649766 -3.056010 0.584485
3.414879 -2.860349 -0.546950
3.641441 -3.051202 0.752450
3.378062 -2.830514 -0.385577
3.642638 -3.053288 0.923897
3.255240 -2.729535 -0.222637
3.593748 -3.014444 1.082914
3.246002 -2.723719 -0.073963
3.600031 -3.021856 1.259413
3.340616 -2.811068 -1.169862
3.238660 -2.726239 0.073893
3.285356 -2.766526 -0.991584
3.267369 -2.752355 0.223893
3.289819 -2.771266 -0.836125
3.630675 -3.059479 0.415384
3.297076 -2.779347 -0.682993
3.623901 -3.055935 0.582048
3.369975 -2.842812 -0.541344
3.621710 -3.056251 0.750573
3.412319 -2.879552 -0.390632
3.637959 -3.071050 0.925424
3.257900 -2.751190 -0.223475
3.608511 -3.048348 1.090563
3.225783 -2.725998 -0.073719
3.586511 -3.031909 1.258378
3.560697 -3.017554 -1.250614
3.232175 -2.740114 0.073963
3.290541 -2.790581 -0.996083
3.295817 -2.796045 0.226510
3.293599 -2.794163 -0.839560
3.623012 -3.074713 0.415733
3.332530 -2.829192 -0.692379
3.634395 -3.086556 0.585460
3.608009 -3.066315 0.749947
3.411355 -2.899187 -0.391678
3.612259 -3.071014 0.921608
3.236105 -2.752194 -0.222637
3.596364 -3.059663 1.090113
3.217771 -2.738538 -0.073754
3.575905 -3.044410 1.258378
3.573653 -3.050031 -1.258896
3.198257 -2.730605 0.073405
3.273889 -2.797153 0.225673
3.624374 -3.097696 0.417127
3.655949 -3.125787 -0.761836
3.629633 -3.104384 0.586435
3.678867 -3.147606 -0.594479
3.621295 -3.099443 0.754953
3.445111 -2.948647 -0.396733
3.613448 -3.093819 0.924660
3.196140 -2.737489 -0.220544
3.600460 -3.084877 1.094612
3.183899 -2.728932 -0.073195
3.585789 -3.074478 1.265625
3.565914 -3.065005 -1.259931
3.199320 -2.750878 0.073649
3.731930 -3.209966 -1.136453
3.261566 -2.805390 0.225463
3.727909 -3.207640 -0.955953
3.658840 -3.149321 0.422357
3.749801 -3.228755 -0.783737
3.624791 -3.122217 0.587410
3.652899 -3.147539 0.763713
3.314066 -2.856590 -0.382788
3.624929 -3.125644 0.930385
3.182028 -2.744715 -0.220230
3.598522 -3.105065 1.097311
3.179374 -2.743394 -0.073300
3.598972 -3.106549 1.273907
3.556654 -3.078698 -1.260449
3.209836 -2.778486 0.074103
3.733050 -3.232529 -1.140052
3.268360 -2.831143 0.226615
4.540148 -3.934186 -1.167751
5.304856 -4.598453 -1.111936
6.317525 -5.480137 -1.026871
3.168385 -2.751323 -0.219916
3.159213 -2.745293 -0.073056
3.540600 -3.085399 -1.258378
3.197102 -2.787045 0.074033
3.715869 -3.240417 -1.138252
4.530035 -3.951801 -1.168514
5.299189 -4.626036 -1.114126
6.301347 -5.504767 -1.027359
3.221033 -2.814840 -0.374247
3.160265 -2.763681 -0.220020
3.142086 -2.749720 -0.072881
3.535616 -3.102836 -1.260449
3.172327 -2.784996 0.073684
3.719178 -3.266227 -1.142751
4.523588 -3.974069 -1.170422
5.283009 -4.644505 -1.114126
6.285074 -5.529351 -1.027846
3.220162 -2.833964 -0.375293
3.159592 -2.782616 -0.220648
3.148971 -2.775215 -0.073265
3.526211 -3.116438 -1.260966
3.179066 -2.810622 0.074068
3.701915 -3.274025 -1.140952
4.505277 -3.985932 -1.169278
5.263807 -4.660299 -1.113501
6.265734 -5.551257 -1.027846
39.960659 -35.416416 8.457161
3.189375 -2.826686 -0.372852
39.860592 -35.340153 10.354823
3.137906 -2.783026 -0.219811
3.127300 -2.775571 -0.072986
3.518198 -3.131296 -1.262002
3.214041 -2.861594 0.075115
3.769046 -3.356918 -1.165246
4.500131 -4.009471 -1.171567
5.254879 -4.685217 -1.115065
6.252245 -5.578381 -1.028821
39.875103 -35.589890 8.465296
3.170570 -2.829842 -0.371806
39.830719 -35.562767 10.379247
3.128172 -2.793962 -0.219811
3.133992 -2.801129 -0.073370
3.511561 -3.147426 -1.263555
3.218921 -2.886145 0.075464
3.944445 -3.537906 -1.223284
4.480263 -4.019909 -1.170041
5.257600 -4.720689 -1.119132
6.223875 -5.592211 -1.027359
39.797642 -35.771118 8.475307
3.190309 -2.867529 -0.375293
39.782253 -35.769844 10.399091
3.124340 -2.810207 -0.220230
3.118251 -2.806700 -0.073230
3.484778 -3.145426 -1.257861
3.226637 -2.913445 0.075883
3.932071 -3.551653 -1.223284
4.479313 -4.047370 -1.173475
5.229368 -4.728414 -1.116629
6.207259 -5.616566 -1.027846
39.769196 -35.997311 8.495956
3.162554 -2.862604 -0.373201
39.738651 -35.982281 10.420462
3.124873 -2.830482 -0.220962
3.102508 -2.812196 -0.073091
3.480926 -3.164069 -1.260449
3.234202 -2.940834 0.076302
3.919650 -3.565357 -1.223284
4.457898 -4.056375 -1.171567
5.209910 -4.743979 -1.116004
6.202290 -5.651570 -1.030284
3.134873 -2.857519 -0.371109
39.705647 -36.205437 10.444885
3.114974 -2.841372 -0.220962
3.110396 -2.839186 -0.073510
3.481260 -3.186635 -1.264590
3.246039 -2.972363 0.076825
3.905744 -3.577701 -1.222834
4.461081 -4.087827 -1.176147
5.194775 -4.763471 -1.116316
6.191300 -5.681238 -1.031746
3.192396 -2.930422 -0.379128
3.091799 -2.840068 -0.220020
3.116661 -2.864913 -0.073893
3.472956 -3.201386 -1.265625
3.893232 -3.591313 -1.222834
4.438128 -4.095387 -1.173857
5.178115 -4.781575 -1.116316
6.159768 -5.692037 -1.029796
21.652563 -20.015425 4.670195
3.185074 -2.944252 -0.379476
39.624893 -36.641701 10.490680
3.093595 -2.861693 -0.220858
3.108108 -2.877133 -0.073928
3.460344 -3.212175 -1.265108
3.886383 -3.610186 -1.224634
4.415176 -4.102835 -1.171567
5.174413 -4.811728 -1.119132
6.142768 -5.716208 -1.030284
3.131027 -2.914626 -0.374247
39.608814 -36.884148 10.520445
3.092356 -2.880643 -0.221486
3.106823 -2.896146 -0.074138
3.449110 -3.224234 -1.265108
3.876604 -3.626393 -1.225533
4.400827 -4.118222 -1.171567
5.166236 -4.837862 -1.121009
6.128572 -5.743046 -1.031259
3.202235 -3.001844 -0.384008
39.551430 -37.089336 10.539527
3.082282 -2.891420 -0.221486
3.118564 -2.927502 -0.074661
3.440648 -3.238903 -1.266143
3.866758 -3.642575 -1.226433
7.126760 -6.715918 0.513206
4.402142 -4.148369 -1.175765
5.140694 -4.847734 -1.119132
6.121480 -5.776665 -1.033452
21.177473 -19.991562 4.612628
39.493092 -37.294567 10.558607
3.131577 -2.960350 -0.075220
3.434929 -3.256209 -1.268213
3.848365 -3.650685 -1.224634
7.094581 -6.732505 0.512578
4.386211 -4.162358 -1.175383
5.112282 -4.854767 -1.116629
6.104157 -5.800733 -1.033940
20.964392 -19.929262 4.581340
6.551569 -6.228081 -0.790851
3.072150 -2.922503 -0.222218
3.155985 -3.004354 -0.076058
3.424939 -3.269514 -1.268731
3.841234 -3.669481 -1.226433
7.053709 -6.740671 0.511322
4.384429 -4.189852 -1.178818
20.707079 -19.795029 2.506250
5.115292 -4.891696 -1.121009
6.089608 -5.827495 -1.034915
20.752001 -19.865721 4.550053
7.594819 -7.270457 -0.919842
3.073468 -2.944263 -0.223056
11.109501 -10.649907 -0.268627
3.414898 -3.282788 -1.269249
3.825593 -3.680165 -1.225533
6.945228 -6.683542 0.505147
4.357046 -4.192878 -1.175383
20.629244 -19.858900 2.505205
5.095339 -4.906782 -1.120384
6.063511 -5.843206 -1.033940
20.577293 -19.836586 4.526901
7.575131 -7.302454 -0.920539
3.073234 -2.964679 -0.223789
3.393703 -3.285282 -1.265625
3.815523 -3.696208 -1.226433
6.749743 -6.540955 0.492586
4.342383 -4.208062 -1.175383
5.083853 -4.930038 -1.121635
6.051625 -5.872631 -1.035402
6.960703 -6.757179 1.536500
7.552454 -7.331628 -0.920888
3.115873 -3.026881 -0.227661
3.391897 -3.306548 -1.269249
7.115325 -6.938708 0.173477
3.810967 -3.717669 -1.229133
6.522461 -6.365003 0.477618
4.341719 -4.236906 -1.179200
5.062373 -4.943614 -1.120697
6.036768 -5.899269 -1.036377
7.535364 -7.366302 -0.921933
7.628301 -7.462364 -0.559262
11.081677 -10.848193 -0.270687
3.380334 -3.318368 -1.269249
7.099622 -6.971909 0.173686
3.788236 -3.721389 -1.225983
6.144067 -6.037757 0.451450
4.328303 -4.253411 -1.179581
7.003266 -6.884493 0.859181
5.050719 -4.966795 -1.121948
6.024629 -5.928659 -1.037839
20.140388 -19.826483 4.476216
7.518125 -7.400948 -0.922979
7.595758 -7.479981 2.072186
7.679038 -7.564633 -0.564914
3.375600 -3.336938 -1.271837
3.779379 -3.738702 -1.227333
6.143890 -6.077764 0.452915
4.303661 -4.258828 -1.176910
6.854589 -6.785549 0.843842
5.040370 -4.991344 -1.123512
6.450582 -6.390070 1.114861
6.001077 -5.946858 -1.037352
7.407346 -7.342985 -0.912521
7.570345 -7.509810 -0.558843
3.362562 -3.347338 -1.271319
3.775245 -3.759464 -1.230032
6.114147 -6.090715 0.452287
4.298503 -4.283525 -1.179581
6.701045 -6.680026 0.827805
5.018194 -5.002454 -1.122261
6.401243 -6.383392 1.109986
5.984134 -5.969530 -1.037839
7.240663 -7.228037 -0.895089
7.538334 -7.527816 -0.558320
3.351444 -3.358470 -1.271319
3.759347 -3.769860 -1.229133
6.194373 -6.213863 0.459824
4.291205 -4.304708 -1.181489
6.729486 -6.753017 0.834080
5.009066 -5.028337 -1.124138
6.390127 -6.416950 1.111936
5.977265 -6.004450 -1.040277
7.092981 -7.127729 -0.879750
7.547220 -7.589489 -0.560937
10.931053 -10.999951 -0.270687
3.339700 -3.370148 -1.271319
3.746165 -3.782959 -1.229133
6.150164 -6.212738 0.458149
4.266485 -4.309894 -1.178818
6.717084 -6.787796 0.835475
4.983149 -5.037364 -1.122261
6.395606 -6.467447 1.116811
5.961852 -6.030926 -1.041252
39.195656 -39.663624 8.831978
6.972826 -7.056077 -0.867897
7.238603 -7.330143 -0.539898
10.822360 -10.966874 -0.268942
3.331981 -3.385916 -1.272872
3.731571 -3.794623 -1.228683
6.058432 -6.162953 0.452915
4.252791 -4.326160 -1.179200
7.028505 -7.152259 0.877310
4.968303 -5.057548 -1.122887
5.937982 -6.048866 -1.040764
39.056969 -39.800198 8.831978
6.853261 -6.983674 -0.856044
7.196192 -7.338253 -0.538642
3.321491 -3.398908 -1.273390
33.542400 -34.336185 0.837855
3.723748 -3.813203 -1.230482
6.048044 -6.195497 0.453753
4.251378 -4.355027 -1.183016
6.666750 -6.831673 0.835126
4.958895 -5.083343 -1.124764
6.865862 -7.040626 1.207482
5.925145 -6.078085 -1.042227
6.745410 -6.921940 -0.845585
7.210941 -7.404823 -0.541677
3.314988 -3.416027 -1.275460
3.711772 -3.827577 -1.230932
5.997187 -6.186456 0.451555
4.230684 -4.364202 -1.181489
5.763803 -5.947783 0.724613
4.946618 -5.106297 -1.126015
6.860578 -7.084513 1.210894
5.906654 -6.101584 -1.042714
5.856080 -6.051454 1.333760
6.624219 -6.845220 -0.833383
38.995972 -40.311058 10.902063
7.396090 -7.648182 -0.557587
11.123806 -11.510994 -0.279413
3.295001 -3.419231 -1.272354
11.320751 -11.751678 0.284823
3.701092 -3.843318 -1.231832
6.036503 -6.270664 0.456160
4.218147 -4.381773 -1.182253
5.767873 -5.993707 0.727750
4.931502 -5.126380 -1.126641
6.844062 -7.117002 1.212356
5.893574 -6.130751 -1.044177
5.895145 -6.134528 1.347527
6.558870 -6.825204 -0.828154
38.991039 -40.588512 10.940225
7.016581 -7.306604 -0.530896
11.327244 -11.803691 -0.285556
3.284381 -3.432108 -1.272872
3.693041 -3.861847 -1.233632
6.013197 -6.290252 0.456056
4.202826 -4.396470 -1.182253
4.912214 -5.142134 -1.126328
17.169956 -17.979895 3.052583
5.872138 -6.151286 -1.044177
5.920063 -6.203658 1.358164
6.449724 -6.758691 -0.817347
38.876221 -40.752781 10.947858
6.953817 -7.292027 -0.528070
11.294250 -11.851843 -0.285766
3.277704 -3.449153 -1.274943
7.044679 -7.415762 0.178538
3.675512 -3.870475 -1.232282
5.981578 -6.301065 0.455323
4.187454 -4.411113 -1.182253
6.211389 -6.545438 0.789457
4.903751 -5.169282 -1.128518
5.862635 -6.182249 1.046127
5.876578 -6.199118 -1.048808
5.882068 -6.207078 1.354410
6.368534 -6.720423 -0.810025
38.876846 -41.039314 10.988309
6.785499 -7.165436 -0.517184
9.262573 -9.788050 -0.235224
3.265644 -3.460573 -1.274943
15.302659 -16.221762 0.389258
3.664653 -3.886117 -1.233182
5.854056 -6.210001 0.447263
4.182805 -4.437132 -1.185306
6.090122 -6.462681 0.776906
4.880259 -5.180616 -1.127267
7.117551 -7.558245 1.274753
5.846740 -6.210922 -1.047345
5.792678 -6.155645 1.338766
6.287689 -6.681672 -0.802704
38.765640 -41.209091 10.997468
6.723503 -7.149793 -0.514358
11.257792 -11.979948 -0.286952
3.258828 -3.477591 -1.277013
10.945035 -11.683849 0.279448
3.648402 -3.896040 -1.232282
6.113518 -6.530763 0.468826
4.161924 -4.445973 -1.183779
6.051190 -6.466442 0.774815
4.870243 -5.206276 -1.129144
6.640980 -7.101674 1.193832
5.827735 -6.234193 -1.047833
6.016622 -6.438506 1.395709
6.215355 -6.651174 -0.796429
6.699867 -7.174679 -0.514463
15.221490 -16.311628 -0.389433
3.240089 -3.481873 -1.274425
15.058287 -16.187639 0.385908
3.642742 -3.917314 -1.234981
6.044450 -6.502327 0.465267
4.154399 -4.469101 -1.186069
6.107244 -6.572177 0.784925
4.846662 -5.217455 -1.127893
5.427458 -5.844731 0.979342
5.819443 -6.269045 -1.050270
6.240889 -6.725405 -0.802704
6.727746 -7.255138 -0.518545
10.980879 -11.849971 -0.281996
3.229227 -3.494581 -1.274943
15.020684 -16.260670 0.386396
3.636978 -3.938596 -1.237681
6.533800 -7.078131 0.504833
4.141438 -4.486461 -1.186832
5.873485 -6.365035 0.757732
4.825741 -5.231437 -1.127267
6.938430 -7.524374 1.256717
5.805597 -6.298079 -1.051733
5.890642 -6.392577 -0.760521
38.663189 -41.972332 11.092491
6.710496 -7.287393 -0.519173
6.449893 -7.006839 2.198672
11.153390 -12.120726 -0.287511
3.224845 -3.514372 -1.278049
15.090899 -16.451521 0.389677
3.620574 -3.948395 -1.236781
6.502192 -7.090927 0.504205
4.131058 -4.506679 -1.188358
5.915841 -6.456007 0.766099
4.818125 -5.259903 -1.129770
6.930891 -7.569044 1.260129
5.783577 -6.318305 -1.051733
6.870313 -7.505517 1.611588
5.899228 -6.446907 -0.764530
6.652672 -7.275397 -0.516661
6.835611 -7.478083 2.339041
16.749975 -18.324287 -0.433343
3.216461 -3.529891 -1.279601
6.540315 -7.177639 0.169498
3.600900 -3.953176 -1.234531
6.607836 -7.256827 0.514358
4.107372 -4.512361 -1.186069
5.914723 -6.500196 0.768888
4.805974 -5.281696 -1.131021
6.638608 -7.298292 1.211381
5.757252 -6.331576 -1.050758
7.072607 -7.780874 1.665402
5.815053 -6.399630 -0.756512
6.681941 -7.353663 1.931369
6.611052 -7.278200 -0.515300
11.078691 -12.205247 -0.287720
3.202145 -3.537674 -1.278566
6.513878 -7.198942 0.169463
3.588385 -3.967167 -1.234981
6.522186 -7.213183 0.509648
4.093703 -4.527412 -1.186450
5.804959 -6.422222 0.757383
4.792806 -5.304302 -1.132273
6.591801 -7.297851 1.207482
5.743097 -6.360474 -1.052220
7.029521 -7.787918 1.661647
5.725716 -6.343448 -0.747622
5.677722 -6.292484 1.647445
6.607009 -7.324962 -0.516975
6.317371 -7.006309 2.177976
10.896781 -12.089364 -0.284090
6.601593 -7.326667 2.642542
3.192360 -3.551703 -1.279601
6.500740 -7.235024 0.169777
3.584933 -3.991267 -1.238580
6.665096 -7.423156 0.522836
4.079186 -4.543135 -1.186832
5.777183 -6.436515 0.756686
4.784814 -5.332762 -1.134776
6.584843 -7.341505 1.210894
5.723511 -6.383438 -1.052707
5.525628 -6.164903 1.311234
5.715507 -6.376750 -0.749191
5.579736 -6.227458 1.625311
6.913201 -7.718428 -0.543038
6.347473 -7.089295 2.196872
3.176084 -3.558501 -1.278049
3.573573 -4.006665 -1.239480
5.403027 -6.059964 0.425491
4.068528 -4.563208 -1.188358
5.842173 -6.554807 0.768191
4.767485 -5.350907 -1.135089
6.659518 -7.477105 1.229418
5.714394 -6.418204 -1.055145
7.048525 -7.919435 1.679168
5.703809 -6.408567 -0.750585
5.521424 -6.205829 1.614626
7.003022 -7.873842 -0.552249
6.277369 -7.060436 2.181125
17.156713 -19.303705 -0.450796
3.164924 -3.571012 -1.278566
3.553106 -4.011821 -1.237231
6.475420 -7.313985 0.511950
4.055178 -4.580322 -1.189122
5.832462 -6.590080 0.769934
4.744851 -5.363078 -1.134150
6.643898 -7.512202 1.231368
5.663029 -6.405394 -1.049783
5.461524 -6.179646 1.306228
5.689321 -6.437396 -0.751631
5.577721 -6.313342 1.637523
7.019124 -7.947641 -0.555703
6.274611 -7.107140 2.188774
17.070702 -19.342485 -0.450307
3.154993 -3.584938 -1.279601
10.910228 -12.401380 0.288314
3.542941 -4.028588 -1.238580
5.306521 -6.036036 0.421200
4.046942 -4.603296 -1.191411
5.588462 -6.358973 0.740649
4.723494 -5.376640 -1.133524
6.591436 -7.505516 1.226493
5.590868 -6.368434 -1.040521
5.426890 -6.183825 1.303099
5.648417 -6.436251 -0.749191
5.547881 -6.323918 1.635233
7.037431 -8.024652 -0.559367
6.209939 -7.083572 2.174827
17.068977 -19.477148 -0.452052
3.148816 -3.603203 -1.282190
10.906340 -12.484567 0.289361
3.532702 -4.045335 -1.239930
5.303808 -6.075586 0.422665
4.028267 -4.614436 -1.190648
16.190409 -18.552874 2.154315
4.708593 -5.397561 -1.134463
6.536494 -7.495564 1.221131
5.545125 -6.360977 -1.036133
5.426036 -6.226560 1.308105
5.610208 -6.437904 -0.747099
5.582513 -6.408380 1.652024
7.009377 -8.049169 -0.559367
6.163424 -7.080219 2.167179
10.946675 -12.579399 -0.291071
3.126090 -3.602499 -1.278049
3.517283 -4.056169 -1.239480
5.408156 -6.238944 0.432714
4.012135 -4.628469 -1.190648
5.674408 -6.548406 0.758081
4.702656 -5.428895 -1.137592
6.515489 -7.524339 1.222106
5.489108 -6.341271 -1.029796
5.463727 -6.314175 1.322497
5.493834 -6.348969 -0.734549
7.057007 -8.161211 -0.565438
6.153964 -7.119382 2.172577
10.868706 -12.578196 -0.290164
6.363360 -7.366823 2.608378
3.114756 -3.614853 -1.278566
10.834578 -12.578584 0.289780
3.506918 -4.072853 -1.240830
7.431958 -8.634351 0.597049
3.998516 -4.645422 -1.191411
6.470199 -7.519645 0.867897
4.679813 -5.440784 -1.136653
6.463299 -7.516932 1.217231
5.428121 -6.315230 -1.022484
5.475124 -6.372165 1.330632
5.496309 -6.396821 -0.737861
15.840281 -18.442051 4.725576
7.010260 -8.164580 -0.563972
10.845568 -12.640339 -0.290722
6.343895 -7.396322 2.610967
3.109655 -3.634511 -1.281672
10.788005 -12.613289 0.289710
3.490147 -4.082107 -1.239930
7.401774 -8.660240 0.597049
3.991205 -4.669798 -1.194083
4.647964 -5.442066 -1.133524
6.429287 -7.530389 1.215769
5.372538 -6.294882 -1.016147
5.452847 -6.391237 1.330632
5.453256 -6.391716 -0.735071
6.963576 -8.167723 -0.562507
10.868814 -12.757273 -0.292537
6.308018 -7.406656 2.606826
3.096949 -3.645343 -1.281672
6.265123 -7.377133 0.168939
3.474615 -4.092779 -1.239480
7.394760 -8.713434 0.598933
3.967258 -4.674721 -1.191793
6.613461 -7.795566 0.894392
4.642993 -5.474830 -1.136966
5.689240 -6.710896 1.080250
5.296629 -6.249991 -1.005910
6.617989 -7.811953 1.621600
5.315004 -6.273894 -0.719384
5.368155 -6.338877 1.614626
6.106537 -7.213334 -0.495308
10.844879 -12.819561 -0.293096
6.317054 -7.469933 2.621319
3.085451 -3.657608 -1.282190
22.848341 -27.094862 0.618653
3.462820 -4.107863 -1.240380
6.254893 -7.422664 0.508706
3.952181 -4.690042 -1.192175
6.468117 -7.678415 0.878356
4.642940 -5.513668 -1.141659
5.647882 -6.709452 1.076838
5.256886 -6.247178 -1.002497
5.272551 -6.268013 -0.716594
6.064614 -7.214730 -0.493947
10.895244 -12.970645 -0.295679
6.171682 -7.349912 2.571626
3.071424 -3.666875 -1.281672
10.767019 -12.858955 0.292747
3.458466 -4.131880 -1.243979
6.223818 -7.438325 0.508287
3.934526 -4.702303 -1.191793
5.439099 -6.502783 0.741695
4.618598 -5.523780 -1.140407
5.651162 -6.761112 1.081956
5.209592 -6.235023 -0.997623
5.421078 -6.490438 1.339392
5.258303 -6.295554 -0.717640
6.031714 -7.226655 -0.493319
10.796107 -12.944100 -0.294213
6.290730 -7.545011 2.632190
3.059842 -3.679059 -1.282190
6.765372 -8.137363 0.184716
3.439039 -4.137933 -1.242180
6.398198 -7.701195 0.524720
3.923106 -4.722049 -1.193320
6.345615 -7.640615 0.868943
4.591716 -5.530749 -1.138530
5.585691 -6.730387 1.073913
5.147236 -6.204281 -0.989823
5.416043 -6.530610 1.343772
5.241383 -6.320006 -0.718338
6.604610 -7.966601 2.011509
6.005177 -7.246128 -0.493214
10.597800 -12.796892 -0.290024
6.197831 -7.486567 2.604237
3.048211 -3.691207 -1.282707
9.985723 -12.096436 0.273793
3.423335 -4.148409 -1.241730
3.910347 -4.740258 -1.194464
6.455805 -7.828733 0.887768
4.571126 -5.545219 -1.138217
6.413027 -7.782389 1.238193
5.067489 -6.151730 -0.978611
5.315361 -6.454932 1.324374
5.233221 -6.355182 -0.720255
6.569275 -7.980512 2.009219
5.986192 -7.274756 -0.493737
4.986567 -6.062112 1.812206
10.733418 -13.053135 -0.294981
3.041432 -3.709295 -1.285295
9.913014 -12.094100 0.272956
3.408833 -4.160333 -1.241730
5.500053 -6.712576 0.454800
3.898752 -4.759953 -1.195991
6.410768 -7.829638 0.885328
4.565504 -5.577957 -1.141659
7.300955 -8.923201 1.415634
5.025877 -6.144795 -0.974711
5.506534 -6.732462 1.377562
5.185782 -6.342561 -0.716769
5.082768 -6.218781 1.561199
6.682322 -8.178753 -0.553505
10.621766 -13.005024 -0.293096
3.029685 -3.721387 -1.285813
10.090008 -12.393637 0.278959
3.403628 -4.182195 -1.244879
5.858499 -7.201174 0.486515
3.883353 -4.775057 -1.196373
5.556409 -6.834721 0.770631
4.545736 -5.591533 -1.141346
6.647854 -8.180182 1.294253
4.972928 -6.121369 -0.968374
5.231452 -6.441893 1.314363
5.156077 -6.351343 -0.715723
5.057169 -6.229506 1.559673
6.692919 -8.247393 -0.556645
10.566228 -13.029595 -0.292816
3.012469 -3.725404 -1.283742
10.036627 -12.416340 0.278680
3.390234 -4.195566 -1.245329
5.901118 -7.302896 0.492063
3.860094 -4.778745 -1.194083
5.443593 -6.741500 0.758081
4.536116 -5.619663 -1.143849
4.941559 -6.126329 -0.966424
5.197658 -6.443830 1.311234
5.128734 -6.360651 -0.714851
5.045250 -6.259349 1.562726
6.869601 -8.525763 -0.573811
5.225815 -6.488000 1.923331
10.585682 -13.142429 -0.294562
3.001866 -3.738910 -1.284778
5.821468 -7.250805 0.162307
3.377522 -4.208304 -1.245779
4.984440 -6.212704 0.417432
3.850760 -4.801380 -1.196373
5.599489 -6.984307 0.783181
4.508806 -5.623886 -1.141659
5.655977 -7.057288 1.110474
4.888947 -6.102403 -0.960087
11.084988 -13.841273 2.808625
5.099029 -6.369184 -0.713806
6.080891 -7.595624 1.891299
6.931144 -8.660770 -0.581348
11.048059 -13.814919 -0.308768
6.020626 -7.531118 2.583532
2.993064 -3.753375 -1.286331
11.021358 -13.826001 0.308628
3.359168 -4.215497 -1.244429
11.008087 -13.819247 0.925928
3.836040 -4.815658 -1.196754
5.697927 -7.155581 0.800264
4.491608 -5.642682 -1.142285
5.621420 -7.064562 1.108524
4.842901 -6.088360 -0.955212
10.970215 -13.796391 2.791730
5.091642 -6.405660 -0.715897
6.695856 -8.426898 -0.564077
10.963031 -13.802185 4.069365
10.478751 -13.197218 -0.294143
5.989497 -7.546037 2.581461
2.975690 -3.759776 -1.284778
5.529950 -6.987076 0.155536
3.344433 -4.227197 -1.244429
5.297764 -6.698513 0.447577
3.824452 -4.837386 -1.198662
6.118872 -7.742277 0.863365
4.483143 -5.674606 -1.145413
5.579498 -7.062335 1.105111
4.804394 -6.083418 -0.951800
5.408973 -6.851406 1.382568
5.123560 -6.492210 -0.723567
10.898803 -13.815143 3.420442
5.559258 -7.049354 -0.470500
10.871351 -13.790243 4.054068
10.046366 -12.743753 -0.283253
10.860842 -13.781858 4.701707
2.970903 -3.780773 -1.288401
5.766178 -7.340677 0.162936
3.336138 -4.248623 -1.247129
5.326156 -6.782941 0.451973
3.802694 -4.844529 -1.197136
4.470622 -5.699546 -1.147290
5.460485 -6.964015 1.086587
4.733081 -6.038493 -0.942050
5.382587 -6.867136 1.381942
5.091037 -6.497509 -0.722172
5.228535 -6.675393 1.648208
5.532155 -7.065571 -0.470291
10.827952 -13.834243 4.055868
10.270508 -13.122028 -0.290862
10.805526 -13.810557 4.698601
2.950558 -3.781981 -1.285295
10.014946 -12.837008 0.284195
3.324428 -4.262735 -1.248029
6.367112 -8.167146 0.542724
3.793001 -4.867064 -1.199425
6.064672 -7.784806 0.863365
4.443199 -5.703432 -1.145100
5.554451 -7.132438 1.109986
4.691081 -6.025959 -0.937663
5.394979 -6.932651 1.391328
5.091568 -6.545119 -0.725484
5.211192 -6.698894 1.649735
7.053531 -9.070453 -0.602178
5.971670 -7.682006 2.246361
10.151021 -13.063061 -0.288768
5.468102 -7.039281 2.388382
2.936817 -3.790218 -1.284778
5.556890 -7.174236 0.158398
3.314300 -4.280478 -1.249828
6.381351 -8.244600 0.546387
3.774437 -4.876511 -1.198662
6.692327 -8.649496 0.956796
4.428097 -5.725157 -1.146352
6.386754 -8.260513 1.282066
4.655452 -6.023450 -0.934738
5.315191 -6.879535 1.376936
5.170990 -6.695309 -0.740127
6.613425 -8.562948 2.103097
6.881464 -8.913215 -0.590140
5.954344 -7.715147 2.249960
5.888787 -7.632957 -0.168276
2.928794 -3.808614 -1.287366
10.502888 -13.657992 0.300740
3.289837 -4.279660 -1.246229
5.052819 -6.575452 0.434598
3.760126 -4.894983 -1.199807
6.699411 -8.724536 0.962374
4.414301 -5.750750 -1.148229
5.562541 -7.246625 1.121686
4.615062 -6.014465 -0.930838
5.269505 -6.869834 1.371305
5.257911 -6.857197 -0.755989
6.197420 -8.085396 1.980216
7.013954 -9.153988 -0.604376
5.074034 -6.624572 1.926481
5.899802 -7.702680 -0.169358
6.118787 -7.991471 2.696894
2.918998 -3.823420 -1.288919
9.851022 -12.907931 0.283427
3.278857 -4.297887 -1.248029
5.177629 -6.786776 0.447368
3.753731 -4.922128 -1.203242
5.485157 -7.195086 0.791548
4.398990 -5.772408 -1.149481
5.511885 -7.235383 1.116811
4.578555 -6.012389 -0.927913
5.159324 -6.775033 1.348778
5.243597 -6.888191 -0.757383
6.112092 -8.031988 1.961898
6.732862 -8.850956 -0.582813
7.736739 -10.174329 2.950908
6.053229 -7.960400 -0.174559
7.749764 -10.195148 3.431423
2.910302 -3.839745 -1.290990
5.981530 -7.891809 0.172849
3.266940 -4.311842 -1.248928
5.547023 -7.323846 0.481491
3.732972 -4.930505 -1.202097
5.466020 -7.222131 0.792420
4.381016 -5.788539 -1.149794
6.304693 -8.333274 1.283041
4.527459 -5.986373 -0.921576
5.016514 -6.635427 1.317491
5.191891 -6.869893 -0.753374
6.151710 -8.139922 1.983269
6.704677 -8.874827 -0.582918
5.880273 -7.786406 2.252660
7.529045 -9.973260 -0.218120
4.963156 -6.576772 2.207727
2.892905 -3.843200 -1.288919
6.087405 -8.090004 0.176723
3.249526 -4.320106 -1.248029
4.895998 -6.509019 0.426852
3.715422 -4.941288 -1.201715
5.536610 -7.366037 0.806191
4.364343 -5.808535 -1.150732
5.813004 -7.739382 1.188470
4.492232 -5.983091 -0.918651
4.989738 -6.645708 1.316240
5.206157 -6.936471 -0.758778
5.456381 -7.272503 1.767273
6.871387 -9.161815 -0.600189
5.424044 -7.234661 2.087546
7.475540 -9.970973 -0.217527
6.032696 -8.049417 2.695342
2.877160 -3.850180 -1.287884
5.514700 -7.379704 0.160806
3.249177 -4.349592 -1.253427
4.944948 -6.622088 0.433132
3.705197 -4.963667 -1.204005
5.732491 -7.682329 0.838613
4.342694 -5.819809 -1.150106
5.471594 -7.335360 1.123635
4.446262 -5.962944 -0.913289
6.151767 -8.253229 1.630360
5.278337 -7.084012 -0.772897
7.428708 -9.970006 2.416787
6.854092 -9.202170 -0.601340
7.429944 -9.982571 -0.217213
5.796991 -7.791441 2.602167
2.874738 -3.873662 -1.292542
9.717282 -13.098655 0.284684
3.224688 -4.348385 -1.249828
4.936076 -6.658563 0.434388
3.690186 -4.979725 -1.204768
6.349924 -8.568913 0.933089
4.324705 -5.838107 -1.150732
5.500297 -7.427800 1.134847
4.415971 -5.965664 -0.911339
6.080620 -8.217487 1.619097
5.305710 -7.172872 -0.780567
5.736972 -7.758736 1.875653
6.802510 -9.203137 -0.599770
5.159223 -6.979929 2.003864
5.936956 -8.035062 -0.174384
5.776645 -7.820952 2.605273
2.854793 -3.876395 -1.289954
6.515690 -8.850596 0.191837
3.206419 -4.357036 -1.248928
4.982649 -6.773139 0.440669
3.676562 -4.999543 -1.206295
5.586651 -7.596962 0.825016
4.309127 -5.861876 -1.152296
5.409559 -7.361529 1.121686
4.365871 -5.943413 -0.905489
6.066829 -8.262009 1.623477
5.235763 -7.132844 -0.774117
5.606290 -7.640420 1.842070
6.741564 -9.190967 -0.597363
5.125537 -6.987792 2.000715
5.803412 -7.914855 -0.171313
5.829026 -7.952699 2.642025
2.846266 -3.894631 -1.292542
5.789590 -7.924973 0.171313
3.198473 -4.379775 -1.252078
5.468879 -7.491463 0.486096
3.650985 -5.001246 -1.203623
5.417833 -7.424258 0.804099
4.289942 -5.880823 -1.152922
5.267920 -7.224121 1.097799
4.325348 -5.933709 -0.901589
5.794535 -7.952120 1.558400
5.190886 -7.123703 -0.771154
5.678994 -7.796416 1.874889
7.237307 -9.939393 -0.644360
5.103333 -7.011259 2.002064
5.681418 -7.808332 -0.168555
5.821430 -8.003694 2.651860
2.828116 -3.898287 -1.290472
5.655059 -7.797822 0.168136
3.182022 -4.389336 -1.251628
3.645025 -5.029858 -1.207439
5.389547 -7.439897 0.803750
4.269388 -5.895761 -1.152922
5.061087 -6.991616 1.059776
4.292973 -5.932689 -0.899152
5.847784 -8.084335 1.580301
5.280425 -7.299983 -0.788237
5.446980 -7.533007 1.806961
5.816109 -8.046459 -0.520324
5.050294 -6.989541 1.990817
5.786437 -8.011297 -0.172500
5.777624 -8.002038 2.644613
2.813362 -3.906568 -1.289954
5.632477 -7.824005 0.168276
3.172372 -4.408325 -1.253877
5.791077 -8.047275 0.519591
3.633178 -5.050519 -1.209347
5.456600 -7.588071 0.817695
4.234946 -5.891380 -1.149168
5.738631 -7.986150 1.207482
4.259375 -5.927548 -0.896227
5.253748 -7.316752 -0.788062
5.349673 -7.453090 1.783301
5.785657 -8.063467 -0.520115
5.052081 -7.041083 2.000715
5.777320 -8.054815 -0.173023
5.721788 -7.980333 2.631155
2.806010 -3.923733 -1.292542
5.755357 -8.050866 0.172744
3.156603 -4.417235 -1.253427
5.726039 -8.012810 0.516137
3.608422 -5.051357 -1.206676
5.547191 -7.768268 0.835126
4.199319 -5.882883 -1.144788
4.928055 -6.906327 1.041739
4.225859 -5.922249 -0.893302
5.538233 -7.764317 1.510531
5.208635 -7.304934 -0.784925
5.697548 -7.993568 1.908090
5.765840 -8.092368 -0.520743
7.040413 -9.881234 2.801090
5.752898 -8.077187 -0.173093
7.033122 -9.878296 3.249214
2.799694 -3.942466 -1.295648
5.742519 -8.089476 0.173163
3.144193 -4.430857 -1.254327
5.707279 -8.045781 0.516975
3.600738 -5.076105 -1.209729
5.719621 -8.066165 0.865108
4.163795 -5.874214 -1.140407
4.907421 -6.925871 1.042227
4.177624 -5.898086 -0.887453
5.682321 -8.025428 1.557462
5.165962 -7.296149 -0.782136
5.661935 -7.999598 1.905037
7.024041 -9.927755 -0.637347
6.977747 -9.865974 2.789843
5.752374 -8.136407 -0.173931
6.987447 -9.887010 3.244038
2.784802 -3.950636 -1.295130
3.133196 -4.448178 -1.256127
5.928679 -8.420027 0.539688
3.579606 -5.083827 -1.208584
5.379508 -7.642918 0.817695
4.131897 -5.872557 -1.137279
4.896920 -6.962444 1.045152
4.246064 -6.039297 -0.906464
5.140462 -7.314137 -0.782136
5.620433 -8.000036 1.900458
6.966387 -9.919524 -0.635254
5.554837 -7.912536 2.231964
6.962228 -9.920964 -0.211558
5.562759 -7.929705 2.595438
2.765458 -3.952419 -1.292542
3.117650 -4.459087 -1.256127
5.141822 -7.356939 0.470396
3.558464 -5.091464 -1.207439
5.428108 -7.769445 0.829200
4.088753 -5.854554 -1.131021
4.240861 -6.076872 -0.909877
5.640846 -8.085963 1.561529
5.137698 -7.364718 -0.785622
6.943428 -9.956873 2.359544
6.907733 -9.909373 -0.633056
5.511584 -7.909493 2.225666
6.898980 -9.904184 -0.210685
2.751645 -3.962048 -1.292542
6.981489 -10.056277 0.213687
3.103177 -4.471544 -1.256577
6.325124 -9.117628 0.581557
3.552980 -5.121599 -1.211637
5.675714 -8.184557 0.871383
4.050285 -5.842815 -1.126015
5.700697 -8.226715 1.228931
4.151803 -5.993728 -0.895252
5.124435 -7.400624 -0.787539
5.961110 -8.612146 2.035932
6.850373 -9.900577 -0.630962
6.820840 -9.861572 2.768248
5.695287 -8.237319 -0.174803
5.766481 -8.343403 2.717600
2.739991 -3.974810 -1.293578
3.084233 -4.477535 -1.255227
5.366714 -7.794036 0.495936
3.535081 -5.133970 -1.211637
5.683258 -8.256837 0.876961
4.023147 -5.847154 -1.124138
6.902629 -10.035882 1.495581
4.142102 -6.024542 -0.897690
6.170545 -8.978198 1.725472
5.070200 -7.379945 -0.783356
5.962140 -8.678210 2.046618
6.792027 -9.889855 -0.628764
5.048145 -7.353342 2.059202
5.647263 -8.229119 -0.174210
5.723114 -8.342771 2.710871
2.734129 -3.997582 -1.297719
5.589174 -8.171957 0.172814
3.071884 -4.493099 -1.256577
5.048722 -7.387293 0.468930
3.518454 -5.150134 -1.212400
6.178814 -9.047623 0.958539
3.979414 -5.829231 -1.117881
4.121047 -6.038964 -0.897690
6.123584 -8.976837 1.721092
5.056755 -7.415705 -0.785273
5.970100 -8.758404 2.060356
6.727617 -9.873420 -0.626147
5.016772 -7.365353 2.057402
5.607246 -8.232255 -0.173861
6.705106 -9.847767 3.192274
2.725583 -4.015094 -1.300307
3.059772 -4.510779 -1.258376
5.162846 -7.614036 0.482119
3.492743 -5.151010 -1.209729
3.959042 -5.843086 -1.117881
5.603884 -8.273791 1.226981
4.130047 -6.100053 -0.904514
4.824018 -7.127723 1.363170
5.738478 -8.482072 -0.895961
6.711768 -9.920697 2.328252
6.678566 -9.875335 -0.624787
6.628151 -9.804475 2.732255
6.673185 -9.874804 -0.208033
6.651665 -9.846663 3.183992
2.702215 -4.012238 -1.296166
3.046184 -4.524665 -1.259276
3.480415 -5.173551 -1.212019
5.326743 -7.921055 0.835126
3.913354 -5.821491 -1.110998
5.375626 -7.996760 1.183108
4.068871 -6.055118 -0.895740
5.303580 -7.895537 1.506464
4.339381 -6.462552 -0.681035
5.948852 -8.862844 2.074857
6.632311 -9.884821 -0.623845
5.685789 -8.477317 2.356587
6.623080 -9.874786 -0.207544
5.638273 -8.409647 2.712941
2.691745 -4.023919 -1.297201
3.038744 -4.546083 -1.262425
3.469599 -5.192621 -1.213927
3.877496 -5.807470 -1.105992
6.232877 -9.338740 1.378586
4.026735 -6.035551 -0.890865
5.465886 -8.195750 1.560278
5.709733 -8.561384 -0.900319
5.487550 -8.231345 1.922973
6.579072 -9.872367 -0.621751
5.696942 -8.551901 2.372334
6.571455 -9.868400 -0.206951
6.528822 -9.808087 3.157075
2.686231 -4.046165 -1.301342
8.346143 -12.576237 0.263462
3.019624 -4.551791 -1.261076
3.444942 -5.194884 -1.211637
3.844107 -5.801210 -1.102237
5.755175 -8.688529 1.279628
3.990299 -6.026398 -0.887453
5.354383 -8.089590 1.536500
5.769987 -8.717500 -0.914612
5.473951 -8.273374 1.928316
6.521434 -9.860289 -0.619553
5.750885 -8.698530 2.407426
6.525943 -9.874596 -0.206602
6.468989 -9.792132 3.144651
2.671027 -4.053905 -1.300825
2.999430 -4.555792 -1.259276
3.439739 -5.226556 -1.216217
3.815150 -5.801389 -1.099734
5.735715 -8.725153 1.282066
3.943075 -6.000475 -0.881603
5.386846 -8.200687 1.554020
5.818281 -8.857485 -0.927163
6.481674 -9.871160 2.295432
6.468345 -9.854609 -0.617774
5.683070 -8.661527 2.391680
6.470597 -9.865544 -0.205938
6.415703 -9.785572 3.135334
2.658975 -4.066437 -1.301860
5.516369 -8.439536 0.175990
2.988839 -4.574392 -1.261526
5.061101 -7.748923 0.485050
3.411812 -5.223738 -1.212782
3.790558 -5.808054 -1.098483
5.173748 -7.930462 1.162634
3.923190 -6.015865 -0.881847
5.245996 -8.047341 1.521482
6.012553 -9.223236 -0.963245
5.448214 -8.360732 1.939764
6.417554 -9.852023 -0.616204
5.668751 -8.705806 2.398428
6.405577 -9.841146 -0.204961
6.377292 -9.801432 3.133264
2.639507 -4.067592 -1.299272
5.504287 -8.485583 0.176549
2.978154 -4.592972 -1.263775
5.042984 -7.777394 0.485782
3.401031 -5.247148 -1.215453
5.190487 -8.011003 0.835126
3.750932 -5.791407 -1.092851
5.376905 -8.305071 1.214794
3.902167 -6.029523 -0.881847
5.513356 -8.519090 1.607208
5.974910 -9.235805 -0.962374
6.410470 -9.912872 2.294669
6.361440 -9.840819 -0.614110
5.773706 -8.935044 2.456016
6.354457 -9.833780 -0.204368
6.323790 -9.790071 3.122911
2.632614 -4.088150 -1.302895
2.966072 -4.607739 -1.265125
5.010401 -7.786552 0.485259
3.384819 -5.262290 -1.216217
5.843496 -9.088218 0.945291
3.706066 -5.763936 -1.085342
5.338602 -8.306157 1.212356
3.890735 -6.055790 -0.883797
5.131320 -7.989785 1.503961
5.941557 -9.254928 -0.962199
5.813309 -9.055160 2.091648
6.310433 -9.833284 -0.612331
5.735627 -8.941020 2.452416
6.307138 -9.835702 -0.203949
6.268727 -9.779557 3.112558
2.622164 -4.101740 -1.304448
2.942626 -4.606568 -1.261975
4.993939 -7.820828 0.486306
3.373689 -5.283413 -1.218506
4.936450 -7.733772 0.802704
3.666798 -5.746862 -1.079711
3.898386 -6.114528 -0.890377
5.258402 -8.250858 1.549640
5.925273 -9.300817 -0.964814
5.420904 -8.509115 1.961135
6.261050 -9.831668 -0.610865
5.633221 -8.849201 2.421823
6.260957 -9.839100 -0.203565
6.207593 -9.758998 3.099099
2.610216 -4.116218 -1.306001
2.933832 -4.628333 -1.265125
5.155823 -8.136827 0.504833
3.350100 -5.289110 -1.216980
3.639372 -5.750248 -1.077834
3.906735 -6.175071 -0.897202
5.413285 -8.559662 1.604079
4.227678 -6.687525 -0.692191
5.446314 -8.618546 1.981742
6.207908 -9.827531 -0.609191
6.164674 -9.762864 2.665670
6.213762 -9.840605 -0.203146
5.319700 -8.427953 2.670495
2.594803 -4.123669 -1.305483
2.918922 -4.642355 -1.266025
4.991310 -7.938351 0.491435
3.334751 -5.305758 -1.218125
4.972136 -7.913986 0.817695
3.604569 -5.739497 -1.073453
5.520067 -8.792920 1.274753
3.720525 -5.928726 -0.859423
5.530373 -8.812754 1.647881
4.169369 -6.646544 -0.686439
5.399509 -8.610893 1.975636
6.156594 -9.822065 -0.607516
6.114002 -9.757902 2.658472
6.153893 -9.821567 -0.202308
5.230772 -8.351512 2.640472
2.577324 -4.127785 -1.303930
2.909703 -4.661928 -1.268724
4.975200 -7.974365 0.492586
3.321405 -5.325695 -1.220033
4.902320 -7.863663 0.810723
3.575067 -5.734656 -1.070325
5.422636 -8.701671 1.258910
3.694547 -5.930922 -0.857960
5.606082 -9.003045 1.679794
4.213526 -6.769312 -0.697595
4.331391 -6.958671 1.593255
6.112381 -9.823772 -0.606364
5.441441 -8.748846 2.378632
6.104790 -9.819211 -0.201820
5.228101 -8.412380 2.653931
2.566674 -4.141236 -1.305483
4.785549 -7.724319 0.158607
2.892386 -4.670400 -1.268274
3.304760 -5.338349 -1.220414
5.362684 -8.666001 0.891603
3.540478 -5.723581 -1.065945
5.398492 -8.730678 1.260373
3.675909 -5.947159 -0.858448
5.709600 -9.241021 1.720466
5.771803 -9.345346 -0.960979
5.404733 -8.751009 1.999297
6.063365 -9.821256 -0.604899
6.016738 -9.749540 2.644974
6.053679 -9.813231 -0.201261
6.007864 -9.742769 3.067006
2.557549 -4.160490 -1.308589
4.783690 -7.781863 0.159445
2.875045 -4.678807 -1.267824
4.978992 -8.105910 0.498552
3.287225 -5.353772 -1.221178
3.509146 -5.719681 -1.062816
5.385632 -8.778232 1.264516
3.634371 -5.926110 -0.853573
5.704152 -9.304683 1.728601
4.151590 -6.774780 -0.695154
6.076120 -9.919211 2.261087
6.005424 -9.807646 -0.602701
5.968756 -9.751581 2.639575
6.006860 -9.813835 -0.200842
5.959705 -9.740610 3.059759
2.545023 -4.172691 -1.309624
2.858891 -4.690977 -1.268274
5.048369 -8.283556 0.508392
3.272603 -5.371921 -1.222704
3.480942 -5.718397 -1.060313
4.672378 -7.678671 1.103649
3.615721 -5.944479 -0.854304
5.683956 -9.344790 1.732355
5.740579 -9.441593 -0.966731
5.217577 -8.584781 1.952739
5.949376 -9.792702 -0.600503
5.920519 -9.749039 2.633277
5.962188 -9.817653 -0.200493
5.907623 -9.731629 3.050441
2.530442 -4.181549 -1.309624
2.847355 -4.707101 -1.270074
3.251801 -5.379951 -1.221941
4.250097 -7.034356 0.719035
3.457875 -5.723146 -1.059062
4.564788 -7.558185 1.084150
3.580600 -5.930945 -0.850648
5.696209 -9.438990 1.746122
5.748751 -9.529815 -0.973704
5.996292 -9.940167 2.256507
5.910681 -9.802114 -0.599875
5.866025 -9.731900 2.623379
5.901050 -9.793871 -0.199586
5.865643 -9.738953 3.046300
2.516561 -4.189918 -1.309624
2.833915 -4.722025 -1.271423
33.461590 -55.777599 3.408850
3.234952 -5.392388 -1.222322
4.189859 -6.986899 0.712760
3.421626 -5.708073 -1.054056
4.522052 -7.546828 1.080250
3.592515 -5.997902 -0.858448
5.176154 -8.645300 1.595945
5.701126 -9.525888 -0.971264
5.857973 -9.791836 -0.597991
5.820017 -9.732247 2.617980
5.856565 -9.797245 -0.199237
5.720628 -9.573634 2.988325
2.500199 -4.197453 -1.309107
2.824393 -4.743609 -1.274573
5.114572 -8.593410 0.524092
3.224200 -5.419394 -1.225757
4.209032 -7.077557 0.720429
3.386550 -5.696803 -1.049675
4.613348 -7.760504 1.108524
3.582712 -6.029179 -0.861129
5.640377 -9.499475 -0.966557
5.809814 -9.792629 -0.596735
5.764426 -9.719990 2.608982
5.800910 -9.781509 -0.198504
5.628066 -9.493836 2.957267
2.493395 -4.219460 -1.313248
2.798071 -4.738827 -1.270524
5.094699 -8.628408 0.525139
3.204266 -5.428924 -1.225375
4.814021 -8.159554 0.828851
3.348581 -5.677962 -1.044044
4.637295 -7.866283 1.121198
3.563660 -6.045068 -0.861616
5.572801 -9.460738 -0.960631
5.254595 -8.924092 2.013035
5.755334 -9.778423 -0.594641
5.660991 -9.618133 2.576589
5.756592 -9.784463 -0.198155
5.581183 -9.490111 2.950020
2.479388 -4.227705 -1.313248
2.786282 -4.754805 -1.272323
4.563189 -7.787106 0.473012
3.189222 -5.444602 -1.226520
3.327738 -5.685627 -1.043418
4.306444 -7.360745 1.047101
3.547604 -6.063706 -0.862591
5.538381 -9.474007 -0.960108
5.708774 -9.773311 -0.593176
5.666417 -9.700796 2.593686
5.718064 -9.793139 -0.197945
5.658747 -9.695434 3.007995
2.472157 -4.247591 -1.316871
2.777357 -4.775810 -1.275472
4.971609 -8.552377 0.518440
3.169176 -5.451754 -1.225757
4.675714 -8.046597 0.814209
3.298944 -5.679548 -1.040289
4.285999 -7.381853 1.048076
3.531399 -6.084636 -0.863810
5.533929 -9.538851 -0.964814
5.665315 -9.773181 -0.592024
5.611025 -9.683421 2.583788
5.659790 -9.771508 -0.197107
5.609381 -9.688378 2.999713
2.448622 -4.241138 -1.312213
2.760669 -4.785476 -1.275472
3.151108 -5.464484 -1.226139
3.275154 -5.684183 -1.039038
4.291909 -7.451815 1.055876
3.461606 -6.012629 -0.851867
5.558238 -9.658267 -0.974924
5.621211 -9.775582 -0.590978
5.569421 -9.689431 2.580189
5.625646 -9.791205 -0.197107
5.565907 -9.691148 2.994536
2.439564 -4.259717 -1.315318
2.750724 -4.806923 -1.278622
33.303524 -58.221905 3.515197
3.140787 -5.490788 -1.229573
5.123794 -8.961149 0.903108
3.235688 -5.661280 -1.032780
4.332833 -7.583958 1.072450
3.480958 -6.095352 -0.861860
5.520539 -9.670689 -0.974227
5.569241 -9.763916 -0.589094
5.525913 -9.691885 2.575690
5.577571 -9.786461 -0.196619
5.516745 -9.683659 2.986254
2.423725 -4.266528 -1.314801
2.730079 -4.809717 -1.276822
33.082348 -58.306534 3.513313
3.121601 -5.501718 -1.229573
5.066927 -8.933920 0.898576
3.208114 -5.658793 -1.030277
4.318078 -7.619761 1.075375
3.505646 -6.188645 -0.873316
6.860948 -12.116814 2.205413
5.475949 -9.670829 -0.972309
5.512504 -9.743317 -0.586686
5.484373 -9.697545 2.572090
5.551250 -9.819796 -0.196898
5.473405 -9.686039 2.981078
2.419249 -4.293475 -1.320495
4.755641 -8.443348 0.169149
2.712317 -4.817519 -1.276372
4.250271 -7.552258 0.454171
3.104304 -5.516002 -1.230337
5.022035 -8.927242 0.896135
3.182532 -5.659626 -1.028400
4.279781 -7.614021 1.072450
3.487912 -6.207767 -0.874291
6.433619 -11.455203 2.080892
5.467708 -9.743340 -0.585535
5.429514 -9.679237 2.562192
5.532586 -9.867022 -0.197457
5.424448 -9.678123 2.972796
2.403305 -4.300208 -1.319977
4.714436 -8.438949 0.168730
2.698335 -4.832062 -1.277722
3.079289 -5.516519 -1.228047
5.023849 -9.003874 0.902062
3.153135 -5.653449 -1.025272
4.247378 -7.618511 1.070988
3.521302 -6.318743 -0.888184
6.422433 -11.529361 2.090277
4.771289 -8.565277 -0.857787
5.416180 -9.730953 -0.583651
5.374850 -9.660667 2.552295
5.484503 -9.861807 -0.196968
5.383122 -9.683491 2.968654
2.377229 -4.290399 -1.314283
2.688157 -4.855558 -1.281321
3.062851 -5.534639 -1.229573
3.122833 -5.647680 -1.022143
3.449161 -6.242991 -0.875753
4.647398 -8.415274 -0.841053
5.367934 -9.728006 -0.582290
5.328113 -9.659825 2.546896
5.432874 -9.853824 -0.196409
5.327081 -9.665934 2.957267
2.366890 -4.307137 -1.316871
6.151966 -11.199642 0.223042
2.672129 -4.866621 -1.281771
6.539367 -11.914758 0.712292
3.043514 -5.545297 -1.229573
4.146637 -7.558322 0.754246
3.084104 -5.623906 -1.015886
4.229012 -7.714857 1.080250
3.379653 -6.167950 -0.863566
3.582415 -6.540705 -0.652448
5.327232 -9.734420 -0.581557
5.283138 -9.657849 2.541497
5.404201 -9.883255 -0.196619
5.271070 -9.643785 2.944843
2.354614 -4.320461 -1.318424
5.362841 -9.844319 0.195676
2.649534 -4.865649 -1.279072
5.374835 -9.874541 0.589198
3.029770 -5.566233 -1.231863
3.895507 -7.159723 0.713108
3.058791 -5.624226 -1.014008
3.432031 -6.315757 -0.882578
5.675142 -10.447963 1.883158
4.590436 -8.451015 -0.841402
5.278929 -9.726625 -0.579987
5.243817 -9.665955 2.538798
5.346791 -9.859871 -0.195781
5.224488 -9.638349 2.937596
2.342274 -4.333753 -1.319977
6.425309 -11.893282 0.235957
2.635312 -4.880013 -1.280421
5.334641 -9.882697 0.588570
3.008456 -5.573319 -1.231100
4.924446 -9.126597 0.907291
3.027888 -5.614005 -1.010254
5.303595 -9.837502 1.372249
3.377945 -6.268284 -0.874291
5.305135 -9.848586 1.771777
3.755877 -6.972504 -0.692888
5.303447 -9.849568 2.174459
5.235478 -9.727407 -0.578940
5.195272 -9.656742 2.531599
5.302869 -9.860863 -0.195432
5.185323 -9.646317 2.934490
2.330783 -4.348713 -1.322048
6.009795 -11.217621 0.222134
2.623781 -4.899489 -1.283121
6.772739 -12.647003 0.751858
2.990836 -5.587249 -1.231863
4.903837 -9.164812 0.909383
3.004546 -5.617572 -1.009002
4.344535 -8.126348 1.131435
3.289617 -6.155731 -0.856985
5.693274 -10.653603 1.913194
3.749352 -7.018962 -0.696200
5.280129 -9.888803 2.179039
5.186445 -9.717430 -0.577266
5.142271 -9.638712 2.522151
5.253199 -9.846636 -0.194804
5.147852 -9.653232 2.931385
2.310149 -4.346587 -1.318942
2.609348 -4.911605 -1.284021
6.192741 -11.661579 0.691986
2.973156 -5.601123 -1.232626
3.758684 -7.083963 0.701604
2.982198 -5.620525 -1.007751
4.101778 -7.733850 1.074888
3.266396 -6.161345 -0.856254
5.615354 -10.596611 1.899427
3.770525 -7.118278 -0.704741
5.734361 -10.825753 2.381296
5.143913 -9.715159 -0.576114
5.103898 -9.643654 2.519002
5.207573 -9.843700 -0.194385
5.094258 -9.633571 2.919997
2.298425 -4.359351 -1.320495
6.192487 -11.750065 0.231838
2.594004 -4.924131 -1.284920
2.954566 -5.610951 -1.232626
3.740741 -7.106968 0.702650
2.951523 -5.609922 -1.003996
4.809323 -9.144891 1.268660
3.245792 -6.174466 -0.856498
5.569142 -10.598661 1.896299
3.600471 -6.852074 -0.677200
5.559601 -10.584990 2.324054
5.096971 -9.708299 -0.574649
5.060243 -9.642431 2.514053
5.163892 -9.844111 -0.194036
5.048039 -9.627342 2.912750
2.288564 -4.377620 -1.323601
6.581163 -12.593957 0.248034
2.572288 -4.924520 -1.282671
5.678561 -10.875950 0.643000
2.931327 -5.614269 -1.231100
2.922786 -5.602677 -1.000868
4.736987 -9.084176 1.257936
3.137054 -6.018528 -0.833343
5.522984 -10.600518 1.893170
3.571007 -6.853999 -0.676154
5.046451 -9.694143 -0.572765
5.013960 -9.635834 2.507754
5.111042 -9.826594 -0.193338
5.009056 -9.634620 2.909644
2.274159 -4.387296 -1.324118
6.550042 -12.641709 0.248522
2.559564 -4.942121 -1.284920
5.934389 -11.463284 0.676495
2.901783 -5.605289 -1.226902
4.051805 -7.830098 0.771328
2.888691 -5.584773 -0.995862
4.745363 -9.178243 1.268660
3.104178 -6.006516 -0.830174
5.533092 -10.710993 1.909439
3.755550 -7.270017 -0.715897
5.615278 -10.874743 2.379007
5.002506 -9.692177 -0.571613
4.965998 -9.625566 2.500556
5.073045 -9.837266 -0.193198
4.966543 -9.634874 2.904467
2.259713 -4.396926 -1.324636
2.547638 -4.961427 -1.287620
6.080390 -11.846410 0.697848
2.869649 -5.590931 -1.221559
4.018991 -7.833558 0.770282
2.872784 -5.601852 -0.997113
3.114875 -6.079149 -0.838705
5.690175 -11.110012 1.977019
3.778287 -7.377069 -0.725136
4.958635 -9.690022 -0.570462
4.916396 -9.611614 2.492458
5.027751 -9.833549 -0.192779
4.920572 -9.628070 2.897220
2.243474 -4.403066 -1.324118
2.532072 -4.973763 -1.288520
6.004580 -11.799920 0.693870
2.841212 -5.583417 -1.217743
4.011495 -7.886608 0.774117
2.855003 -5.615368 -0.997739
5.549954 -10.920652 1.504112
3.001933 -5.909462 -0.813844
3.648777 -7.185915 -0.705090
4.913937 -9.685898 -0.569206
4.879289 -9.621765 2.490658
4.973505 -9.811799 -0.192011
4.871219 -9.614168 2.887903
2.224607 -4.403973 -1.322048
2.513817 -4.980831 -1.288070
5.628709 -11.157461 0.654932
2.811093 -5.572267 -1.213164
3.953440 -7.840076 0.768191
2.815824 -5.586492 -0.990856
4.734735 -9.397620 1.292059
3.008072 -5.973094 -0.821156
5.342464 -10.613078 1.881907
3.614713 -7.180813 -0.703347
6.079086 -12.081662 2.628967
4.870224 -9.683364 -0.568054
4.833418 -9.614363 2.484360
4.933837 -9.818379 -0.191802
4.827223 -9.610397 2.881691
2.217006 -4.427258 -1.326707
2.494671 -4.986090 -1.287170
5.566500 -11.130595 0.652211
2.793382 -5.585557 -1.213927
3.899323 -7.800364 0.762961
2.787477 -5.578617 -0.987727
4.638039 -9.286225 1.274510
2.981885 -5.972901 -0.819693
5.328319 -10.677617 1.890041
3.599412 -7.212996 -0.705264
5.973782 -11.976316 2.601490
4.820353 -9.668133 -0.566170
4.793744 -9.618967 2.481210
4.888835 -9.814063 -0.191383
4.778148 -9.596061 2.872374
2.198961 -4.429779 -1.325154
5.818232 -11.725888 0.228487
