# This PCD file was generated using the MATLAB® pcwrite function
# from Computer Vision Toolbox®.
# .PCD v.7 - Point Cloud Data file format
VERSION .7
FIELDS x y z
SIZE 4 4 4
TYPE F F F
COUNT 1 1 1
WIDTH 1663
HEIGHT 1
VIEWPOINT 0 0 0 1 0 0 0
POINTS 1663
DATA ascii
-15.656346 13.798067 0.364267
-6.064891 5.346920 -1.866644
-10.001717 8.820801 0.698894
-7.451980 6.572115 -1.931369
-8.625172 7.609462 1.006300
-8.618335 7.606105 -1.820585
-8.616231 7.606928 1.411247
-8.641686 7.632082 -1.415634
-8.624714 7.619772 1.822775
-8.584023 7.583822 -1.002117
-8.621949 7.620014 2.236663
-8.567933 7.574934 -0.599351
-8.625638 7.628633 2.658472
-26.726158 23.645309 -0.622876
-11.535573 10.209398 4.127646
-5.586690 4.956609 -2.001189
-15.669404 13.907056 0.365698
-6.046190 5.368058 -1.866644
-9.837992 8.734577 0.689474
-7.421654 6.591568 -1.929461
-8.561320 7.606441 1.001942
-8.559249 7.607274 -1.813701
-8.558473 7.609257 1.406129
-8.588294 7.638455 -1.411247
-8.559545 7.612885 1.814327
-8.509865 7.571361 -0.996539
-8.565970 7.623957 2.229031
-8.513097 7.579561 -0.597363
-8.565483 7.628887 2.648124
-26.707331 23.787008 -0.624273
-11.547811 10.288720 4.144211
-5.560710 4.968357 -1.998083
-15.675390 14.005573 0.366919
-6.028355 5.388078 -1.866644
-9.686843 8.661033 0.680996
-7.394211 6.613509 -1.928316
-8.494626 7.600410 0.997236
-8.507476 7.611907 -1.808070
-8.496214 7.604499 1.400035
-8.542212 7.648355 -1.407835
-8.497604 7.611087 1.806818
-8.458158 7.578417 -0.993575
-8.515783 7.630049 2.222543
-8.446271 7.570425 -0.594432
-8.508220 7.628628 2.638226
-26.728338 23.973553 -0.626716
-11.527641 10.343158 4.149905
-5.544203 4.986769 -1.998083
-15.662084 14.092308 0.367757
-6.002269 5.402569 -1.864394
-9.631316 8.672076 0.679216
-7.378074 6.643248 -1.929842
-8.430885 7.593867 0.992704
-8.439765 7.604531 -1.799309
-8.450449 7.616833 1.396867
-8.480079 7.646223 -1.401985
-8.437249 7.610271 1.799622
-8.402067 7.581201 -0.990089
-8.448284 7.622903 2.211858
-8.393106 7.575774 -0.592548
-8.448270 7.628245 2.627878
-10.350491 9.352384 3.737865
-5.524458 5.005758 -1.997566
-15.673556 14.201941 0.369188
-5.976154 5.416945 -1.862145
-9.571395 8.678811 0.677123
-7.336227 6.654415 -1.925263
-8.383814 7.607312 0.990438
-8.382581 7.608861 -1.793052
-8.382651 7.608926 1.390042
-8.397492 7.625066 -1.392723
-8.394547 7.625069 1.796181
-8.340163 7.578327 -0.985906
-8.373800 7.611557 2.199646
-8.331297 7.575581 -0.590140
-8.394308 7.635553 2.619780
-10.332072 9.401457 3.743041
-5.494108 5.013293 -1.992907
-15.670133 14.303785 0.370340
-5.950504 5.433555 -1.860345
-9.480536 8.659950 0.672936
-7.315853 6.682631 -1.926026
-8.326322 7.608308 0.986777
-8.332643 7.616749 -1.788046
-8.319550 7.607450 1.384192
-8.331404 7.620960 -1.386386
-8.334483 7.626445 1.789298
-8.276913 7.573765 -0.981548
-8.324008 7.619533 2.193540
-8.278287 7.580338 -0.588256
-8.330243 7.630583 2.608083
-26.639671 24.410759 -0.630695
-10.301815 9.443181 3.744594
-5.482264 5.037670 -1.994977
-15.676055 14.409819 0.371666
-5.930067 5.452974 -1.859895
-9.426728 8.671359 0.671261
-7.276586 6.693509 -1.921828
-8.268926 7.608993 0.983117
-8.269670 7.612344 -1.780224
-8.259356 7.605517 1.378586
-8.298913 7.644614 -1.385411
-8.265683 7.616673 1.780224
-8.221122 7.575609 -0.978062
-8.261272 7.615277 2.184000
-8.213601 7.573986 -0.585535
-8.272042 7.630548 2.598185
-26.519028 24.471054 -0.629857
-10.267369 9.477774 3.744076
-5.447632 5.041030 -1.988766
-15.663813 14.499768 0.372574
-5.913856 5.476289 -1.860795
-9.361239 8.671636 0.668749
-7.254618 6.720201 -1.922210
-8.198472 7.597184 0.977887
-8.211174 7.611622 -1.773341
-8.206559 7.610003 1.374199
-8.243070 7.646535 -1.380536
-8.207189 7.615920 1.773341
-8.166877 7.578513 -0.974750
-8.214495 7.625369 2.178657
-8.157844 7.575428 -0.583441
-8.208234 7.624893 2.586487
-26.371923 24.506304 -0.628391
-10.261109 9.538544 3.753911
-5.428588 5.058698 -1.988248
-15.668687 14.606173 0.373900
-5.893278 5.495570 -1.860345
-9.290020 8.666114 0.665818
-7.231116 6.745483 -1.922210
-8.148597 7.604007 0.975098
-8.154231 7.611931 -1.766771
-8.155280 7.615571 1.370055
-8.187315 7.648161 -1.375661
-8.148801 7.614851 1.766458
-8.106892 7.575687 -0.970741
-8.147672 7.616456 2.167972
-8.110925 7.584761 -0.581976
-8.154529 7.628205 2.577939
-25.529894 23.890440 -0.610311
-10.251724 9.596750 3.762712
-5.410897 5.077617 -1.988248
-15.681755 14.720997 0.375436
-5.861275 5.504102 -1.856296
-9.233567 8.670896 0.663829
-7.196079 6.759930 -1.919157
-8.091512 7.603755 0.971438
-8.098826 7.613286 -1.760514
-8.092494 7.609995 1.363962
-8.114299 7.633172 -1.367862
-8.104799 7.624236 1.762391
-8.055733 7.580726 -0.967777
-8.089586 7.615245 2.159576
-8.049503 7.580166 -0.579464
-8.109413 7.639250 2.572090
-25.287506 23.821400 -0.606401
-10.240934 9.650564 3.770476
-5.387525 5.091165 -1.986177
-14.252118 13.468130 0.342277
-5.837325 5.518154 -1.854496
-8.328196 7.875582 0.600712
-7.178145 6.790403 -1.920684
-8.050450 7.618257 0.969695
-8.036231 7.604800 -1.752379
-8.039824 7.610860 1.359331
-8.062996 7.635469 -1.363474
-8.049458 7.625309 1.756134
-7.995960 7.577279 -0.963768
-8.041488 7.620423 2.153470
-7.998231 7.582084 -0.577580
-8.048685 7.632577 2.560843
-25.128759 23.837959 -0.604586
-8.309802 7.885709 3.069594
-5.366413 5.105008 -1.984625
-14.231091 13.542614 0.342905
-5.813792 5.534465 -1.853147
-8.241276 7.845318 0.596316
-7.144213 6.803339 -1.917630
-7.989078 7.610555 0.965337
-7.983895 7.608276 -1.746747
-7.998841 7.625178 1.356893
-7.978833 7.608767 -1.353725
-7.984098 7.613788 1.747373
-7.944839 7.578999 -0.960631
-7.990694 7.625406 2.146983
-7.941380 7.580994 -0.575382
-7.982531 7.622941 2.548245
-24.933874 23.810675 -0.601794
-10.254628 9.796115 3.799982
-5.336005 5.111682 -1.979966
-14.232315 13.633996 0.344022
-5.794001 5.552366 -1.852697
-8.185006 7.846394 0.594222
-7.117588 6.825518 -1.916867
-7.920768 7.598398 0.960282
-7.945792 7.622403 -1.743932
-7.943431 7.622801 1.351775
-7.989358 7.669553 -1.359818
-7.920428 7.606039 1.739239
-7.875231 7.565277 -0.955401
-7.932798 7.620580 2.138206
-7.887393 7.579609 -0.573288
-7.929111 7.622360 2.539248
-24.743946 23.794996 -0.599211
-10.251002 9.861313 3.811369
-5.303728 5.114598 -1.974272
-14.222053 13.719695 0.344929
-5.777390 5.575263 -1.853597
-8.135947 7.851303 0.592548
-7.090676 6.844993 -1.915722
-7.872595 7.602477 0.957493
-7.873672 7.606174 -1.733920
-7.896790 7.631167 1.348362
-7.844076 7.582878 -1.339588
-7.878119 7.615787 1.735484
-7.832912 7.574731 -0.953310
-7.863820 7.607272 2.126757
-7.837924 7.584873 -0.571613
-7.887054 7.635083 2.534299
-24.480997 23.698893 -0.594743
-10.254327 9.930194 3.824828
-5.276141 5.123659 -1.970648
-14.220952 13.809964 0.346011
-5.750483 5.586243 -1.850897
-8.084140 7.855991 0.590768
-7.059700 6.862862 -1.913814
-7.820299 7.604909 0.954355
-7.822915 7.607453 -1.728288
-7.847252 7.633781 1.344219
-7.797548 7.588083 -1.335932
-7.827424 7.619815 1.730165
-7.783587 7.579784 -0.950520
-7.810419 7.605913 2.119125
-7.778392 7.577374 -0.569101
-7.837965 7.638074 2.526650
-24.329395 23.717192 -0.593068
-10.251412 9.996950 3.836734
-5.239373 5.125401 -1.963919
-14.212127 13.907824 0.347093
-5.720634 5.600104 -1.848198
-8.016814 7.850642 0.588047
-7.035902 6.890062 -1.914196
-7.775295 7.616788 0.952264
-7.769663 7.613931 -1.722969
-7.792367 7.638843 1.339832
-7.802370 7.651324 -1.341781
-7.772725 7.624914 1.724534
-7.724461 7.577568 -0.946686
-7.758736 7.613846 2.113019
-7.727861 7.586198 -0.567531
-7.772428 7.632612 2.514953
-24.084084 23.659090 -0.589298
-10.259800 10.082277 3.854333
-5.211816 5.134169 -1.960296
-14.219039 14.012093 0.348455
-5.702441 5.621406 -1.848648
-7.969451 7.858945 0.586581
-6.999228 6.902174 -1.910761
-7.718872 7.614501 0.948603
-7.710700 7.609092 -1.715773
-7.743052 7.643684 1.335932
-7.747365 7.650616 -1.336907
-7.702499 7.608963 1.714835
-7.671034 7.577880 -0.943374
-7.711165 7.620183 2.107295
-7.678607 7.590662 -0.565856
-7.715256 7.629550 2.505055
-23.853497 23.596764 -0.585668
-10.260244 10.153358 3.867792
-5.160948 5.119676 -1.947872
-14.219722 14.110937 0.349676
-5.675868 5.634412 -1.846398
-7.923547 7.868421 0.585221
-6.970912 6.922414 -1.909616
-7.652669 7.602081 0.943722
-7.663074 7.615075 -1.711080
-7.699426 7.653873 1.333007
-7.710761 7.667813 -1.335201
-7.652084 7.612120 1.709516
-7.614872 7.575103 -0.939713
-7.666426 7.629053 2.102334
-7.620925 7.586419 -0.563554
-7.672007 7.639935 2.499656
-23.702980 23.612143 -0.583992
-10.248006 10.212292 3.876592
-5.130744 5.125374 -1.943213
-14.214228 14.204308 0.350758
-5.653409 5.651435 -1.845498
-7.873436 7.873435 0.583546
-6.952260 6.952258 -1.911143
-7.596506 7.599157 0.940062
-7.602933 7.608242 -1.703572
-7.648814 7.656826 1.328863
-7.606800 7.617426 -1.321795
-7.612905 7.626202 1.706700
-7.568677 7.581897 -0.937273
-7.606468 7.622413 2.093175
-7.573239 7.591764 -0.561984
-7.623273 7.644592 2.492458
-10.257296 10.293159 3.893674
-5.100564 5.130921 -1.938555
-14.219531 14.309156 0.352120
-5.625407 5.662840 -1.842799
-7.861359 7.913671 0.584593
-6.919649 6.968125 -1.908853
-7.550282 7.605832 0.937621
-7.537370 7.595475 -1.694811
-7.595477 7.656703 1.324232
-7.588550 7.652390 -1.323257
-7.572273 7.635977 1.703259
-7.521126 7.587047 -0.934658
-7.557703 7.626606 2.087069
-7.517174 7.588356 -0.559785
-7.582830 7.657307 2.487959
-10.246210 10.350457 3.902474
-5.058193 5.123948 -1.929237
-14.225385 14.410310 0.353446
-5.601123 5.675914 -1.840999
-8.818333 8.939207 0.658072
-6.891147 6.988043 -1.907708
-7.501309 7.609438 0.934833
-7.491341 7.599326 -1.690118
-7.536604 7.647914 1.318383
-7.529697 7.643573 -1.317408
-7.524782 7.641251 1.698566
-7.466642 7.584858 -0.931172
-7.488297 7.606856 2.074857
-7.469554 7.590465 -0.558111
-7.513664 7.637955 2.473562
-10.254709 10.431623 3.919556
-5.029000 5.128280 -1.924579
-14.222597 14.508428 0.354633
-5.578547 5.692649 -1.840100
-8.767509 8.949961 0.656607
-6.856945 6.999638 -1.904655
-7.453730 7.611495 0.932043
-7.431602 7.591552 -1.682609
-7.494589 7.658569 1.315701
-7.486314 7.652780 -1.314483
-7.463535 7.632163 1.690744
-7.412194 7.579661 -0.927511
-7.452092 7.623122 2.072186
-7.420681 7.593637 -0.556436
-7.458360 7.634863 2.464114
-10.254667 10.504683 3.933532
-4.990852 5.125041 -1.916814
-14.233240 14.621032 0.356169
-5.566797 5.720467 -1.842799
-8.713934 8.957603 0.654932
-6.833840 7.024935 -1.905037
-7.389612 7.598901 0.927337
-7.374765 7.586287 -1.675726
-7.442911 7.659057 1.311314
-7.420824 7.638999 -1.307658
-7.402444 7.622741 1.682922
-7.353767 7.572615 -0.923502
-7.400824 7.623730 2.065317
-7.367699 7.592262 -0.554447
-7.399098 7.627282 2.453316
-10.250210 10.573701 3.945955
-4.948760 5.117435 -1.907496
-14.214079 14.703696 0.356972
-5.533253 5.725849 -1.838300
-8.652083 8.956363 0.652629
-6.802457 7.041688 -1.903129
-7.342279 7.603154 0.924722
-7.326289 7.589242 -1.670720
-7.392695 7.660707 1.307171
-7.372062 7.641998 -1.303758
-7.342883 7.614405 1.675413
-7.312077 7.582460 -0.921585
-7.348278 7.622662 2.058066
-7.316206 7.592047 -0.552563
-7.349447 7.629203 2.445668
-10.246732 10.644211 3.958896
-4.926852 5.130498 -1.905944
-14.216680 14.809483 0.358333
-5.506486 5.738099 -1.836051
-10.156878 10.587798 0.768920
-6.779192 7.066809 -1.903511
-7.306043 7.618670 0.923502
-7.271046 7.584824 -1.664150
-7.332944 7.652070 1.301321
-7.304147 7.624679 -1.296446
-7.293033 7.615737 1.670095
-7.256626 7.577720 -0.917924
-7.294470 7.619905 2.050434
-7.263424 7.590121 -0.550574
-7.309300 7.640729 2.441169
-10.252235 10.724598 3.975461
-4.898247 5.136480 -1.901802
-14.224227 14.921255 0.359834
-5.479701 5.750231 -1.833801
-10.139147 10.643430 0.770385
-6.746360 7.081899 -1.901221
-7.246428 7.609497 0.919319
-7.217286 7.581543 -1.657893
-7.288401 7.658925 1.298152
-7.255596 7.627116 -1.292546
-7.245983 7.619678 1.665402
-7.209534 7.581349 -0.915310
-7.258361 7.635359 2.047762
-7.214873 7.592264 -0.548900
-7.250371 7.632290 2.430371
-10.254639 10.802353 3.990990
-4.864347 5.136714 -1.895591
-14.221544 15.023096 0.361090
-5.456917 5.766494 -1.832901
-10.140364 10.719384 0.773316
-6.710805 7.093996 -1.898168
-7.197919 7.611584 0.916530
-7.164994 7.579416 -1.651948
-7.242533 7.664120 1.294740
-7.207117 7.629308 -1.288647
-7.186793 7.610454 1.657893
-7.159772 7.581841 -0.912346
-7.193929 7.620676 2.037077
-7.174619 7.602877 -0.547853
-7.199615 7.632036 2.422273
-10.251319 10.874634 4.004448
-4.814625 5.119887 -1.883168
-14.226545 15.133837 0.362556
-5.439423 5.788347 -1.833801
-10.145276 10.799842 0.776561
-6.683313 7.114516 -1.897405
-7.142665 7.606162 0.912869
-7.112805 7.577016 -1.646004
-7.188569 7.660404 1.289865
-7.164142 7.637048 -1.285722
-7.143969 7.618204 1.654138
-7.106006 7.577721 -0.908860
-7.149829 7.627120 2.032116
-7.127549 7.606016 -0.546283
-7.146286 7.628676 2.413275
-7.163566 7.652477 2.808704
-4.792770 5.132425 -1.881615
-14.228210 15.241879 0.363952
-5.419185 5.807299 -1.833801
-10.151114 10.881923 0.779911
-6.643708 7.122009 -1.893207
-7.092969 7.606278 0.909906
-7.059374 7.572900 -1.639746
-7.144194 7.666569 1.286697
-7.140148 7.664913 -1.286209
-7.091755 7.615627 1.648194
-7.060503 7.582066 -0.906420
-7.089722 7.616105 2.022575
-7.076466 7.604529 -0.544399
-7.101031 7.633599 2.406976
-7.097353 7.634988 2.793175
-4.759062 5.132126 -1.875403
-14.223859 15.344249 0.365209
-5.382987 5.809026 -1.828402
-10.153783 10.961250 0.783051
-6.618806 7.145158 -1.893207
-7.047424 7.610525 0.907466
-7.006060 7.568502 -1.633489
-7.083681 7.655037 1.280603
-7.122785 7.699990 -1.287915
-7.046354 7.620029 1.643813
-7.019114 7.590572 -0.904502
-7.040436 7.616300 2.016088
-7.018702 7.595447 -0.541991
-7.054507 7.636867 2.400228
-7.056245 7.644101 2.787481
-4.734574 5.141603 -1.872815
-7.227988 7.852119 0.186287
-5.358718 5.823479 -1.827052
-10.139797 11.023086 0.784935
-6.592494 7.166773 -1.892825
-7.007330 7.620411 0.905722
-6.959545 7.571097 -1.628796
-7.031396 7.651945 1.275972
-7.017977 7.640013 -1.273779
-6.998333 7.621302 1.638808
-6.977751 7.598887 -0.902585
-6.988582 7.613350 2.008837
-6.970540 7.596355 -0.540316
-7.004095 7.635597 2.392130
-7.009937 7.647323 2.779717
-4.703562 5.143840 -1.867638
-7.177598 7.852211 0.185694
-5.339671 5.843589 -1.827502
-10.144364 11.105598 0.788284
-6.548902 7.169447 -1.887483
-6.955161 7.616870 0.902411
-6.909101 7.569085 -1.623164
-6.992601 7.663246 1.273779
-6.969860 7.640998 -1.269879
-6.941074 7.612112 1.631612
-6.927019 7.596698 -0.899447
-6.948738 7.623188 2.005021
-6.930532 7.605877 -0.539270
-6.941967 7.621102 2.379982
-6.959793 7.646031 2.770399
-4.667397 5.140204 -1.860391
-7.125953 7.850565 0.185065
-5.315313 5.857862 -1.826153
-10.153843 11.194199 0.792052
-6.521198 7.189355 -1.886719
-6.899087 7.608631 0.898576
-6.866718 7.575593 -1.619410
-6.944483 7.664070 1.269879
-6.947142 7.669697 -1.270610
-6.894572 7.614330 1.626919
-6.863015 7.579478 -0.894567
-6.915500 7.640118 2.003113
-6.891876 7.616694 -0.538328
-6.923165 7.653959 2.382682
-6.904562 7.638749 2.759011
-4.639076 5.144988 -1.856250
-7.077085 7.851626 0.184507
-5.288311 5.869142 -1.823903
-10.148752 11.263421 0.794565
-6.484237 7.198946 -1.883285
-6.860486 7.619343 0.897007
-6.815125 7.571618 -1.613465
-6.893788 7.661702 1.265491
-6.915017 7.687997 -1.269635
-6.853432 7.619527 1.623164
-6.816535 7.581163 -0.891952
-6.849417 7.620408 1.991664
-6.833210 7.605050 -0.535816
-6.862550 7.640383 2.370984
-6.862414 7.642917 2.752282
-4.599183 5.136681 -1.847450
-7.022998 7.843764 0.183774
-5.258421 5.875029 -1.820304
-10.151990 11.346408 0.797914
-6.460375 7.223001 -1.883667
-6.815257 7.622449 0.894567
-6.766279 7.567670 -1.607834
-6.841886 7.654920 1.260617
-6.914614 7.739012 -1.274266
-6.804425 7.618357 1.617846
-6.775434 7.588564 -0.890034
-6.803187 7.619648 1.985558
-6.786674 7.603827 -0.534141
-6.806039 7.628200 2.360187
-6.821552 7.650964 2.746588
-4.570569 5.138913 -1.842792
-6.974315 7.844322 0.183215
-5.241765 5.897719 -1.821654
-10.148142 11.422087 0.800740
-6.431175 7.238511 -1.882140
-6.771420 7.624152 0.892126
-6.721461 7.570563 -1.603454
-6.797995 7.659453 1.257448
-6.800609 7.665095 -1.258179
-6.755507 7.616939 1.612527
-6.730401 7.588631 -0.887420
-6.760918 7.625723 1.980979
-6.734922 7.599070 -0.532152
-6.757401 7.627114 2.352538
-6.775596 7.653031 2.738823
-4.544930 5.146148 -1.839686
-6.929685 7.849132 0.182762
-5.213410 5.907212 -1.818954
-6.927754 7.852468 0.548795
-6.394177 7.247669 -1.878706
-6.727633 7.628316 0.889860
-6.676705 7.573234 -1.599073
-6.746277 7.654841 1.252817
-6.675393 7.577076 -1.239899
-6.710600 7.619720 1.608147
-6.689386 7.595631 -0.885502
-6.712206 7.624225 1.974492
-6.691202 7.603042 -0.530791
-6.712715 7.630171 2.346240
-6.881589 7.824881 -0.181889
-6.719502 7.643265 2.726918
-4.509105 5.141648 -1.832439
-6.894336 7.864249 0.182552
-5.186337 5.918046 -1.816705
-6.908198 7.885616 0.549423
-6.361076 7.261084 -1.876416
-6.678649 7.626273 0.886897
-6.632014 7.575685 -1.594693
-6.702520 7.658924 1.249648
-6.739088 7.703422 -1.256717
-6.659254 7.614845 1.602202
-6.635288 7.587440 -0.881842
-6.661000 7.619525 1.967241
-6.646222 7.605298 -0.529326
-6.666809 7.631544 2.339491
-6.872648 7.869940 -0.182378
-6.662291 7.631746 2.714494
-4.467024 5.129676 -1.822604
-6.839270 7.856593 0.181819
-5.161808 5.931705 -1.815355
-10.152502 11.670887 0.810684
-6.329249 7.275837 -1.874508
-6.662449 7.661566 0.888291
-6.579608 7.568974 -1.588436
-6.665329 7.670287 1.247699
-6.639257 7.642974 -1.243067
-6.609319 7.611197 1.596570
-6.581329 7.578963 -0.878181
-6.616344 7.621973 1.961898
-6.603927 7.610347 -0.528070
-6.626082 7.638576 2.334542
-6.625487 7.643278 2.710353
-4.439511 5.130536 -1.817945
-6.793621 7.853844 0.181261
-5.138050 5.941995 -1.813555
-10.162807 11.757118 0.814452
-6.301236 7.292330 -1.873363
-6.640949 7.685476 0.888640
-6.535138 7.565687 -1.583430
-6.606169 7.650621 1.241117
-6.628182 7.678823 -1.245505
-6.568598 7.612480 1.592503
-6.537941 7.579625 -0.875741
-6.566673 7.615622 1.954647
-6.549964 7.598925 -0.525767
-6.576606 7.629833 2.325544
-6.583791 7.643562 2.703106
-4.416900 5.142376 -1.816392
-6.746553 7.857450 0.180772
-5.109890 5.953393 -1.811306
-10.149561 11.829152 0.816860
-6.271910 7.312394 -1.872599
-6.615332 7.712788 0.888989
-6.491935 7.571593 -1.579675
-6.565168 7.659710 1.238680
-6.572871 7.671407 -1.240386
-6.523950 7.616999 1.588436
-6.497160 7.588402 -0.873998
-6.527225 7.626217 1.951213
-6.503892 7.601633 -0.524302
-6.515659 7.615386 2.313847
-6.538155 7.647088 2.695859
-4.390504 5.149710 -1.813286
-6.703439 7.865384 0.180388
-5.091829 5.976532 -1.812656
-10.147068 11.910116 0.820000
-6.228524 7.313320 -1.867257
-6.596058 7.747604 0.890209
-6.448778 7.577283 -1.575921
-6.519039 7.662555 1.235268
-6.529329 7.674651 -1.237218
-6.475564 7.614147 1.583117
-6.457729 7.595854 -0.872255
-6.475140 7.619034 1.943581
-6.459212 7.602982 -0.522836
-6.475156 7.621749 2.308898
-6.487668 7.641881 2.686024
-4.362165 5.150973 -1.808628
-14.256494 16.840448 0.385140
-5.064427 5.984459 -1.809956
-10.152671 11.997063 0.823663
-6.195364 7.323440 -1.864586
-6.570332 7.769433 0.890209
-6.405760 7.577508 -1.571541
-6.480782 7.668968 1.232830
-6.469251 7.655322 -1.230637
-6.432433 7.614450 1.578737
-6.409363 7.589828 -0.869117
-6.443507 7.632962 1.941672
-6.419796 7.607567 -0.521685
-6.434766 7.625307 2.303499
-6.436139 7.632337 2.675154
-4.330138 5.147669 -1.802416
-14.236603 16.930490 0.386117
-5.048317 6.005695 -1.811306
-10.150565 12.079828 0.826908
-6.167257 7.339435 -1.863441
-6.552217 7.800334 0.891255
-6.351381 7.563913 -1.564345
-6.429791 7.660006 1.227956
-6.422071 7.653529 -1.226737
-6.388040 7.615672 1.574357
-6.361110 7.583566 -0.865979
-6.384102 7.613667 1.931369
-6.371437 7.601264 -0.519801
-6.393088 7.629799 2.298100
-6.390853 7.632541 2.667389
-4.300996 5.149410 -1.797757
-14.254318 17.072180 0.388211
-5.011087 6.003833 -1.805457
-10.150558 12.165798 0.830362
-6.139082 7.357904 -1.862677
-6.531332 7.830806 0.892126
-6.311023 7.569351 -1.560903
-6.369967 7.642758 1.221618
-6.382610 7.660646 -1.224300
-6.348778 7.622744 1.571228
-6.328226 7.598068 -0.865108
-6.341155 7.616294 1.926408
-6.325702 7.600430 -0.518231
-6.357694 7.641581 2.294951
-6.348117 7.635489 2.660660
-4.274363 5.153982 -1.794134
-12.977082 15.653188 0.354912
-4.987614 6.018286 -1.804557
-10.144983 12.245756 0.833398
-6.098333 7.361145 -1.858098
-6.509042 7.859694 0.892823
-6.271967 7.576116 -1.557775
-6.321733 7.638951 1.217475
-6.277381 7.588046 -1.209188
-6.307025 7.626589 1.567474
-6.277542 7.590938 -0.861796
-6.300769 7.621738 1.922210
-6.281322 7.600909 -0.516765
-6.306156 7.633680 2.285953
-6.309129 7.642703 2.655483
-4.246521 5.156941 -1.789993
-12.965571 15.750888 0.356099
-4.961624 6.029639 -1.802758
-8.799117 10.696987 0.725900
-6.068857 7.377841 -1.856953
-6.496750 7.900836 0.894915
-6.227921 7.576601 -1.553394
-6.277387 7.639498 1.214063
-6.312593 7.685077 -1.221131
-6.250278 7.611920 1.559965
-6.233303 7.591248 -0.859356
-6.260425 7.626992 1.918012
-6.244615 7.610439 -0.515928
-6.258463 7.630031 2.278304
-9.198751 11.218688 -0.253234
-6.270164 7.649740 2.650307
-4.211376 5.150794 -1.782746
-12.961132 15.857980 0.357495
-4.940545 6.046923 -1.802758
-8.784467 10.755478 0.727784
-6.033133 7.386814 -1.853900
-6.470393 7.925007 0.895089
-6.186449 7.579929 -1.549640
-6.225585 7.630599 1.209188
-6.256875 7.671683 -1.215525
-6.207444 7.613787 1.555897
-6.180265 7.583154 -0.855869
-6.217641 7.629013 1.913051
-6.200348 7.610514 -0.514463
-6.212103 7.627653 2.271106
-6.209277 7.629628 2.635813
-4.181511 5.152696 -1.778087
-12.939717 15.945052 0.358438
-4.910811 6.053539 -1.799608
-8.746873 10.786074 0.727784
-6.004780 7.407353 -1.853519
-6.446319 7.954863 0.895787
-6.138729 7.577995 -1.544634
-6.177668 7.626063 1.205044
-6.202571 7.659538 -1.210163
-6.169641 7.621593 1.553082
-6.139969 7.587646 -0.853952
-6.164942 7.621225 1.905419
-6.153576 7.609891 -0.512892
-6.170627 7.633700 2.266157
-6.168039 7.633224 2.629602
-4.152592 5.153721 -1.773428
-12.942657 16.068680 0.360148
-4.882482 6.063908 -1.797359
-8.719187 10.828989 0.728621
-5.972733 7.420620 -1.851611
-6.421012 7.980420 0.896135
-6.091194 7.573208 -1.539315
-6.122313 7.614618 1.199682
-6.106142 7.594506 -1.196513
-6.125675 7.621524 1.548701
-6.104712 7.598158 -0.852732
-6.129696 7.631982 1.902747
-6.109471 7.609519 -0.511427
-6.133080 7.638924 2.261658
-19.667280 24.504913 -0.548459
-6.131686 7.642651 2.625460
-4.122200 5.150873 -1.767734
-12.945510 16.181782 0.361719
-4.855045 6.070932 -1.794659
-8.705684 10.885918 0.730505
-5.945639 7.437321 -1.850847
-6.404461 8.014122 0.897530
-6.050020 7.573300 -1.535248
-6.079683 7.613164 1.196270
-6.120561 7.664353 -1.204313
-6.088041 7.626359 1.545573
-6.062086 7.596556 -0.850291
-6.076194 7.616970 1.893970
-6.056807 7.595385 -0.509124
-6.078552 7.622654 2.250860
-19.533554 24.504332 -0.546993
-6.089452 7.641793 2.618213
-4.100289 5.158464 -1.765664
-12.956471 16.306032 0.363534
-4.834885 6.087000 -1.794659
-8.701162 10.958475 0.733332
-5.908737 7.441620 -1.847031
-6.375374 8.032193 0.897181
-6.007681 7.571659 -1.530868
-6.044536 7.620839 1.194320
-6.109805 7.705891 -1.207482
-6.031938 7.610409 1.538064
-6.022008 7.597882 -0.848200
-6.028957 7.609377 1.887101
-6.019187 7.599770 -0.508078
-6.033764 7.620908 2.244112
-19.390818 24.500233 -0.545388
-6.050755 7.647851 2.613037
-4.077469 5.166680 -1.763593
-12.946541 16.410814 0.364860
-4.812402 6.102309 -1.794210
-8.711078 11.049953 0.737414
-5.872999 7.449867 -1.843978
-7.399222 9.389234 1.045869
-5.968993 7.577065 -1.527739
-6.003157 7.623178 1.191395
-6.054629 7.691294 -1.201876
-5.991899 7.614341 1.534622
-5.974506 7.592238 -0.845236
-6.002357 7.630378 1.887101
-5.980278 7.605034 -0.507031
-5.991468 7.622008 2.238263
-19.240923 24.486013 -0.543573
-6.004930 7.644617 2.604755
-4.053452 5.173278 -1.761005
-12.944661 16.526752 0.366431
-4.795876 6.125209 -1.796009
-8.705692 11.122757 0.740240
-5.850590 7.474959 -1.845123
-7.400776 9.458942 1.050750
-5.923033 7.572960 -1.522733
-5.958173 7.620628 1.187739
-5.962955 7.629488 -1.188957
-5.945823 7.610306 1.529616
-5.929565 7.589497 -0.842622
-5.952727 7.621884 1.879850
-5.934028 7.600676 -0.505356
-5.954036 7.629047 2.234214
-19.111057 24.496265 -0.542316
-5.959198 7.641160 2.596473
-4.032998 5.184345 -1.759970
-12.951957 16.655499 0.368281
-4.763703 6.128065 -1.791960
-8.707257 11.205119 0.743694
-5.819645 7.489135 -1.843597
-7.404383 9.531920 1.055979
-5.880815 7.573305 -1.518666
-5.909626 7.613153 1.183351
-5.980098 7.706715 -1.197732
-5.909538 7.618526 1.527113
-5.890827 7.594405 -0.840879
-5.908042 7.619343 1.874126
-5.890328 7.599244 -0.503891
-5.909467 7.626677 2.227465
-18.983805 24.509071 -0.541129
-5.921843 7.648169 2.591814
-4.019599 5.204508 -1.762040
-12.954837 16.779755 0.370026
-4.737518 6.138485 -1.790160
-8.705908 11.284469 0.746939
-5.791067 7.506296 -1.842833
-7.406348 9.603463 1.061034
-5.843486 7.579709 -1.515850
-5.870897 7.618013 1.180914
-5.933775 7.702383 -1.193832
-5.868443 7.620329 1.523359
-5.847261 7.592824 -0.838438
-5.873024 7.629032 1.871455
-5.846714 7.597598 -0.502425
-5.866172 7.625636 2.221167
-18.861559 24.527634 -0.540082
-5.883337 7.653476 2.586638
-3.997882 5.213908 -1.760487
-12.952148 16.897877 0.371632
-4.716063 6.154984 -1.790160
-8.707760 11.368699 0.750498
-5.756475 7.515553 -1.840162
-7.405486 9.671969 1.065740
-5.803787 7.582804 -1.512408
-5.827383 7.616386 1.177502
-5.894794 7.707279 -1.191395
-5.821412 7.614088 1.518040
-5.807412 7.595777 -0.836521
-5.824900 7.621407 1.864586
-5.808035 7.602089 -0.501379
-5.821778 7.622834 2.214418
-18.703026 24.497957 -0.537988
-5.846040 7.660144 2.581979
-3.977316 5.224758 -1.759452
-12.958471 17.028919 0.373516
-4.694551 6.171408 -1.790160
-8.707913 11.451491 0.753952
-5.725450 7.529352 -1.838636
-7.396997 9.731071 1.069401
-5.761748 7.582569 -1.508341
-5.788752 7.620875 1.175064
-5.870254 7.730973 -1.191882
-5.782857 7.618627 1.514911
-5.763999 7.593783 -0.834080
-5.786393 7.626055 1.860770
-5.762149 7.596857 -0.499704
-5.788068 7.633794 2.211719
-5.770147 7.612919 -0.166740
-5.799430 7.654328 2.573179
-3.959055 5.238608 -1.759452
-12.948377 17.139465 0.374948
-4.668281 6.181539 -1.788361
-8.710009 11.537606 0.757615
-5.699135 7.549290 -1.838636
-7.396590 9.801360 1.074282
-5.711449 7.571096 -1.502084
-5.745384 7.618845 1.171652
-5.776318 7.662647 -1.178233
-5.744339 7.622992 1.511783
-5.714674 7.583625 -0.830769
-5.739658 7.619547 1.854282
-5.721180 7.597776 -0.498448
-5.744979 7.632153 2.205420
-5.729112 7.613838 -0.166321
-5.741323 7.632839 2.559203
-3.937268 5.247759 -1.757899
-12.955663 17.274143 0.376902
-4.640829 6.190001 -1.786111
-8.700827 11.609492 0.760337
-5.668040 7.562853 -1.837109
-7.405340 9.884521 1.080557
-5.670775 7.572015 -1.498329
-5.697341 7.610249 1.167265
-5.715044 7.636672 -1.171165
-5.707042 7.628763 1.508967
-5.682068 7.598135 -0.830071
-5.697742 7.619095 1.849321
-5.682664 7.601706 -0.497401
-5.703136 7.631869 2.199572
-5.688139 7.614564 -0.165903
-5.704240 7.638905 2.554544
-3.920314 5.265255 -1.758934
-12.953798 17.397858 0.378612
-4.616868 6.203036 -1.785212
-8.703165 11.697480 0.764105
-5.634422 7.575700 -1.835201
-7.402344 9.956367 1.085438
-5.631203 7.576893 -1.495201
-5.656531 7.610973 1.164340
-5.707291 7.682071 -1.175064
-5.661535 7.623262 1.503961
-5.636508 7.592330 -0.827282
-5.655737 7.621010 1.844741
-5.640486 7.603234 -0.496145
-5.660038 7.632371 2.193723
-5.646039 7.613494 -0.165449
-5.671790 7.651009 2.551956
-3.901912 5.278906 -1.758934
-12.951743 17.528849 0.380428
-4.592945 6.218347 -1.784762
-5.811849 7.871485 0.512788
-5.591620 7.573210 -1.829858
-7.400676 10.027030 1.090318
-5.597681 7.586967 -1.493324
-5.619173 7.618871 1.162390
-5.684988 7.710926 -1.176283
-5.613632 7.616930 1.498642
-5.600372 7.601708 -0.826062
-5.617457 7.624899 1.840925
-5.600885 7.605184 -0.494994
-5.617184 7.630112 2.187424
-5.607427 7.619643 -0.165135
-5.625394 7.646846 2.543674
-3.874538 5.282269 -1.755311
-12.960253 17.669086 0.382487
-4.568904 6.231200 -1.783862
-5.772528 7.875617 0.511741
-5.554541 7.580986 -1.826805
-7.393304 10.094274 1.094676
-5.553501 7.585119 -1.488943
-5.585505 7.628830 1.160927
-5.646312 7.714706 -1.173846
-5.574180 7.618941 1.495201
-5.554981 7.595480 -0.823273
-5.579042 7.631174 1.837491
-5.565901 7.615988 -0.494365
-5.575387 7.631764 2.182025
-5.565462 7.618177 -0.164681
-5.582715 7.644595 2.536427
-3.853374 5.288169 -1.753240
-12.955752 17.786318 0.384093
-4.547071 6.244740 -1.783412
-5.731102 7.873723 0.510380
-5.517990 7.580937 -1.822608
-6.155341 8.459670 0.915310
-5.512217 7.578564 -1.484250
-5.541500 7.621621 1.157028
-5.618365 7.730174 -1.173358
-5.541916 7.627797 1.493324
-5.515715 7.594514 -0.821181
-5.538890 7.626423 1.832148
-5.524347 7.609192 -0.492795
-5.549092 7.646090 2.181125
-5.524904 7.615548 -0.164227
-5.539189 7.638042 2.528145
-3.837363 5.306953 -1.754793
-12.952177 17.912455 0.385838
-4.518393 6.251100 -1.780712
-5.695392 7.882349 0.509648
-5.471776 7.575644 -1.816502
-6.113794 8.467637 0.913741
-5.468215 7.576293 -1.479870
-5.496273 7.615166 1.153128
-5.522821 7.654757 -1.158978
-5.506014 7.634277 1.490821
-5.477518 7.597561 -0.819438
-5.494829 7.624377 1.826805
-5.468400 7.590497 -0.490283
-5.499394 7.636330 2.172577
-5.490105 7.623431 -0.163983
-5.505719 7.647926 2.525039
-3.814307 5.314039 -1.752723
-12.954048 18.054043 0.387862
-4.489773 6.259699 -1.778463
-5.653875 7.882705 0.508392
-5.441865 7.589914 -1.815357
-6.069112 8.467873 0.911475
-5.437136 7.588911 -1.478619
-5.456767 7.619119 1.150690
-5.432326 7.587790 -1.145816
-5.468984 7.638992 1.488005
-5.442849 7.605293 -0.818218
-5.465899 7.640316 1.826042
-5.427931 7.590044 -0.489027
-5.462508 7.641212 2.168528
-5.440204 7.610012 -0.163285
-5.470006 7.654523 2.520898
-3.786766 5.314735 -1.748582
-12.964885 18.196249 0.389991
-4.473515 6.280902 -1.780263
-5.605476 7.873105 0.506507
-5.398260 7.584872 -1.809633
-6.027969 8.472771 0.909732
-5.400490 7.590802 -1.475490
-5.418814 7.619379 1.148009
-5.393330 7.586349 -1.142891
-5.428552 7.638716 1.484250
-5.402420 7.604755 -0.816126
-5.424612 7.635994 1.820700
-5.391165 7.591718 -0.487980
-5.417960 7.632270 2.160880
-5.393931 7.601232 -0.162691
-5.416426 7.635755 2.508474
-3.757964 5.311492 -1.743405
-12.964800 18.331184 0.391911
-4.451561 6.296481 -1.780263
-5.567583 7.877946 0.505565
-5.362882 7.588301 -1.806198
-5.992939 8.482952 0.908686
-5.353448 7.580564 -1.469859
-5.381883 7.623652 1.145816
-5.369106 7.608371 -1.143378
-5.390470 7.641476 1.481122
-5.359769 7.600770 -0.813686
-5.386612 7.638837 1.816883
-5.357730 7.600695 -0.487352
-5.382306 7.638391 2.157280
-5.352397 7.598761 -0.162238
-5.380844 7.641978 2.504333
-3.731812 5.315742 -1.740299
-12.958187 18.458160 0.393656
-4.429556 6.311980 -1.780263
-5.525140 7.876075 0.504205
-5.326017 7.595046 -1.803145
-6.014412 8.579909 0.916704
-5.308621 7.575869 -1.465165
-5.342705 7.624510 1.143134
-5.376684 7.675843 -1.150690
-5.358096 7.652156 1.479557
-5.317207 7.596582 -0.811246
-5.338320 7.629573 1.810014
-5.322965 7.610462 -0.486724
-5.345339 7.645291 2.153681
-5.320108 7.609204 -0.162063
-5.340856 7.641711 2.498122
-3.709919 5.323982 -1.738746
-12.954449 18.597420 0.395611
-4.395255 6.312181 -1.775764
-5.493047 7.888759 0.503786
-5.293863 7.605535 -1.801237
-5.969635 8.579589 0.914438
-5.270866 7.578136 -1.462037
-5.295461 7.616332 1.138991
-5.345322 7.688046 -1.149715
-5.325717 7.662702 1.477993
-5.282702 7.603642 -0.810025
-5.298216 7.628812 1.805435
-5.279284 7.604385 -0.485154
-5.302178 7.637362 2.146483
-5.283256 7.612942 -0.161749
-5.305338 7.647611 2.493980
-3.694443 5.339432 -1.739782
-12.965502 18.745539 0.397845
-4.372084 6.323515 -1.774864
-5.445276 7.875716 0.501797
-5.259685 7.610127 -1.798184
-5.935486 8.591144 0.913566
-5.235605 7.580943 -1.459221
-5.258899 7.617514 1.136554
-5.304010 7.682858 -1.146303
-5.290178 7.665689 1.475177
-5.243884 7.601437 -0.807934
-5.261744 7.630176 1.801619
-5.240434 7.602119 -0.483898
-5.255806 7.624420 2.137935
-5.250040 7.618893 -0.161505
-5.267895 7.647661 2.488286
-3.674527 5.348471 -1.738746
-12.968942 18.884027 0.399870
-4.348882 6.334766 -1.773964
-5.412099 7.886443 0.501274
-5.217755 7.603247 -1.792460
-5.909224 8.614060 0.913915
-5.197030 7.578716 -1.455467
-5.226872 7.625088 1.135091
-5.293990 7.725890 -1.149959
-5.248877 7.662921 1.471110
-5.210764 7.607279 -0.806714
-5.226429 7.633006 1.798184
-5.209556 7.611213 -0.483375
-5.217056 7.625026 2.132986
-5.200834 7.604163 -0.160806
-5.228082 7.646866 2.482075
-3.648218 5.350091 -1.735123
-12.969391 19.026672 0.401929
-4.326745 6.349907 -1.773964
-5.359803 7.868970 0.498971
-5.174606 7.597074 -1.786736
-5.888088 8.647812 0.915310
-5.166100 7.590278 -1.454215
-5.186827 7.623591 1.132166
-5.264757 7.741038 -1.149472
-5.208770 7.661592 1.467355
-5.167377 7.600706 -0.804099
-5.178787 7.620350 1.790933
-5.165000 7.602917 -0.481700
-5.184936 7.635129 2.130736
-5.163024 7.605727 -0.160457
-5.181834 7.636295 2.472757
-3.626273 5.357993 -1.733570
-12.964520 19.162928 0.403849
-4.300185 6.358516 -1.772164
-8.721623 12.901165 0.816127
-5.139261 7.602078 -1.783683
-5.928144 8.772314 0.926291
-5.122984 7.583712 -1.449522
-5.149073 7.625200 1.129729
-5.202162 7.706718 -1.141672
-5.169838 7.661717 1.463914
-5.128553 7.600532 -0.802181
-5.133490 7.610713 1.784446
-5.132845 7.612622 -0.481177
-5.146270 7.635407 2.125787
-5.125272 7.607118 -0.160108
-5.144353 7.638314 2.467581
-3.609701 5.373827 -1.734605
-12.964438 19.307671 0.405943
-4.273620 6.367015 -1.770365
-8.716595 12.991241 0.819895
-5.103941 7.606930 -1.780630
-5.936332 8.850866 0.932392
-5.085482 7.585140 -1.446393
-5.103638 7.615093 1.125585
-5.145399 7.680302 -1.135091
-5.136469 7.669867 1.462037
-5.090906 7.601831 -0.800438
-5.099249 7.617164 1.781775
-5.086248 7.600613 -0.479293
-5.114170 7.645225 2.123538
-5.094243 7.618311 -0.159969
-5.114439 7.651405 2.466028
-3.586633 5.379965 -1.732535
-12.973484 19.467625 0.408351
-4.245965 6.373786 -1.768115
-8.707721 13.076449 0.823349
-5.074090 7.619799 -1.779485
-5.882217 8.836702 0.928732
-5.050218 7.589691 -1.443890
-5.064930 7.614682 1.122904
-5.106470 7.680031 -1.132410
-5.099822 7.672945 1.459221
-5.058824 7.611261 -0.799567
-5.058503 7.613660 1.776813
-5.043113 7.593363 -0.477723
-5.064815 7.628937 2.114090
-5.053242 7.614388 -0.159515
-5.070615 7.643453 2.457746
-3.575294 5.403729 -1.736158
-12.971633 19.612869 0.410446
-4.218318 6.380440 -1.765866
-8.708276 13.176745 0.827746
-5.024731 7.603067 -1.771471
-5.753592 8.709231 0.913218
-5.009544 7.585842 -1.439823
-5.027384 7.615746 1.120467
-5.080722 7.699468 -1.132654
-5.058868 7.669262 1.455153
-5.022352 7.613903 -0.797998
-5.023252 7.618159 1.773761
-5.013277 7.605920 -0.477409
-5.031723 7.636806 2.111391
-5.013434 7.611939 -0.159096
-5.033278 7.644972 2.452569
-3.547929 5.403257 -1.732017
-12.966730 19.754993 0.412470
-4.200299 6.401641 -1.767665
-8.712617 13.283885 0.832560
-4.988472 7.605785 -1.768036
-5.688196 8.675945 0.907640
-4.970042 7.583456 -1.436069
-4.990981 7.618304 1.118273
-5.049462 7.710515 -1.131679
-5.020168 7.668694 1.451712
-4.980468 7.608049 -0.795558
-4.982655 7.614290 1.768800
-4.974669 7.604989 -0.476257
-4.992239 7.634750 2.105992
-4.976985 7.614330 -0.158782
-4.992822 7.641472 2.445840
-3.522717 5.405899 -1.728911
-12.974100 19.917423 0.414914
-4.175798 6.413000 -1.766766
-8.710862 13.382850 0.836852
-4.955464 7.613280 -1.765747
-5.647013 8.679047 0.905897
-4.928461 7.577577 -1.431688
-4.953535 7.619038 1.115836
-4.995475 7.686481 -1.125585
-4.984757 7.672921 1.449209
-4.940854 7.605340 -0.793466
-4.942143 7.610232 1.763838
-4.941568 7.612255 -0.475629
-4.954948 7.635783 2.101493
-4.941671 7.618235 -0.158503
-4.955610 7.642643 2.440664
-3.506973 5.423028 -1.730464
-12.964208 20.054951 0.416833
-4.147043 6.417716 -1.764066
-8.718470 13.492182 0.841876
-4.922470 7.620636 -1.763457
-5.602634 8.676944 0.903631
-4.894483 7.583115 -1.429498
-4.911844 7.612929 1.112423
-4.964312 7.697198 -1.124610
-4.947510 7.671146 1.445768
-4.899164 7.599096 -0.791025
-4.909170 7.617535 1.761549
-4.904152 7.612668 -0.474583
-4.925097 7.648119 2.100143
-4.903387 7.614407 -0.158084
-4.916646 7.637917 2.433934
-3.484890 5.430360 -1.728911
-12.968906 20.208910 0.419137
-4.120476 6.423232 -1.761817
-8.717675 13.594830 0.846377
-4.890539 7.629509 -1.761549
-5.572310 8.696449 0.903631
-4.860782 7.586000 -1.426995
-4.872651 7.607446 1.109255
-4.907716 7.665137 -1.117542
-4.910052 7.671732 1.442639
-4.867238 7.607761 -0.790154
-4.877532 7.623851 1.759259
-4.868117 7.612063 -0.473536
-4.885014 7.641421 2.093844
-4.867088 7.616309 -0.157770
-4.881634 7.642010 2.429793
-3.466864 5.441885 -1.728911
-11.559910 18.152409 0.375646
-4.099077 6.439219 -1.762267
-8.715205 13.695947 0.850773
-4.848350 7.619182 -1.755443
-5.529541 8.693026 0.901365
-4.826854 7.591251 -1.424805
-4.840744 7.616030 1.108036
-4.917126 7.739188 -1.125829
-4.865241 7.660477 1.437320
-4.831042 7.609565 -0.788585
-4.842473 7.627570 1.756206
-4.829746 7.610458 -0.472384
-4.842650 7.633745 2.087096
-4.827623 7.612986 -0.157351
-4.845622 7.644318 2.425135
-3.439673 5.443123 -1.725288
-11.539209 18.260265 0.377042
-4.076573 6.453490 -1.762267
-8.722791 13.814103 0.856216
-4.812009 7.623618 -1.752390
-5.484883 8.693015 0.899273
-4.789512 7.593854 -1.421989
-4.805655 7.619451 1.106086
-4.854087 7.699210 -1.117542
-4.830043 7.664045 1.434817
-4.789580 7.602782 -0.786145
-4.802977 7.626992 1.752008
-4.794370 7.616279 -0.471652
-4.806337 7.638247 2.083497
-4.789303 7.611176 -0.156967
-4.803477 7.636658 2.417370
-3.421677 5.456735 -1.725805
-11.516806 18.373604 0.378508
-4.046686 6.458478 -1.759567
-8.720119 13.917242 0.860717
-4.772861 7.620405 -1.747811
-5.456621 8.715484 0.899622
-4.751449 7.592107 -1.418548
-4.771381 7.626915 1.104624
-4.805836 7.684972 -1.112911
-4.791741 7.662434 1.431376
-4.745060 7.590734 -0.783181
-4.760717 7.618738 1.746284
-4.754002 7.610946 -0.470291
-4.771390 7.641752 2.079897
-4.752117 7.610883 -0.156618
-4.769633 7.641905 2.413746
-3.397504 5.460445 -1.723217
-11.512856 18.503382 0.380393
-4.017014 6.458623 -1.755968
-8.723162 14.030706 0.865846
-4.744157 7.633685 -1.747047
-5.453503 8.778480 0.904154
-4.714782 7.589363 -1.415106
-4.731403 7.619085 1.101211
-4.800215 7.732913 -1.117542
-4.761842 7.674077 1.430437
-4.718537 7.607250 -0.783181
-4.726115 7.619468 1.742849
-4.712948 7.601208 -0.468721
-4.740892 7.649250 2.077648
-4.716040 7.612127 -0.156304
-4.731738 7.640443 2.408053
-3.378364 5.470037 -1.722700
-11.520684 18.660862 0.382801
-3.987279 6.460999 -1.752819
-8.714344 14.120747 0.869614
-4.704388 7.625981 -1.741705
-4.678930 7.590641 -1.412291
-4.696446 7.622035 1.099262
-4.741963 7.698915 -1.110230
-4.726007 7.673007 1.427308
-4.685970 7.610980 -0.781961
-4.681994 7.607495 1.736362
-4.676969 7.602303 -0.467779
-4.691702 7.629234 2.067750
-4.683440 7.615800 -0.156059
-4.705365 7.654444 2.407535
-3.356222 5.476854 -1.721147
-11.525611 18.808079 0.385035
-3.968887 6.479169 -1.754168
-8.724452 14.248166 0.875581
-4.667493 7.625611 -1.737888
-4.830033 7.894259 0.809677
-4.648580 7.597690 -1.410726
-4.658718 7.617245 1.096337
-4.718479 7.717984 -1.110717
-4.682714 7.662488 1.422302
-4.655218 7.620492 -0.781264
-4.654692 7.619631 1.735599
-4.645485 7.607544 -0.467151
-4.659271 7.633106 2.064601
-4.646410 7.615033 -0.155710
-4.669561 7.655981 2.402876
-3.335075 5.485236 -1.720111
-11.520988 18.956150 0.387199
-3.945111 6.493673 -1.754168
-8.713636 14.348332 0.879768
-4.636767 7.635145 -1.736362
-4.780733 7.875305 0.806016
-4.610452 7.597790 -1.407597
-4.623559 7.622389 1.094630
-4.687070 7.730134 -1.109986
-4.646405 7.666086 1.419799
-4.613099 7.611135 -0.778649
-4.620631 7.626564 1.733309
-4.614469 7.619392 -0.466837
-4.622179 7.635130 2.060552
-4.608117 7.614902 -0.155361
-4.625473 7.646596 2.394594
-3.308924 5.485264 -1.716488
-11.514643 19.095570 0.389224
-3.923428 6.509073 -1.754618
-7.490501 12.431853 0.760651
-4.600970 7.636149 -1.732927
-4.749104 7.885118 0.805319
-4.563527 7.579989 -1.401340
-4.588737 7.624874 1.092681
-4.647777 7.726038 -1.107061
-4.614529 7.673793 1.418235
-4.574185 7.606702 -0.776558
-4.576788 7.614039 1.726821
-4.579612 7.621759 -0.465999
-4.585466 7.634511 2.056053
-4.573276 7.617225 -0.155082
-4.584834 7.639505 2.387347
-3.289758 5.496780 -1.716488
-11.514642 19.247192 0.391492
-3.892680 6.509350 -1.751019
-7.463459 12.485352 0.762326
-4.568244 7.642051 -1.730638
-4.710307 7.882835 0.803402
-4.532987 7.589091 -1.400089
-4.548866 7.618688 1.089512
-4.600434 7.708122 -1.102186
-4.578603 7.674587 1.415419
-4.542498 7.614068 -0.775686
-4.544150 7.619851 1.724532
-4.540709 7.617111 -0.464743
-4.552802 7.640428 2.053353
-4.538470 7.619400 -0.154803
-4.555176 7.650484 2.385794
-3.274494 5.514875 -1.718559
-11.516793 19.404200 0.393866
-3.867946 6.519546 -1.750119
-7.430016 12.528508 0.763372
-4.534529 7.646131 -1.727966
-4.670572 7.878661 0.801310
-4.498413 7.591271 -1.397586
-4.511113 7.615733 1.086831
-4.580581 7.736089 -1.103893
-4.543739 7.676923 1.412916
-4.504732 7.611017 -0.773769
-4.503527 7.612013 1.719189
-4.503928 7.615723 -0.463697
-4.512221 7.632786 2.047055
-4.503708 7.621421 -0.154524
-4.516654 7.646376 2.379582
-3.249339 5.516285 -1.715453
-11.515960 19.558012 0.396170
-3.839236 6.522931 -1.747420
-7.425916 12.616763 0.767245
-4.492876 7.636532 -1.722242
-4.639004 7.888047 0.800613
-4.465883 7.596710 -1.395709
-4.479471 7.622877 1.085612
-4.554900 7.751237 -1.103893
-4.504247 7.668104 1.408536
-4.471073 7.614669 -0.772548
-4.473946 7.622609 1.718044
-4.467207 7.614172 -0.462650
-4.480967 7.637624 2.044355
-4.465256 7.613891 -0.154070
-4.485409 7.651313 2.376477
-3.226155 5.518691 -1.712865
-11.522667 19.718678 0.398648
-3.817582 6.535627 -1.747420
-7.431379 12.722378 0.772165
-4.461589 7.641216 -1.719952
-4.602775 7.886180 0.798869
-4.434691 7.601241 -1.393831
-4.448169 7.627400 1.084150
-4.500171 7.716569 -1.096824
-4.466858 7.662518 1.404782
-4.431755 7.605352 -0.770108
-4.443704 7.628920 1.716136
-4.438920 7.623765 -0.462336
-4.442869 7.630548 2.038507
-4.428920 7.609645 -0.153686
-4.444470 7.639427 2.368194
-3.207838 5.529358 -1.712865
-11.523427 19.870949 0.400952
-3.793935 6.544878 -1.746520
-7.429986 12.822547 0.776666
-4.433274 7.650872 -1.718807
-4.569605 7.889333 0.797649
-4.397585 7.595390 -1.390077
-4.417881 7.633518 1.082931
-4.485135 7.752851 -1.099749
-4.435140 7.669512 1.403217
-4.395540 7.601034 -0.768191
-4.402659 7.616419 1.710030
-4.402621 7.619422 -0.461184
-4.418158 7.649384 2.039406
-4.399329 7.619864 -0.153581
-4.417774 7.654896 2.368194
-3.188516 5.540523 -1.712865
-11.512819 20.013323 0.403011
-3.764265 6.546257 -1.743371
-4.531633 7.883934 0.476571
-4.394798 7.645876 -1.714228
-4.539063 7.900052 0.797126
-4.363173 7.596992 -1.387574
-4.378358 7.626513 1.079762
-4.446190 7.747798 -1.096824
-4.396544 7.664387 1.399463
-4.364022 7.607691 -0.767319
-4.366282 7.614709 1.706214
-4.360108 7.607018 -0.459510
-4.383677 7.651233 2.035807
-4.364755 7.621291 -0.153302
-4.375671 7.643445 2.359912
-3.168200 5.549941 -1.712347
-4.507386 7.899082 0.158747
-3.738496 6.554278 -1.742021
-4.507444 7.902388 0.476781
-4.362250 7.650937 -1.711938
-5.962665 10.462143 1.053539
-4.324892 7.591580 -1.383819
-4.342870 7.626223 1.077569
-4.411263 7.749469 -1.094874
-4.366220 7.670340 1.397899
-4.333497 7.615952 -0.766622
-4.330941 7.614543 1.702780
-4.322670 7.603091 -0.458358
-4.338646 7.634299 2.027259
-4.329576 7.618339 -0.152953
-4.341715 7.642795 2.355253
-3.148806 5.560966 -1.712347
-3.714822 6.563246 -1.741121
-4.321018 7.640485 -1.706214
-4.318096 7.638430 0.767668
-4.295806 7.599000 -1.382568
-4.310719 7.628487 1.075863
-4.383586 7.760599 -1.094387
-4.327763 7.664894 1.394144
-4.313742 7.643178 -0.767842
-4.296979 7.613477 1.699345
-4.299395 7.620863 -0.458568
-4.306607 7.636761 2.024110
-4.292157 7.614243 -0.152569
-4.305524 7.641074 2.350077
-3.125617 5.562956 -1.709759
-4.281171 7.622719 0.152604
-3.692842 6.577874 -1.741571
-4.275252 7.618406 0.457835
-4.288933 7.642786 -1.703543
-4.275198 7.621428 0.764530
-4.264425 7.605333 -1.381004
-4.277271 7.631365 1.074156
-4.340947 7.748143 -1.090487
-4.294226 7.667888 1.391954
-4.260142 7.607027 -0.762787
-4.267502 7.623291 1.698200
-4.260089 7.613166 -0.457207
-4.263753 7.622834 2.016461
-4.257747 7.615215 -0.152290
-4.265633 7.632446 2.342830
-3.106181 5.573832 -1.709759
-4.244806 7.620146 0.152255
-3.668908 6.589022 -1.741121
-4.255429 7.645500 0.458568
-4.256498 7.647419 -1.701253
-4.245665 7.631081 0.764007
-4.220569 7.589099 -1.375372
-4.244818 7.635840 1.072694
-4.309055 7.754572 -1.089268
-4.260717 7.670744 1.389764
-4.225821 7.607918 -0.761393
-4.226569 7.612395 1.692476
-4.224764 7.612274 -0.456265
-4.232389 7.629152 2.014212
-4.225317 7.619538 -0.152080
-4.231470 7.633773 2.338689
-3.085770 5.582951 -1.709241
-4.206575 7.613914 0.151836
-3.638350 6.588141 -1.737522
-4.212308 7.630582 0.456788
-4.226933 7.657074 -1.700108
-4.211298 7.631899 0.762613
-4.187375 7.591677 -1.373182
-4.201846 7.621058 1.068550
-4.281959 7.769567 -1.089268
-4.228198 7.675188 1.387887
-4.226159 7.671485 -0.766273
-4.196184 7.620222 1.690949
-4.186611 7.605978 -0.455009
-4.199159 7.631927 2.011062
-4.194842 7.627232 -0.151941
-4.202937 7.645111 2.337654
-3.065336 5.591993 -1.708723
-4.175166 7.619783 0.151661
-3.616269 6.602509 -1.737972
-4.180853 7.636479 0.456265
-4.192637 7.658004 -1.697055
-4.184630 7.646554 0.762613
-4.155163 7.595849 -1.371305
-4.166645 7.620004 1.066357
-4.245288 7.767049 -1.086831
-4.191911 7.672564 1.384758
-4.197445 7.682693 -0.765925
-4.160147 7.617593 1.687133
-4.150464 7.603016 -0.453962
-4.161293 7.626009 2.005664
-4.162445 7.631296 -0.151731
-4.172524 7.652952 2.335583
-3.045796 5.602660 -1.708723
-4.142815 7.623768 0.151452
-3.589477 6.608244 -1.736172
-4.143686 7.631720 0.455114
-4.156511 7.655341 -1.693239
-4.148411 7.643603 0.760870
-4.122970 7.599890 -1.369428
-4.135291 7.625777 1.065138
-4.214369 7.774839 -1.085856
-4.153809 7.666308 1.381004
-4.144972 7.650001 -0.761218
-4.132598 7.630342 1.686752
-4.118196 7.606918 -0.453334
-4.127226 7.626779 2.002064
-4.119609 7.615878 -0.151138
-4.134760 7.647077 2.329371
-3.022554 5.606455 -1.706653
-4.111436 7.629380 0.151277
-3.561769 6.612154 -1.733923
-4.106607 7.626793 0.453962
-4.122320 7.655973 -1.690186
-4.112264 7.640492 0.759126
-4.087055 7.596840 -1.366299
-4.100186 7.624428 1.062944
-4.179686 7.775514 -1.083906
-4.120476 7.668582 1.378814
-4.086179 7.604752 -0.755292
-4.098508 7.630883 1.683699
-4.085950 7.610688 -0.452706
-4.094126 7.629120 1.998915
-4.089220 7.623161 -0.150998
-4.096176 7.639330 2.322642
-2.998410 5.608454 -1.704065
-4.074410 7.624286 0.150894
-3.540501 6.627985 -1.734823
-4.075254 7.632273 0.453439
-4.086320 7.652998 -1.686370
-4.076185 7.637225 0.757383
-4.053075 7.597116 -1.363796
-4.067940 7.628186 1.061482
-4.146914 7.779546 -1.082444
-4.087182 7.670714 1.376623
-4.048367 7.597867 -0.753200
-4.057078 7.617419 1.677593
-4.053726 7.614328 -0.452078
-4.061064 7.631322 1.995766
-4.056009 7.625032 -0.150754
-4.059506 7.634820 2.316948
-2.979721 5.620593 -1.704582
-4.040282 7.624325 0.150614
-3.510048 6.626527 -1.731223
-4.042048 7.634095 0.452706
-4.056828 7.662010 -1.685225
-4.040183 7.633796 0.755640
-4.019144 7.597249 -1.361293
-4.031083 7.623035 1.058801
-4.117880 7.790463 -1.081956
-4.053923 7.672707 1.374433
-4.016238 7.601381 -0.752154
-4.027714 7.626326 1.676448
-4.017799 7.610767 -0.451031
-4.038041 7.652344 1.997565
-4.024705 7.630299 -0.150579
-4.043644 7.669449 2.323160
-2.960983 5.632669 -1.705100
-4.013642 7.638383 0.150614
-3.484175 6.633564 -1.729874
-4.008348 7.631544 0.451764
-4.020933 7.658741 -1.681409
-4.009806 7.640797 0.754943
-3.987092 7.600737 -1.359416
-4.008134 7.644093 1.059776
-4.077757 7.780176 -1.078544
-4.027538 7.684360 1.374120
-3.987828 7.611826 -0.751805
-4.002889 7.643817 1.677211
-3.983796 7.610591 -0.450194
-4.000461 7.645674 1.992166
-3.990107 7.625887 -0.150230
-4.001176 7.650292 2.313325
-2.939516 5.639545 -1.704065
