# This PCD file was generated using the MATLAB® pcwrite function
# from Computer Vision Toolbox®.
# .PCD v.7 - Point Cloud Data file format
VERSION .7
FIELDS x y z
SIZE 4 4 4
TYPE F F F
COUNT 1 1 1
WIDTH 1606
HEIGHT 1
VIEWPOINT 0 0 0 1 0 0 0
POINTS 1606
DATA ascii
-12.596245 -2.087554 -0.222867
-7.815810 -1.284091 -2.122316
-12.344953 -2.025990 0.218365
-9.463429 -1.551391 -2.213968
-11.804875 -1.933124 -2.325199
-14.371885 -2.348334 -2.306470
-19.049528 -3.105829 -2.369871
-20.347179 -3.313748 -1.803601
-20.291613 -3.297433 -1.077388
-20.408318 -3.309087 -0.360881
-7.820245 -1.256801 -2.122316
-12.284819 -1.972109 0.217178
-9.463015 -1.517424 -2.212619
-20.671774 -3.311084 1.097171
-11.827060 -1.894389 -2.328252
-14.407303 -2.302520 -2.310850
-19.017126 -3.032433 -2.364509
-19.917885 -3.172507 -1.764555
-20.330614 -3.230965 -1.078853
-20.403944 -3.235322 -0.360602
-7.820767 -1.228896 -2.121281
-11.908380 -1.869062 0.210406
-9.477880 -1.485892 -2.214868
-11.849117 -1.855523 -2.331304
-14.575293 -2.277219 -2.336505
-19.435568 -3.029631 -2.415207
-19.751659 -3.075373 -1.748867
-19.431015 -3.011552 -0.343219
-7.836466 -1.203350 -2.124387
-12.839870 -1.969364 0.226742
-9.492641 -1.454274 -2.217118
-11.863285 -1.815338 -2.332831
-14.903404 -2.275219 -2.387816
-19.661894 -2.994648 -2.442018
-19.734694 -3.002212 -1.746427
-7.825335 -1.173693 -2.120246
-13.040474 -1.953566 0.230162
-9.482241 -1.418825 -2.213518
-11.885083 -1.776238 -2.335884
-15.278564 -2.277949 -2.446635
-19.495516 -2.899713 -2.420082
-29.701342 -4.412395 -2.627048
-19.750875 -2.927125 -1.046405
-19.724556 -2.916189 -0.348036
-7.852323 -1.149729 -2.126457
-13.031385 -1.905722 0.229883
-9.483279 -1.385151 -2.212619
-11.875669 -1.732473 -2.332831
-15.622648 -2.273529 -2.500449
-19.898417 -2.888685 -2.468829
-29.558821 -4.285827 -2.613103
-20.069336 -2.902769 -1.062734
-19.493153 -2.812481 -0.343778
-7.856287 -1.122314 -2.126457
-13.089428 -1.867566 0.230791
-9.484199 -1.351490 -2.211719
-12.144783 -1.728461 0.642895
-11.866096 -1.688798 -2.329778
-15.732189 -2.233419 -2.516718
-20.191410 -2.859283 -2.503928
-28.997553 -4.101149 -2.562204
-20.419506 -2.880679 -1.080738
-19.914730 -2.802379 -0.351038
-7.829543 -1.090619 -2.118175
-9.492718 -1.318914 -2.212619
-11.868029 -1.646827 -2.329015
-15.810329 -2.188243 -2.527981
-20.413643 -2.818102 -2.530252
-22.210258 -3.062175 -1.961527
-20.512541 -2.820812 -1.085134
-19.520239 -2.677412 -0.343917
-7.852446 -1.065880 -2.123352
-20.219952 -2.741035 0.356169
-9.504989 -1.286816 -2.214418
-20.437254 -2.766860 1.080842
-11.885378 -1.606965 -2.331304
-15.829618 -2.134625 -2.529859
-20.663376 -2.779109 -2.559988
-21.881170 -2.939013 -1.931545
-21.376266 -2.859803 -0.376448
-7.856118 -1.038463 -2.123352
-20.133770 -2.661388 0.354493
-9.497612 -1.253758 -2.211719
-11.875344 -1.563417 -2.328252
-15.871862 -2.086755 -2.535490
-20.916540 -2.742572 -2.590211
-22.329874 -2.919960 -1.970243
-20.891706 -2.728190 -1.104184
-21.401981 -2.787229 -0.376728
-7.851854 -1.011418 -2.121281
-21.011648 -2.702838 0.369782
-9.498064 -1.220101 -2.210819
-21.244522 -2.725252 1.122502
-11.872673 -1.523029 -2.326725
-15.890807 -2.032842 -2.537367
-21.150467 -2.698185 -2.617997
-22.331530 -2.844893 -1.969545
-20.370104 -2.587795 -1.076132
-20.118120 -2.548643 -0.353970
-7.874506 -0.986405 -2.126457
-20.901899 -2.614585 0.367687
-9.521603 -1.189356 -2.215318
-11.862332 -1.479635 -2.323672
-15.913487 -1.979307 -2.539870
-21.329178 -2.645351 -2.638959
-32.532242 -4.029038 -2.867947
-20.973671 -2.590110 -1.107534
-21.119246 -2.600604 -0.371422
-7.866395 -0.957511 -2.123352
-9.523762 -1.155875 -2.214868
-11.855730 -1.436801 -2.321382
-15.928147 -1.924698 -2.541122
-21.440763 -2.583229 -2.651634
-32.419506 -3.900231 -2.856791
-21.018284 -2.521159 -1.109418
-20.091738 -2.402911 -0.353202
-7.865853 -0.929595 -2.122316
-31.464861 -3.712982 0.553032
-9.525804 -1.122396 -2.214418
-11.876272 -1.397243 -2.324435
-15.919072 -1.867245 -2.538619
-21.520632 -2.516671 -2.660408
-36.655991 -4.280149 -3.228771
-21.184559 -2.458633 -0.372260
-7.865210 -0.901692 -2.121281
-9.506430 -1.086482 -2.209019
-11.896682 -1.357562 -2.327488
-15.933342 -1.812558 -2.539870
-21.552952 -2.444218 -2.663333
-36.718224 -4.157549 -3.232955
-31.581833 -3.564799 -1.665644
-20.123922 -2.264374 -0.353481
-7.872150 -0.874656 -2.122316
-9.521786 -1.054581 -2.211719
-20.709183 -2.289973 1.091937
-11.901349 -1.316023 -2.327488
-15.896376 -1.752171 -2.532987
-21.565302 -2.369403 -2.663821
-31.531691 -3.458859 -2.775213
-20.044235 -2.184581 -0.351945
-7.878997 -0.847585 -2.123352
-9.521533 -1.020921 -2.210819
-20.875921 -2.234676 1.100311
-11.886349 -1.272382 -2.323672
-15.906324 -1.697087 -2.533613
-21.901115 -2.328961 -2.704281
-27.608801 -2.931036 -2.429030
-7.874222 -0.819279 -2.121281
-9.528916 -0.988078 -2.211719
-11.882907 -1.230077 -2.322146
-15.896431 -1.639931 -2.531110
-22.560759 -2.319493 -2.784715
-29.767328 -3.055151 -2.617984
-20.198256 -2.058792 -0.354389
-7.880878 -0.792174 -2.122316
-9.551696 -0.956754 -2.216218
-11.894941 -1.189371 -2.323672
-15.913854 -1.585611 -2.532987
-18.199179 -1.806894 -2.245565
-29.307022 -2.894235 -1.543388
-7.879749 -0.764286 -2.121281
-9.543341 -0.922282 -2.213518
-11.902929 -1.148219 -2.324435
-15.895695 -1.527783 -2.529233
-18.098667 -1.733142 -2.232403
-18.526470 -1.770846 -1.628244
-29.491913 -2.808585 -1.552599
-7.901604 -0.738574 -2.126457
-9.538740 -0.888241 -2.211719
-11.906865 -1.106663 -2.324435
-15.912732 -1.473379 -2.531110
-18.132278 -1.672507 -2.235815
-18.419451 -1.695754 -1.618308
-19.228804 -1.763497 -1.011968
-7.904134 -0.710988 -2.126457
-9.555220 -0.857824 -2.214868
-11.902834 -1.064394 -2.322909
-15.917531 -1.420602 -2.531110
-18.155523 -1.613950 -2.238009
-18.474873 -1.635840 -1.622666
-19.411613 -1.715369 -1.021284
-30.750420 -2.706534 -0.538826
-7.887201 -0.683105 -2.121281
-20.755442 -1.793966 0.363638
-9.540681 -0.822959 -2.210819
-11.906298 -1.024916 -2.322909
-15.930266 -1.365709 -2.532362
-18.091820 -1.544655 -2.229478
-18.361084 -1.564421 -1.612207
-7.893389 -0.655889 -2.122316
-9.551265 -0.790294 -2.212619
-11.905890 -0.983026 -2.322146
-15.923124 -1.309119 -2.530484
-18.326717 -1.497070 -1.608721
-30.788496 -2.493411 -0.539175
-7.891778 -0.628027 -2.121281
-54.695488 -4.343060 0.957718
-9.542310 -0.756023 -2.209919
-11.940563 -0.943939 -2.328252
-15.935473 -1.254148 -2.531736
-18.067652 -1.412436 -1.585537
-7.913186 -0.601941 -2.126457
-9.544890 -0.722711 -2.209919
-11.920293 -0.900478 -2.323672
-15.935814 -1.198222 -2.531110
-18.048630 -1.347583 -1.583446
-31.802275 -2.352163 -0.556627
-7.915239 -0.574315 -2.126457
-9.551242 -0.689669 -2.210819
-11.911614 -0.858016 -2.321382
-15.975366 -1.145131 -2.536742
-18.143303 -1.294165 -2.233378
-18.110857 -1.288674 -1.588501
-7.905631 -0.545884 -2.123352
-9.555536 -0.656458 -2.211269
-11.930205 -0.817505 -2.324435
-15.971382 -1.088821 -2.535490
-18.179401 -1.232974 -2.237278
-55.182457 -3.732943 8.760018
-18.139097 -1.227061 -1.590592
-7.919055 -0.519042 -2.126457
-9.559713 -0.623228 -2.211719
-11.940824 -0.776365 -2.325962
-15.935661 -1.030510 -2.529233
-18.215288 -1.171547 -2.241178
-55.254292 -3.544076 8.769404
-18.103506 -1.161180 -1.587106
-7.928531 -0.491875 -2.128528
-9.559886 -0.589732 -2.211269
-11.919947 -0.733232 -2.321382
-15.954934 -0.975846 -2.531736
-18.171711 -1.105068 -2.235328
-55.266327 -3.351193 8.769404
-18.115402 -1.098467 -1.587803
-38.610821 -2.314198 -0.675164
-7.920557 -0.463633 -2.125940
-9.559939 -0.556245 -2.210819
-11.934193 -0.692304 -2.323672
-15.954298 -0.919919 -2.531110
-18.104111 -1.037537 -2.226553
-18.127085 -1.035679 -1.588501
-7.920199 -0.435876 -2.125422
-9.581283 -0.523937 -2.215318
-11.928696 -0.650214 -2.322146
-15.953468 -0.864009 -2.530484
-17.909403 -0.963669 -2.202179
-18.106714 -0.971117 -1.586409
-7.913954 -0.407827 -2.123352
-9.571376 -0.489891 -2.212619
-11.934813 -0.608768 -2.322909
-15.995844 -0.810318 -2.536742
-17.900761 -0.900549 -2.200717
-18.050297 -0.904918 -1.581179
-7.911471 -0.380016 -2.122316
-9.578867 -0.456756 -2.213968
-11.932944 -0.566917 -2.322146
-15.986736 -0.753914 -2.534864
-18.022772 -0.843631 -2.215341
-18.101110 -0.844128 -1.585363
-7.928189 -0.353085 -2.126457
-9.584296 -0.423486 -2.214868
-11.942696 -0.525608 -2.323672
-15.993217 -0.698277 -2.535490
-18.080999 -0.786275 -2.222166
-18.092005 -0.780422 -1.584317
-7.917734 -0.326315 -2.123352
-9.572019 -0.391148 -2.211719
-11.967913 -0.486959 -2.328252
-16.007288 -0.645715 -2.537367
-18.119209 -0.727745 -2.226553
-18.158197 -0.722958 -1.589895
-83.652710 -3.286718 -1.461290
-7.938077 -0.300788 -2.128528
-9.565474 -0.359112 -2.209919
-11.934147 -0.445949 -2.321382
-16.021185 -0.593071 -2.539244
-18.101686 -0.666924 -2.224116
-83.643166 -3.008575 -1.460941
-7.919724 -0.273797 -2.123352
-9.574403 -0.327656 -2.211719
-11.939486 -0.406505 -2.322146
-16.027012 -0.540072 -2.539870
-17.980791 -0.602768 -2.209004
-18.063028 -0.599213 -1.581179
-83.632690 -2.730552 -1.460592
-7.912993 -0.243148 -2.121281
-9.587276 -0.291243 -2.214418
-11.968431 -0.361490 -2.327488
-16.028967 -0.478529 -2.539870
-18.045280 -0.529268 -1.579436
-83.650978 -2.395037 -1.460732
-7.929244 -0.215943 -2.125422
-9.584339 -0.257672 -2.213518
-11.957845 -0.319392 -2.325199
-16.022642 -0.422370 -2.538619
-18.068930 -0.466845 -1.581354
-83.642845 -2.102622 -1.460452
-7.929949 -0.188264 -2.125422
-9.577388 -0.224033 -2.211719
-11.958887 -0.277649 -2.325199
-16.024019 -0.366433 -2.538619
-18.100328 -0.404432 -1.583969
-83.635674 -1.810336 -1.460208
-7.938283 -0.160740 -2.127493
-9.574213 -0.190520 -2.210819
-11.963709 -0.235983 -2.325962
-16.033098 -0.310650 -2.539870
-18.051147 -0.343452 -2.216804
-18.340673 -0.345754 -1.604886
-83.651474 -1.518581 -1.460382
-7.927207 -0.132835 -2.124387
-9.582614 -0.157228 -2.212619
-11.956607 -0.194093 -2.324435
-16.018286 -0.254434 -2.537367
-18.113768 -0.281390 -2.224360
-18.339775 -0.281704 -1.604712
-83.638062 -1.240904 -1.460068
-7.927622 -0.105163 -2.124387
-9.579187 -0.125399 -2.211719
-11.957211 -0.152355 -2.324435
-16.034842 -0.201512 -2.539870
-18.142389 -0.221660 -2.227772
-83.663879 -0.949193 -1.460452
-7.927927 -0.078873 -2.124387
-9.571772 -0.091886 -2.209919
-11.965505 -0.112776 -2.325962
-16.003843 -0.145252 -2.534864
-18.156948 -0.158455 -2.229478
-18.644127 -0.156199 -1.631207
-83.660683 -0.657076 -1.460348
-7.935891 -0.049863 -2.126457
-9.575931 -0.058497 -2.210819
-11.969764 -0.068942 -2.326725
-16.008219 -0.086615 -2.535490
-18.141512 -0.094991 -2.227528
-18.421413 -0.090026 -1.611684
-19.239399 -0.087308 -1.008305
-83.356514 -0.363704 -1.455007
-7.924425 -0.022129 -2.123352
-9.595569 -0.023446 -2.215318
-11.969932 -0.027159 -2.326725
-16.028177 -0.030772 -2.538619
-18.201290 -0.028596 -2.234840
-19.275537 -0.020182 -1.010189
-83.613243 -0.072975 -1.459475
-7.932182 0.005536 -2.125422
-9.589746 0.008369 -2.213968
-11.973880 0.014626 -2.327488
-16.036093 0.022391 -2.539870
-18.487137 0.032261 -2.269939
-20.134317 0.045678 -1.055198
-83.678970 0.219066 -1.460627
-7.928256 0.031825 -2.124387
-9.583813 0.041818 -2.212619
-11.961987 0.054280 -2.325199
-16.035917 0.078367 -2.539870
-24.140375 0.126400 -2.964106
-83.583908 0.481412 -4.380520
-83.679688 0.511173 -1.460662
-7.928085 0.060885 -2.124387
-9.575814 0.075208 -2.210819
-11.973487 0.098222 -2.327488
-16.043425 0.137205 -2.541122
-24.139788 0.210666 -2.964106
-82.836639 0.780740 -4.341477
-83.647408 0.802981 -1.460138
-7.943278 0.088730 -2.128528
-9.571577 0.110260 -2.209919
-11.957365 0.139831 -2.324435
-16.062597 0.193449 -2.544250
-24.067398 0.298250 -2.955332
-83.658096 1.095145 -1.460382
-7.927467 0.116230 -2.124387
-9.575055 0.142058 -2.210819
-11.952878 0.181509 -2.323672
-16.069771 0.246831 -2.545502
-24.066277 0.378060 -2.955332
-83.661766 1.387295 -1.460522
-7.919312 0.142380 -2.122316
-9.578399 0.175552 -2.211719
-11.975766 0.221582 -2.328252
-16.068811 0.302928 -2.545502
-24.136257 0.463437 -2.964106
-83.493149 1.646872 -4.376542
-83.664398 1.679463 -1.460662
-7.926493 0.170188 -2.124387
-9.581623 0.209071 -2.212619
-11.967068 0.263211 -2.326725
-16.075556 0.359190 -2.546753
-24.072973 0.546296 -2.956550
-82.917831 1.925117 -4.346711
-83.670021 1.971782 -1.460871
-7.933576 0.198047 -2.126457
-9.565250 0.242122 -2.209019
-11.970002 0.305080 -2.327488
-16.046556 0.414588 -2.542373
-24.031231 0.629278 -2.951676
-83.662628 2.263855 -1.460871
-7.921210 0.226794 -2.123352
-9.564347 0.275508 -2.209019
-11.968803 0.348953 -2.327488
-16.044930 0.473399 -2.542373
-24.056667 0.713984 -2.955088
-83.616623 2.540105 -4.384183
-83.670219 2.556349 -1.461150
-7.912646 0.254193 -2.121281
-9.571063 0.310816 -2.210819
-11.959663 0.390474 -2.325962
-16.055023 0.529795 -2.544250
-23.998476 0.796111 -2.948263
-83.351753 2.823314 -4.370786
-83.676773 2.848944 -1.461430
-7.927206 0.280981 -2.125422
-9.554400 0.341996 -2.207220
-11.954378 0.429991 -2.325199
-16.072920 0.583750 -2.547379
-24.051250 0.877717 -2.955088
-82.882874 3.082613 -4.346711
-83.670853 3.126563 -1.461499
-7.918508 0.306968 -2.123352
-9.584371 0.374894 -2.214418
-11.945040 0.469323 -2.323672
-16.039316 0.635791 -2.542373
-24.048040 0.961661 -2.955088
-83.699394 3.420245 -1.462198
-7.928969 0.335094 -2.126457
-9.551851 0.407023 -2.207220
-11.939406 0.510846 -2.322909
-16.029106 0.691439 -2.541122
-24.115932 1.048704 -2.963863
-83.634148 3.680781 -4.387323
-83.802811 3.717511 -1.464222
-7.923892 0.362593 -2.125422
-9.562053 0.440899 -2.209919
-11.968929 0.553972 -2.329015
-16.018700 0.747015 -2.539870
-24.040741 1.129530 -2.955088
-83.833267 4.012120 -1.464990
-7.930295 0.390631 -2.127493
-9.560455 0.474275 -2.209919
-11.951236 0.594967 -2.325962
-16.027834 0.803520 -2.541748
-24.108023 1.217039 -2.963863
-83.718895 4.299623 -1.463245
-7.909592 0.417291 -2.122316
-9.562633 0.507851 -2.210819
-11.953007 0.636890 -2.326725
-16.040709 0.860310 -2.544250
-7.900294 0.445845 -2.120246
-9.554966 0.540895 -2.209469
-11.950591 0.680696 -2.326725
-15.994061 0.916610 -2.537367
-24.098940 1.385315 -2.963863
-83.742737 4.887228 -1.464222
-7.902546 0.473649 -2.121281
-9.537357 0.574976 -2.205870
-11.948143 0.722405 -2.326725
-16.014427 0.973873 -2.541122
-24.093700 1.473633 -2.963863
-83.655952 5.160580 -4.392557
-83.757103 5.181493 -1.464780
-7.908557 0.501720 -2.123352
-9.539288 0.606848 -2.206770
-11.925957 0.762854 -2.322909
-16.034765 1.028492 -2.544876
-24.088680 1.553524 -2.963863
-83.265686 5.413737 -4.372984
-83.750473 5.474593 -1.464990
-7.902995 0.527686 -2.122316
-9.544889 0.640663 -2.208570
-11.915525 0.801871 -2.321382
-16.023191 1.083920 -2.543625
-24.083111 1.637600 -2.963863
-82.945396 5.683740 -4.357178
-83.686966 5.763903 -1.464222
-7.897153 0.556377 -2.121281
-9.538706 0.673702 -2.207669
-11.920340 0.846095 -2.322909
-16.030935 1.143489 -2.545502
-24.077250 1.721651 -2.963863
-83.809944 6.066387 -1.466735
-7.889384 0.583513 -2.119728
-9.532287 0.708370 -2.206770
-11.909482 0.887116 -2.321382
-16.034725 1.200026 -2.546753
-24.070776 1.809893 -2.963863
-83.788254 6.358903 -1.466735
-7.885373 0.610899 -2.119210
-9.522114 0.739374 -2.204970
-11.906313 0.928683 -2.321382
-16.046413 1.254425 -2.549257
-24.066620 1.889855 -2.964106
-82.745941 6.541299 -4.350060
-83.765549 6.651323 -1.466735
-7.894857 0.637979 -2.122316
-9.511705 0.771977 -2.203171
-11.910995 0.968798 -2.322909
-16.038000 1.310109 -2.548631
-24.059875 1.973858 -2.964106
-83.741821 6.943681 -1.466735
-7.888615 0.666585 -2.121281
-9.526428 0.806655 -2.207220
-11.879978 1.010119 -2.317566
-16.076391 1.372576 -2.555514
-24.052839 2.057826 -2.964106
-7.882392 0.693779 -2.120246
-9.505938 0.840022 -2.203171
-11.868557 1.050889 -2.316040
-16.079370 1.429388 -2.556765
-24.045509 2.141774 -2.964106
-83.644356 7.509202 -4.401245
-7.868505 0.718860 -2.117140
-9.514743 0.872606 -2.205870
-11.861097 1.089882 -2.315277
-16.066675 1.481972 -2.555514
-24.038275 2.221501 -2.964106
-82.980637 7.727094 -4.367645
-7.873771 0.745676 -2.119210
-9.502097 0.903231 -2.203620
-11.884779 1.131815 -2.320619
-16.045942 1.533740 -2.553011
-24.030375 2.305397 -2.964106
-7.876752 0.775097 -2.120763
-9.489190 0.935439 -2.201371
-11.884459 1.175751 -2.321382
-16.048073 1.593326 -2.554262
-24.022181 2.389260 -2.964106
-7.875920 0.802784 -2.121281
-9.499268 0.971600 -2.204520
-11.876376 1.216829 -2.320619
-16.050276 1.650139 -2.555514
-23.942179 2.469962 -2.955332
-7.869228 0.829864 -2.120246
-9.476614 1.001049 -2.200021
-11.860342 1.257039 -2.318329
-16.036856 1.702521 -2.554262
-23.933857 2.549345 -2.955332
-7.858750 0.855119 -2.118175
-9.490497 1.036026 -2.204070
-11.883431 1.299345 -2.323672
-15.999400 1.755044 -2.549257
-23.869560 2.626789 -2.948507
-7.870922 0.885648 -2.122316
-9.492633 1.069800 -2.205420
-11.866884 1.341571 -2.321382
-16.008562 1.815454 -2.551759
-23.935200 2.718607 -2.957769
-7.852430 0.911335 -2.118175
-9.477035 1.103236 -2.202721
-11.873829 1.384351 -2.323672
-16.017822 1.873159 -2.554262
-23.877756 2.800766 -2.951920
-61.166351 7.207037 -3.227768
-7.856874 0.939656 -2.120246
-9.473324 1.134657 -2.202721
-11.880620 1.427192 -2.325962
-15.980144 1.922492 -2.549257
-23.966875 2.891817 -2.964106
-61.142120 7.409821 -3.227768
-7.830706 0.962876 -2.114034
-9.469305 1.167718 -2.202721
-11.887513 1.468026 -2.328252
-15.985097 1.979718 -2.551134
-23.858139 2.963232 -2.951920
-61.234795 7.638050 -3.234048
-7.838797 0.991659 -2.117140
-9.480638 1.202725 -2.206320
-11.897896 1.511492 -2.331304
-15.944777 2.031257 -2.545815
-7.839119 1.019513 -2.118175
-9.449327 1.232284 -2.200021
-11.888654 1.552509 -2.330541
-15.949342 2.088442 -2.547692
-23.864426 3.133333 -2.955332
-7.820194 1.044825 -2.114034
-9.444968 1.265261 -2.200021
-11.887053 1.594518 -2.331304
-15.969364 2.147789 -2.552072
-23.825800 3.212903 -2.951920
-7.839466 1.075267 -2.120246
-9.454008 1.300081 -2.203171
-11.861968 1.633324 -2.327488
-15.953941 2.202440 -2.550821
-23.716122 3.282444 -2.939733
-52.900551 7.349961 -2.799032
-7.816535 1.099934 -2.115069
-9.443856 1.330607 -2.201821
-11.840641 1.672524 -2.324435
-15.923079 2.252014 -2.547066
-23.705107 3.361073 -2.939733
-52.915428 7.530975 -2.801125
-7.812844 1.125848 -2.115069
-9.473871 1.368582 -2.209919
-11.838917 1.712342 -2.325199
-15.911210 2.307015 -2.546440
-52.948109 7.724290 -2.804265
-7.805045 1.152547 -2.114034
-9.434336 1.396507 -2.201821
-11.844521 1.755382 -2.327488
-15.883522 2.359640 -2.543312
-23.681065 3.526484 -2.939733
-7.808615 1.180941 -2.116105
-9.452525 1.432934 -2.207220
-11.842202 1.797305 -2.328252
-15.883001 2.416254 -2.544563
-23.668612 3.609125 -2.939733
-7.812081 1.209375 -2.118175
-9.459020 1.467714 -2.209919
-11.812576 1.835018 -2.323672
-15.882277 2.472898 -2.545815
-23.655869 3.691717 -2.939733
-7.792547 1.234218 -2.114034
-9.480783 1.505000 -2.216218
-11.825488 1.879320 -2.327488
-15.865746 2.527083 -2.544563
-23.642838 3.774269 -2.939733
-7.787971 1.262771 -2.114034
-9.452390 1.534338 -2.210819
-11.818521 1.922650 -2.327488
-15.871974 2.587757 -2.547066
-45.297173 7.401466 7.269510
-7.789235 1.290894 -2.115587
-44.859875 7.442591 0.793735
-9.435169 1.567058 -2.208120
-11.792370 1.960673 -2.323672
-15.816079 2.635353 -2.539557
-23.615225 3.943357 -2.939733
-45.173637 7.543260 7.253867
-44.803337 7.505540 -2.380763
-7.782775 1.317755 -2.115069
-9.427998 1.598012 -2.207669
-11.793197 2.003139 -2.325199
-15.807254 2.687787 -2.539557
-43.665325 7.432466 5.438542
-45.244396 7.717509 7.269510
-44.679768 7.637248 -2.375529
-7.778362 1.343557 -2.115069
-9.426205 1.631575 -2.208570
-11.782620 2.041566 -2.324435
-15.805559 2.744296 -2.540809
-23.392265 4.069983 -2.915359
-44.751209 7.810333 -2.380763
-42.332939 7.403505 -0.750139
-7.775528 1.371036 -2.115587
-9.414694 1.663451 -2.207220
-11.771556 2.081999 -2.323672
-15.788104 2.798077 -2.539557
-23.448278 4.164108 -2.924133
-41.698246 7.420079 8.232646
-44.747272 7.970700 -2.382019
-7.766892 1.397483 -2.114552
-9.412666 1.696999 -2.208120
-11.764216 2.123074 -2.323672
-15.789903 2.855280 -2.541435
-23.363283 4.233187 -2.915359
-40.972820 7.438635 8.094500
-7.775267 1.427028 -2.118175
-9.400935 1.728785 -2.206770
-11.764458 2.165548 -2.325199
-15.739046 2.902856 -2.534864
-40.633045 7.501544 5.073421
-23.348362 4.314720 -2.915359
-40.136318 7.424337 6.464811
-40.946606 7.581604 8.094500
-40.384510 7.492117 9.482587
-7.774037 1.454871 -2.119210
-9.385266 1.759795 -2.204520
-39.595352 7.431524 2.111337
-11.756827 2.206601 -2.325199
-15.728818 2.957775 -2.534864
-23.333158 4.396195 -2.915359
-7.768911 1.482000 -2.119210
-38.907070 7.428955 0.691395
-9.382895 1.793277 -2.205420
-39.176830 7.494647 2.090403
-11.745195 2.246891 -2.324435
-15.718397 3.012661 -2.534864
-23.317673 4.477612 -2.915359
-38.675163 7.433656 6.237669
-38.869297 7.492075 9.138862
-38.274239 7.384315 -0.680399
-7.752312 1.506896 -2.116105
-9.380404 1.826761 -2.206320
-11.733427 2.287123 -2.323672
-15.719417 3.069786 -2.536742
-23.301899 4.558979 -2.915359
-38.067410 7.454735 6.143808
-37.613163 7.365780 -3.353230
-38.173630 7.496290 8.981396
-37.510464 7.372852 -0.667275
-7.756481 1.535824 -2.118693
-9.375880 1.859875 -2.206770
-11.717669 2.326537 -2.322146
-15.673732 3.117698 -2.531110
-23.285843 4.640291 -2.915359
-37.308891 7.441505 6.025543
-36.977604 7.375429 -3.298845
-36.916550 7.376659 -1.972961
-37.558674 7.511775 8.842826
-36.951160 7.396979 -0.657781
-7.737815 1.560217 -2.115069
-36.725838 7.411889 0.653977
-9.348319 1.888348 -2.201821
-36.850117 7.443673 1.970240
-11.694081 2.364313 -2.319093
-15.655010 3.170823 -2.529859
-36.865601 7.473591 4.618605
-36.734203 7.453628 5.936688
-36.291683 7.370432 -3.239928
-36.902515 7.501191 7.319815
-36.303429 7.386013 -1.941560
-37.070110 7.548733 8.733950
-36.287636 7.389395 -0.646402
-7.762601 1.593432 -2.123352
-36.062473 7.402555 0.642598
-9.334371 1.917769 -2.200021
-36.655670 7.537664 1.961238
-11.693450 2.406699 -2.320619
-15.663755 3.226705 -2.532987
-36.817284 7.590991 4.615680
-23.059307 4.758560 -2.890985
-36.108253 7.457944 5.839699
-35.680389 7.376063 -3.187634
-36.031490 7.448645 7.151903
-35.574635 7.360676 -1.903878
-36.189976 7.494581 8.532393
-35.627205 7.384522 -0.635093
-7.734581 1.614428 -2.117140
-35.547050 7.426168 0.633871
-9.342879 1.953532 -2.203620
-36.699512 7.680291 1.965006
-11.685405 2.445463 -2.320619
-15.629197 3.276499 -2.529233
-36.821648 7.725976 4.619580
-35.633514 7.489675 5.767114
-35.031807 7.363204 -3.131855
-35.498074 7.467668 7.051156
-35.079666 7.386050 -1.878756
-35.705948 7.524422 8.424417
-35.041611 7.390802 -0.625110
-7.736458 1.643023 -2.119210
-34.906727 7.419658 0.622911
-9.320755 1.982887 -2.200021
-36.617783 7.796703 1.962075
-11.680637 2.487056 -2.321382
-34.933159 7.444394 3.124882
-15.629256 3.333504 -2.531110
-36.806103 7.856957 4.621042
-23.064348 4.927729 -2.895859
-34.846062 7.451259 5.643844
-34.557774 7.389613 -3.091763
-34.876659 7.464176 6.932855
-34.440441 7.377104 -1.845889
-35.698521 7.653091 8.428916
-34.436863 7.388909 -0.614778
-7.704239 1.664309 -2.111964
-34.419346 7.441722 0.614674
-9.321395 2.017059 -2.201821
-36.664516 7.940550 1.966053
-11.671885 2.527817 -2.321382
-34.322807 7.439662 3.072588
-15.598220 3.383852 -2.527981
-22.911221 4.978697 -2.878798
-34.240765 7.446908 5.549983
-33.881504 7.368774 -3.033543
-34.320930 7.470625 6.827528
-33.887585 7.382485 -1.817628
-33.938057 7.405898 -0.606331
-7.715364 1.694921 -2.116622
-33.877556 7.448461 0.605459
-9.306684 2.047909 -2.200021
-11.659156 2.567697 -2.320619
-33.810211 7.452213 3.029011
-15.586311 3.438284 -2.527981
-33.800091 7.462355 4.250072
-22.653347 5.005533 -2.848574
-33.763226 7.466584 5.476771
-33.373123 7.380315 -2.990314
-33.777088 7.475825 6.724491
-33.331203 7.383241 -1.789157
-33.408329 7.412559 -0.597326
-33.978497 7.545288 9.326285
-7.703744 1.720579 -2.115069
-33.273697 7.437551 0.595127
-9.303284 2.081234 -2.200921
-11.661616 2.610954 -2.322909
-33.329056 7.468248 2.988222
-15.562652 3.490072 -2.526104
-33.301231 7.474221 4.190599
-22.314224 5.012358 -2.808114
-33.621323 7.558392 5.457999
-32.876740 7.391003 -2.948130
-33.187672 7.466988 6.612296
-32.814217 7.388988 -1.762780
-36.468098 8.218434 8.630472
-32.980408 7.438498 -0.590136
-33.386616 7.536248 9.170995
-7.701459 1.748315 -2.116105
-32.783428 7.448212 0.586820
-9.288361 2.111968 -2.199121
-38.974743 8.869150 2.094799
-11.621802 2.644675 -2.316803
-32.984184 7.511985 2.959635
-15.565784 3.547888 -2.528607
-32.864639 7.496826 4.138927
-21.940496 5.008924 -2.763266
-32.322422 7.385010 -2.900717
-32.686768 7.474257 6.517654
-32.328751 7.398330 -1.738077
-36.499977 8.359605 8.644869
-32.544918 7.459755 -0.582806
-33.036240 7.578449 9.081961
-7.676486 1.770843 -2.110928
-32.223358 7.439348 0.577256
-9.290425 2.146571 -2.201371
-11.620152 2.686993 -2.318329
-32.472492 7.514775 2.916057
-15.557152 3.603092 -2.529233
-32.292934 7.485098 4.070193
-21.609610 5.012812 -2.723780
-33.556190 7.790248 5.456122
-31.830664 7.389658 -2.858883
-32.232121 7.488795 6.432172
-31.808601 7.396238 -1.711491
-36.497147 8.493148 8.651167
-7.674020 1.798512 -2.111964
-31.788351 7.455891 0.569926
-9.280979 2.178541 -2.200921
-39.047977 9.173002 2.102126
-11.606878 2.726644 -2.317566
-31.961182 7.514085 2.872479
-15.494486 3.645609 -2.521098
-31.818321 7.492219 4.013645
-21.302156 5.019915 -2.687219
-33.574936 7.918209 5.463631
-31.347029 7.392786 -2.817745
-31.731911 7.489409 6.337530
-31.351078 7.405301 -1.688254
-36.493824 8.626781 8.657466
-31.899715 7.552528 8.783801
-7.667695 1.825289 -2.111964
-31.268042 7.449092 0.561060
-9.269526 2.210021 -2.200021
-39.019608 9.310177 2.102336
-11.601109 2.768054 -2.318329
-31.256498 7.463638 2.811470
-15.466294 3.696003 -2.518595
-31.313177 7.488734 3.953198
-21.052835 5.038791 -2.657971
-33.597034 8.047331 5.471765
-30.898634 7.400996 -2.779745
-31.239738 7.488465 6.244416
-30.882225 7.408456 -1.664388
-31.366222 7.530362 7.447230
-31.538818 7.583443 8.691661
-7.674421 1.855219 -2.115587
-30.794811 7.450044 0.553032
-9.242815 2.237781 -2.195522
-39.056747 9.463247 2.106104
-11.587561 2.807606 -2.317566
-30.815887 7.472223 2.774167
-15.457137 3.750900 -2.519221
-30.862461 7.494923 3.899575
-20.761209 5.045680 -2.623360
-33.664711 8.187901 5.487409
-30.450575 7.406161 -2.741745
-30.843344 7.507383 6.170382
-30.468073 7.421681 -1.643454
-30.877779 7.527190 7.337453
-33.366215 8.139975 -0.599490
-7.677279 1.884299 -2.118175
-30.384108 7.463056 0.546121
-9.246302 2.272819 -2.198222
-11.570064 2.846161 -2.316040
-30.410427 7.486405 2.740002
-15.455460 3.807665 -2.521098
-30.404379 7.496165 3.844978
-20.808998 5.134293 -2.631647
-33.616749 8.300629 5.484280
-30.045414 7.418797 -2.707580
-30.534870 7.545299 6.113902
-30.042574 7.429222 -1.621891
-30.435146 7.531937 7.238475
-33.364773 8.263118 -0.599979
-31.537613 7.816453 8.706155
-7.655658 1.907350 -2.114034
-29.989214 7.477148 0.539489
-9.228858 2.302723 -2.195972
-38.989731 9.735684 2.106104
-11.567677 2.888434 -2.317566
-29.997520 7.495903 2.705140
-15.453572 3.864467 -2.522975
-30.000587 7.507803 3.797205
-20.667709 5.176035 -2.616048
-33.606731 8.422717 5.487409
-29.041431 7.278534 -2.619379
-30.085598 7.545818 6.029183
-29.071119 7.296768 -1.570812
-29.981525 7.530832 7.136797
-33.358994 8.385390 -0.600398
-7.645208 1.933115 -2.112999
-29.551950 7.477791 0.532089
-9.233988 2.338272 -2.199121
-38.998108 9.882520 2.108407
-11.553719 2.927830 -2.316803
-29.569469 7.498699 2.668883
-15.397867 3.907698 -2.516092
-29.562458 7.507911 3.745045
-20.514841 5.213914 -2.598986
-33.626900 8.552636 5.495543
-29.035156 7.384776 -2.621122
-29.461660 7.498734 5.909355
-29.142246 7.422844 -1.576045
-29.550945 7.532443 7.040518
-33.364399 8.510682 -0.601026
-32.474350 8.289674 8.980504
-7.642156 1.960750 -2.114034
-29.080187 7.466522 0.524061
-9.210670 2.366609 -2.195522
-38.986584 10.024558 2.109663
-11.543427 2.968143 -2.316803
-29.195797 7.512501 2.637507
-15.384131 3.961426 -2.516092
-29.193901 7.522879 3.701660
-20.496515 5.285493 -2.598986
-29.075184 7.503118 4.755921
-28.804707 7.433319 -2.602645
-29.066534 7.506289 5.835321
-28.795160 7.441568 -1.558670
-29.139591 7.536014 6.948738
-28.816067 7.457703 -0.519558
-29.209854 7.565055 8.084990
-7.627788 1.985468 -2.111964
-28.686275 7.472207 0.517429
-9.198582 2.397765 -2.194623
-28.847775 7.525035 1.562438
-11.529198 3.007428 -2.316040
-28.799263 7.517742 2.604039
-15.354920 4.011105 -2.513589
-28.775671 7.522321 3.651937
-20.435692 5.345955 -2.593624
-28.704840 7.514508 4.699605
-28.447067 7.447027 -2.572663
-28.686911 7.515164 5.764340
-28.398066 7.444800 -1.538573
-28.717268 7.533831 6.854259
-28.449448 7.468876 -0.513415
-28.858158 7.581566 7.994921
-7.617074 2.011094 -2.110928
-28.354546 7.491595 0.511914
-9.197692 2.431852 -2.196422
-28.442892 7.525551 1.541922
-11.499651 3.042630 -2.312224
-28.468533 7.537659 2.576498
-15.344643 4.065691 -2.514215
-28.380829 7.525039 3.605139
-20.420742 5.418275 -2.594111
-28.449327 7.553830 4.662061
-28.051170 7.448112 -2.539195
-28.573221 7.592065 5.746786
-28.024473 7.451496 -1.519732
-28.310387 7.532809 6.763379
-28.291803 7.533152 -0.511041
-28.622446 7.626540 7.936945
-7.606276 2.036671 -2.109893
-27.914869 7.479767 0.504444
-9.181618 2.461923 -2.194623
-28.024239 7.514308 1.520569
-11.485167 3.081736 -2.311460
-28.449743 7.639054 2.577195
-15.334173 4.120255 -2.514841
-27.947985 7.514786 3.553467
-20.405537 5.490556 -2.594599
-27.886194 7.503390 4.573832
-27.686399 7.454813 -2.508517
-27.643469 7.453603 -1.500472
-27.926441 7.535131 6.677897
-28.282112 7.631098 -0.511321
-7.599119 2.063212 -2.109893
-27.492365 7.464361 0.497254
-9.192208 2.497468 -2.199121
-27.662489 7.520911 1.502356
-11.470551 3.120780 -2.310697
-15.335674 4.175234 -2.517344
-27.562840 7.509319 3.507644
-20.391048 5.559238 -2.595086
-27.539671 7.513340 4.521269
-27.298866 7.452756 -2.475746
-28.585278 7.803955 5.759760
-27.267948 7.449436 -1.481422
-27.532867 7.526974 6.589716
-28.305452 7.743494 -0.512228
-27.668036 7.574307 7.686409
-7.594099 2.088911 -2.110410
-27.138384 7.470064 0.491320
-9.159010 2.522810 -2.193273
-27.297188 7.524020 1.483934
-11.456354 3.157755 -2.309934
-28.470072 7.852660 2.583819
-15.286734 4.219277 -2.511712
-27.195862 7.511420 3.464258
-20.360041 5.627210 -2.593624
-27.155346 7.510425 4.462450
-26.993637 7.465702 -2.450297
-28.520020 7.893222 5.752128
-26.872213 7.442225 -1.461325
-27.164640 7.528309 6.507834
-28.324495 7.855077 -0.513066
-27.257961 7.564424 7.579775
-7.596065 2.118003 -2.112999
-26.800114 7.477681 0.485666
-9.140764 2.552146 -2.191023
-26.901426 7.516078 1.463837
-11.467950 3.204068 -2.314513
-28.415627 7.944475 2.581379
-15.287129 4.276870 -2.514215
-26.836861 7.513189 3.421848
-20.302044 5.687531 -2.588749
-26.836048 7.523056 4.414268
-26.576054 7.450171 -2.414737
-28.541439 8.006516 5.762051
-26.534559 7.448529 -1.444368
-26.804243 7.529286 6.427752
-28.296902 7.953901 -0.513066
-26.956158 7.582104 7.503164
-7.590485 2.145029 -2.113516
-26.454428 7.480859 0.479871
-9.141174 2.586693 -2.193273
-26.536808 7.514160 1.445415
-11.441585 3.239798 -2.311460
-28.441397 8.058825 2.586260
-15.245500 4.322667 -2.509835
-26.482002 7.513619 3.379925
-20.278248 5.757280 -2.588261
-26.444788 7.513042 4.354198
-26.220236 7.449246 -2.384755
-28.539757 8.113605 5.767393
-26.185663 7.449296 -1.426783
-26.590366 7.569449 6.382761
-26.557957 7.570239 7.399637
-7.555094 2.163534 -2.105752
-26.097509 7.478410 0.473868
-9.126471 2.616973 -2.191923
-26.249323 7.531829 1.431179
-11.411335 3.274302 -2.307644
-28.447561 8.167953 2.589397
-15.234115 4.376945 -2.510461
-26.238121 7.543485 3.352138
-20.246578 5.824742 -2.586799
-26.110882 7.516772 4.303513
-25.887735 7.452533 -2.356866
-28.605589 8.240352 5.786474
-25.879307 7.459896 -1.411501
-26.241734 7.569321 6.305378
-26.197290 7.566414 7.306462
-7.554916 2.192046 -2.107822
-25.752462 7.476907 0.468074
-9.121023 2.649902 -2.192823
-25.939032 7.540893 1.415688
-11.407376 3.316308 -2.309170
-15.211159 4.427887 -2.509209
-25.960052 7.561748 3.319965
-20.241371 5.899820 -2.588749
-25.769688 7.516056 4.251576
-25.574657 7.459174 -2.330719
-29.583042 8.633871 5.990258
-25.531027 7.456119 -1.393916
-25.788675 7.536247 6.202800
-25.862936 7.567748 7.220534
-7.541659 2.216769 -2.106270
-25.426929 7.478731 0.462628
-9.100501 2.678423 -2.190123
-25.563856 7.528694 1.396637
-11.395732 3.356104 -2.309170
-29.471544 8.685126 2.688057
-15.188031 4.478723 -2.507958
-25.613640 7.557938 3.279017
-20.205421 5.965943 -2.586799
-25.440187 7.516410 4.201518
-25.227461 7.453559 -2.301435
-29.564020 8.740424 5.992548
-25.198412 7.454540 -1.377169
-25.418392 7.524442 6.120018
-33.448128 9.907784 -0.608914
-25.506672 7.560260 7.128395
-7.532023 2.242531 -2.105752
-25.117033 7.482940 0.457462
-9.078024 2.706274 -2.186974
-25.231192 7.526540 1.379890
-11.383946 3.395865 -2.309170
-29.456322 8.792508 2.689452
-15.149592 4.524924 -2.504203
-25.282787 7.556349 3.240019
-20.169260 6.031887 -2.584849
-25.129927 7.520212 4.154587
-24.899710 7.451319 -2.273893
-29.555899 8.850327 5.997127
-24.877598 7.454171 -1.361049
-25.100775 7.525816 6.049834
-25.782570 7.735139 -0.469854
-25.195183 7.563708 7.048678
-7.533397 2.271598 -2.108340
-24.826567 7.490849 0.452646
-9.079714 2.741328 -2.189673
-24.891212 7.519842 1.362724
-11.372023 3.435582 -2.309170
-29.429266 8.896423 2.689801
-15.111015 4.570919 -2.500449
-24.823065 7.513438 3.184446
-20.174681 6.110306 -2.588261
-24.816172 7.520809 4.107031
-24.610411 7.458451 -2.249838
-29.573675 8.968257 6.007049
-24.591505 7.462088 -1.346814
-24.817024 7.535257 5.987747
-32.080898 9.746921 -0.585249
-24.843323 7.552707 6.957574
-7.508793 2.292801 -2.103681
-24.501930 7.486312 0.447200
-9.058908 2.769587 -2.186974
-24.624166 7.533058 1.349535
-11.337435 3.468363 -2.304591
-29.451378 9.015427 2.694681
-15.106299 4.627110 -2.502326
-24.527180 7.517433 3.149835
-20.119066 6.170220 -2.583874
-24.514053 7.522778 4.061352
-24.287092 7.453129 -2.222646
-29.643536 9.102547 6.027657
-24.290384 7.463417 -1.331741
-24.749594 7.609241 5.977849
-32.084911 9.870599 -0.585947
-24.565704 7.562089 6.887175
-7.504435 2.320139 -2.104717
-24.181452 7.480788 0.441825
-9.071526 2.808105 -2.192373
-24.303913 7.527963 1.333416
-11.325259 3.507917 -2.304591
-15.112697 4.686831 -2.506080
-24.216402 7.514754 3.113275
-20.095510 6.239823 -2.583630
-24.197136 7.518036 4.013170
-24.009777 7.459824 -2.199636
-29.581583 9.196642 6.021551
-23.989561 7.462731 -1.316668
-24.741489 7.701373 5.982348
-32.088444 9.994437 -0.586645
-24.225616 7.550077 6.799176
-7.493012 2.343859 -2.103681
-23.938955 7.492836 0.437846
-9.036128 2.830018 -2.186074
-24.023432 7.528485 1.319390
-11.317309 3.546629 -2.305354
-29.522406 9.257416 2.706883
-15.070683 4.728642 -2.501700
-23.922409 7.510583 3.078664
-20.063345 6.302859 -2.582168
-23.908247 7.515306 3.969368
-23.718809 7.455758 -2.175233
-23.940012 7.529881 4.878223
-23.701775 7.459501 -1.302223
-24.730682 7.788060 5.985948
-32.085644 10.110400 -0.587204
-23.949873 7.551367 6.728778
-7.490311 2.371750 -2.105234
-23.687710 7.505083 0.433727
-9.026194 2.861543 -2.186074
-23.722862 7.525333 1.304317
-11.327317 3.593235 -2.309934
-29.489912 9.360413 2.706883
-15.054086 4.781220 -2.501700
-23.631186 7.509871 3.044540
-20.037439 6.371647 -2.581681
-23.640923 7.522052 3.929322
-23.464806 7.466015 -2.154315
-23.651680 7.530021 4.824797
-23.435808 7.465805 -1.289035
-24.699635 7.873156 5.985048
-32.114925 10.243007 -0.588390
-23.647308 7.546820 6.651132
-7.476467 2.396111 -2.103681
-23.459524 7.522997 0.430027
-9.012440 2.891842 -2.185175
-23.441629 7.526282 1.290291
-11.266105 3.617150 -2.300012
-29.468439 9.466952 2.707929
-15.037305 4.833740 -2.501700
-23.389397 7.523023 3.016754
-19.984840 6.431822 -2.577780
-23.351280 7.519758 3.885520
-23.192060 7.468485 -2.131655
-23.378588 7.533062 4.774423
-23.166290 7.469112 -1.275637
-24.794407 7.998814 6.014741
-32.078976 10.355048 -0.588390
-23.473757 7.581813 6.609721
-7.458869 2.419216 -2.101093
-23.216288 7.534471 0.426048
-8.994877 2.920875 -2.183375
-23.198669 7.537704 1.278358
-11.260878 3.658881 -2.301538
-29.457952 9.577152 2.710021
-15.020341 4.886198 -2.501700
-23.219534 7.557927 2.998230
-19.958492 6.500314 -2.577293
-23.103264 7.529006 3.848601
-22.908215 7.465443 -2.107949
-23.113237 7.536713 4.725576
-22.916023 7.476830 -1.263285
-25.351727 8.276432 6.156910
-32.092060 10.483099 -0.589298
-23.245157 7.597686 6.552781
-7.439365 2.441623 -2.097987
-22.961864 7.540591 0.421860
-8.992031 2.954691 -2.185175
-22.934469 7.536035 1.265170
-11.266687 3.704298 -2.305354
-29.450842 9.688632 2.712461
-14.969419 4.927485 -2.496068
-23.226950 7.650110 3.002617
-19.939453 6.571181 -2.577780
-22.811764 7.517771 3.804174
-22.647390 7.467988 -2.086334
-22.825773 7.531227 4.672150
-22.624268 7.469114 -1.248631
-25.378199 8.383207 6.170408
-23.375893 7.721784 -0.429713
-22.985050 7.597126 6.486523
-7.441798 2.471228 -2.101093
-22.708996 7.541069 0.417671
-8.971087 2.980804 -2.182475
-22.654058 7.531612 1.251144
-11.238787 3.738644 -2.302302
-29.484896 9.814029 2.718736
-14.941751 4.973352 -2.494191
-23.193920 7.724584 3.001642
-19.913784 6.636012 -2.577293
-22.545515 7.517380 3.764126
-22.413284 7.477637 -2.067160
-22.584641 7.534806 4.627882
-22.390978 7.474537 -1.237117
-32.103405 10.729188 -0.590834
-22.584639 7.552330 6.380925
-7.444551 2.499583 -2.104199
-22.432318 7.536232 0.413064
-8.956934 3.010862 -2.181576
-22.400463 7.534233 1.238583
-11.218884 3.773390 -2.300775
-14.875626 5.009092 -2.486057
-19.867926 6.697875 -2.574368
-22.302013 7.522794 3.727834
-22.156738 7.478098 -2.045894
-22.320101 7.533235 4.579034
-22.126326 7.472129 -1.223929
-25.364855 8.570728 6.181205
-32.107437 10.855277 -0.591602
-22.338539 7.556832 6.318809
-7.431682 2.525608 -2.103164
-22.201395 7.544999 0.409294
-8.942678 3.040852 -2.180676
-22.166039 7.541615 1.227069
-11.197542 3.811955 -2.299248
-29.460924 10.035049 2.722920
-14.808554 5.047009 -2.477922
-23.165733 7.895279 3.005054
-19.814363 6.756939 -2.570468
-22.028837 7.516395 3.686535
-21.896698 7.475568 -2.024279
-22.065681 7.537566 4.532477
-21.890898 7.482127 -1.212415
-25.362776 8.673722 6.188404
-32.088276 10.973751 -0.591951
-22.059788 7.548452 6.247374
-7.411859 2.547766 -2.100058
-21.958019 7.552177 0.405315
-8.946215 3.078681 -2.184275
-21.897842 7.535755 1.213671
-11.176744 3.848463 -2.297722
-29.501070 10.163787 2.729892
-14.656384 5.052319 -2.455396
-23.125380 7.976255 3.003592
-19.770699 6.823037 -2.568031
-21.789597 7.519775 3.650868
-21.663305 7.480429 -2.005105
-21.816563 7.537611 4.486683
-21.664557 7.489319 -1.201320
-25.365490 8.773675 6.196502
-32.080006 11.096160 -0.592509
-21.839788 7.558436 6.192504
-7.402920 2.573623 -2.100058
-21.687307 7.539587 0.400777
-8.921232 3.103209 -2.180676
-21.682775 7.546502 1.203204
-11.181783 3.893908 -2.301538
-29.499275 10.278504 2.733030
-14.512702 5.056696 -2.434120
-23.968546 8.356116 3.116687
-19.755465 6.891178 -2.569006
-21.595360 7.537206 3.622710
-21.415104 7.478491 -1.984536
-21.583855 7.537421 4.443942
-21.439743 7.491288 -1.190224
-25.373051 8.870599 6.205500
-32.090157 11.225241 -0.593417
-21.751280 7.612923 6.174905
-7.399813 2.600080 -2.101611
-21.472208 7.548923 0.397287
-8.906670 3.133037 -2.179776
-21.467905 7.555830 1.192737
-11.142881 3.921841 -2.296196
-29.465029 10.376272 2.733030
-14.331010 5.049552 -2.406588
-23.965443 8.448966 3.120099
-19.690104 6.945568 -2.563644
-21.419893 7.559951 3.597680
-21.206064 7.484482 -1.967454
-21.342672 7.536880 4.399674
-21.176184 7.482244 -1.177036
-25.397051 8.978607 6.218997
-32.107334 11.357185 -0.594464
-21.720932 7.687515 6.173870
-7.383410 2.623307 -2.099540
-21.234699 7.548805 0.393377
-8.884662 3.160192 -2.177076
-21.211838 7.549024 1.179967
-11.143921 3.965980 -2.299248
-21.192591 7.546336 1.968151
-14.201648 5.059772 -2.387816
-23.969458 8.544567 3.124486
-19.662001 7.012924 -2.563156
-21.214775 7.570932 3.567645
-20.980906 7.487471 -1.948977
-21.116552 7.540034 4.358459
-20.958092 7.487578 -1.166359
-25.347202 9.060639 6.214498
-32.112682 11.485355 -0.595302
-21.715788 7.771105 6.180081
-7.368753 2.647103 -2.097987
-21.020037 7.555243 0.389887
-8.879078 3.193164 -2.178426
-20.959841 7.541875 1.167406
-11.122620 4.002197 -2.297722
-20.956165 7.544683 1.948628
-14.027786 5.053079 -2.361535
-23.980574 8.642994 3.129849
-19.622459 7.076128 -2.561206
-20.991255 7.573874 3.534481
-20.755983 7.488986 -1.930500
-20.905439 7.547035 4.320297
-20.747736 7.494195 -1.156101
-20.902222 7.554120 5.131134
-20.691444 7.482028 -0.384058
-20.907389 7.564240 5.957497
-7.350390 2.669512 -2.095399
-20.745443 7.538426 0.385279
-8.862383 3.222141 -2.177076
-20.749449 7.548076 1.157148
-11.079063 4.030257 -2.291616
-20.708778 7.537379 1.928059
-13.898695 5.061459 -2.342763
-20.701187 7.542795 2.705256
-19.593910 7.143220 -2.560719
-20.753130 7.569933 3.498814
-20.523821 7.486290 -1.911325
-20.687166 7.549963 4.280610
-20.530090 7.496697 -1.145425
-20.773224 7.589588 5.105939
-20.529974 7.504777 -0.381545
-20.721197 7.578779 5.911945
-7.350094 2.698482 -2.097987
-20.471231 7.519781 0.380672
-8.865715 3.258433 -2.180676
-20.531771 7.550154 1.146472
-11.064926 4.068908 -2.291616
-20.532753 7.554583 1.914114
-13.736349 5.056712 -2.318359
-20.518255 7.557381 2.684782
-19.539055 7.200590 -2.556819
-20.485640 7.553484 3.458141
-20.336800 7.498604 -1.896335
-20.465443 7.550100 4.240158
-20.331415 7.504687 -1.135795
-20.501646 7.571582 5.045652
-20.353594 7.520947 -0.378752
-20.517042 7.585413 5.861217
-7.338818 2.723452 -2.097470
-20.223652 7.509054 0.376553
-8.837847 3.283253 -2.176626
-20.314335 7.550799 1.135795
-11.061696 4.111611 -2.293906
-20.285902 7.544256 1.893546
-13.585316 5.055030 -2.295832
-20.287113 7.552773 2.657971
-19.497059 7.262510 -2.554626
-20.211113 7.532511 3.416216
-20.105135 7.493014 -1.877160
-20.240295 7.547411 4.198943
-20.095514 7.497414 -1.124072
-20.274263 7.568140 4.996163
-20.143633 7.523382 -0.375331
-20.316715 7.592061 5.811523
-7.309371 2.741589 -2.091776
-20.025074 7.514964 0.373342
-8.811736 3.308605 -2.173027
-20.108366 7.554230 1.125746
-11.028900 4.143293 -2.290090
-20.095324 7.553332 1.878206
-13.460348 5.062095 -2.277686
-20.177021 7.592079 2.647002
-19.464157 7.327725 -2.553650
-19.985048 7.527814 3.382427
-19.918510 7.502751 -1.862170
-20.015417 7.543238 4.157728
-19.893553 7.501275 -1.114233
-20.050806 7.564574 4.947574
-20.070480 7.575992 -0.374459
-20.293703 7.664304 5.812558
-7.308788 2.770510 -2.094364
-19.830444 7.520998 0.370200
-8.809243 3.342798 -2.175277
-19.902620 7.556320 1.115698
-11.014370 4.181766 -2.290090
-19.890032 7.555516 1.861472
-13.346579 5.072554 -2.261417
-20.187504 7.676576 2.651877
-19.405062 7.382923 -2.549263
-19.774036 7.527249 3.351140
-19.700411 7.499223 -1.844216
-19.809166 7.544580 4.120330
-19.669413 7.495290 -1.103137
-19.845833 7.566478 4.903483
-20.045780 7.646718 -0.374494
-20.295704 7.746118 5.820841
-7.281032 2.789095 -2.089187
-19.613611 7.517179 0.366640
-8.799342 3.374227 -2.175727
-19.708300 7.561359 1.106277
-10.996039 4.218781 -2.289326
-19.673811 7.552066 1.843693
-13.350919 5.127610 -2.265171
-20.177263 7.753406 2.654071
-19.379175 7.450610 -2.549263
-19.592773 7.536656 3.324859
-19.484438 7.494984 -1.826436
-19.628799 7.554453 4.088274
-19.479113 7.500741 -1.093926
-19.662912 7.575458 4.864791
-20.054415 7.730315 -0.375157
-20.290173 7.825253 5.827053
-7.274856 2.815887 -2.090223
-19.411966 7.517715 0.363359
-8.789327 3.405626 -2.176177
-19.491838 7.556472 1.095601
-10.992229 4.261397 -2.291616
-19.476437 7.554410 1.827656
-13.296107 5.159889 -2.258914
-20.190784 7.839597 2.659433
-19.301239 7.498085 -2.542439
-19.382225 7.533439 3.293572
-19.279882 7.493660 -1.809702
-19.426653 7.554610 4.051639
-19.281569 7.502063 -1.084296
-19.462015 7.576183 4.821601
-20.008677 7.793009 -0.374808
-20.291534 7.907256 5.835334
-7.268579 2.842673 -2.091258
-19.214283 7.518392 0.360148
-8.746537 3.424206 -2.168528
-19.305410 7.561821 1.086599
-10.969975 4.296877 -2.290090
-19.320095 7.571462 1.815454
-13.266982 5.201941 -2.257037
-20.200258 7.924529 2.664308
-19.208424 7.539303 -2.533664
-19.197683 7.538954 3.266665
-19.079281 7.492457 -1.793316
-19.191854 7.540531 4.008134
-19.073101 7.497715 -1.074039
-19.246843 7.569898 4.774811
-20.040899 7.886237 -0.375925
-20.314138 7.997854 5.849828
-7.269393 2.872288 -2.094364
-19.027992 7.522188 0.357146
-8.730906 3.453285 -2.167628
-19.104326 7.560081 1.076760
-10.958561 4.336589 -2.290853
-19.123121 7.571374 1.799417
-13.180790 5.221305 -2.245461
-20.187233 8.000843 2.666258
-19.004845 7.536057 -2.510265
-19.053738 7.559299 3.246641
-18.901150 7.498762 -1.779023
-19.026735 7.552430 3.979131
-18.872330 7.494948 -1.064199
-19.050068 7.569390 4.732520
-20.078287 7.982001 -0.377147
-20.300457 8.074432 5.853970
-7.253941 2.895495 -2.092811
-18.845625 7.526264 0.354214
-8.720608 3.484464 -2.168078
-18.940584 7.571854 1.069014
-10.899605 4.357322 -2.281694
-18.900484 7.559655 1.780941
-13.083623 5.235725 -2.232007
-20.199730 8.087490 2.671620
-18.808887 7.534445 -2.487841
-18.968557 7.602247 3.236629
-18.734304 7.508363 -1.765775
-18.814394 7.544267 3.940206
-18.701464 7.502778 -1.056035
-18.871616 7.574864 4.694728
-20.059582 8.055761 -0.377321
-20.315172 8.162526 5.866393
-7.233039 2.916464 -2.089705
-18.652334 7.524676 0.351073
-8.708392 3.514882 -2.168078
-18.776995 7.582582 1.061269
-10.898892 4.401224 -2.284747
-18.722500 7.564382 1.766647
-13.065269 5.281361 -2.232007
-20.208181 8.172837 2.676495
-18.642620 7.543465 -2.469317
-18.938246 7.666927 3.236004
-18.530691 7.501933 -1.749041
-18.638727 7.549462 3.908913
-18.527079 7.508004 -1.047661
-18.678915 7.573325 4.653337
-20.072104 8.142275 -0.378089
-20.308035 8.242108 5.872604
-7.225117 2.941162 -2.090223
-18.475416 7.524634 0.348210
-8.698494 3.544476 -2.168528
-18.563099 7.567900 1.050592
-10.873329 4.432895 -2.282457
-18.516520 7.552685 1.749564
-13.029393 5.317194 -2.228878
-20.206697 8.250311 2.679907
-18.455788 7.539185 -2.447868
-18.912718 7.729687 3.236004
-18.350792 7.500026 -1.734399
-18.460949 7.548809 3.876857
-18.357893 7.510413 -1.039497
-18.476952 7.562886 4.609247
-20.080154 8.223186 -0.378752
-20.319920 8.325521 5.883993
-7.207660 2.963427 -2.088152
-18.297392 7.526698 0.345348
-8.689671 3.576301 -2.169428
-18.359274 7.559649 1.040544
-10.865050 4.473813 -2.283984
-18.364777 7.565663 1.737711
-12.996141 5.356621 -2.226376
-23.987604 9.891871 3.185909
-18.293568 7.547533 -2.429831
-18.896578 7.800181 3.237881
-18.162432 7.497139 -1.719060
-18.292944 7.554754 3.847091
-18.154356 7.501228 -1.029448
-18.320774 7.573729 4.576854
-30.680321 12.689389 -0.579525
-21.354626 8.836644 6.192504
-7.195487 2.987827 -2.087634
-18.108500 7.523011 0.342277
-8.657340 3.598385 -2.164479
-18.185240 7.562336 1.032170
-10.852993 4.513220 -2.284747
-18.191095 7.568495 1.723766
-12.997425 5.410304 -2.229817
-24.022562 10.004544 3.195171
-18.094862 7.539574 -2.406920
-18.869234 7.866095 3.237881
-17.996389 7.502229 -1.705812
-18.139626 7.565662 3.820378
-17.976921 7.501479 -1.020865
-18.139570 7.573068 4.538163
-30.650600 12.802573 -0.579804
-21.377129 8.933475 6.208034
-7.192140 3.015914 -2.089705
-17.938297 7.525834 0.339554
-8.651915 3.631598 -2.166279
-18.015097 7.565450 1.024005
-10.811831 4.540435 -2.279404
-18.013941 7.568663 1.709473
-12.951144 5.444162 -2.225124
-22.670004 9.534246 3.019679
-17.918398 7.539560 -2.386933
-18.852581 7.936516 3.239758
-17.841549 7.510894 -1.693610
-18.011786 7.586257 3.799007
-17.807064 7.503690 -1.012701
-17.965776 7.574267 4.501270
-30.664690 12.934350 -0.580921
-18.045961 7.615487 5.248333
-7.158442 3.031209 -2.082976
-17.779346 7.532236 0.337041
-8.639184 3.661779 -2.166279
-17.842798 7.562795 1.015632
-10.799532 4.579680 -2.280168
-17.837013 7.567684 1.695179
-12.928425 5.487790 -2.224498
-17.761744 7.543070 -2.369384
-19.778835 8.403760 3.403702
-17.661201 7.507649 -1.678968
-17.876795 7.602982 3.776110
-17.648441 7.509505 -1.005165
-17.798901 7.573526 4.465728
