# This PCD file was generated using the MATLAB® pcwrite function
# from Computer Vision Toolbox®.
# .PCD v.7 - Point Cloud Data file format
VERSION .7
FIELDS x y z
SIZE 4 4 4
TYPE F F F
COUNT 1 1 1
WIDTH 1717
HEIGHT 1
VIEWPOINT 0 0 0 1 0 0 0
POINTS 1717
DATA ascii
5.552983 7.750612 0.166426
3.696329 5.157269 -1.464881
9.710579 13.548594 0.873592
3.930678 5.482227 -1.311239
9.683484 13.500850 1.453583
4.688138 6.533854 -1.273690
7.606184 10.596838 1.601607
5.672159 7.899468 -1.194076
5.563747 7.748486 1.510844
5.559563 7.739799 -0.833732
5.590720 7.780316 1.862296
5.564199 7.740557 -0.499599
5.569152 7.744589 2.202271
5.567672 7.742530 -0.166461
5.577503 7.753354 2.559203
3.299418 4.573074 -1.510986
5.590357 7.748371 0.166775
3.724815 5.160786 -1.469380
9.707536 13.444987 0.869091
3.946343 5.463697 -1.310095
9.676880 13.392676 1.445565
4.706308 6.513469 -1.272751
7.613378 10.532944 1.595757
5.706469 7.891874 -1.195782
5.602341 7.745022 1.513973
5.597057 7.734875 -0.835301
5.645264 7.801495 1.871836
5.606235 7.744711 -0.501064
5.610804 7.748176 2.208570
5.604048 7.736005 -0.166740
5.622673 7.758864 2.567485
3.317971 4.566797 -1.512539
5.636179 7.754692 0.167334
3.755411 5.165090 -1.474329
9.720336 13.364181 0.866055
3.963284 5.448994 -1.309713
9.702480 13.334738 1.442776
4.731339 6.500196 -1.273377
7.619716 10.464581 1.589420
5.756190 7.902391 -1.200413
5.643300 7.744577 1.517727
5.640275 7.740426 -0.837915
5.687499 7.802364 1.876797
5.652066 7.750914 -0.502739
5.659636 7.758459 2.217118
5.645165 7.735778 -0.167159
5.657697 7.750110 2.571108
3.324763 4.542717 -1.508397
5.670303 7.744649 0.167543
3.781480 5.162954 -1.477479
9.768104 13.331782 0.866160
3.979959 5.431959 -1.308950
9.770172 13.329711 1.445914
4.744658 6.470896 -1.270874
7.618624 10.386701 1.581620
5.790784 7.891855 -1.201876
5.685497 7.745532 1.521795
5.674335 7.730326 -0.838961
5.719342 7.788798 1.878324
5.692091 7.748844 -0.503891
5.695917 7.751216 2.220717
5.695820 7.748250 -0.167857
5.704171 7.756773 2.579908
3.345187 4.537302 -1.510468
5.711544 7.744123 0.167962
3.796007 5.145019 -1.476129
9.742236 13.199577 0.859775
3.994234 5.411714 -1.307423
9.842674 13.330790 1.449749
4.758999 6.443173 -1.268684
7.615908 10.307355 1.573577
5.819479 7.873188 -1.202119
5.726592 7.744700 1.525549
5.719051 7.734503 -0.841576
5.758172 7.784568 1.882140
5.734551 7.749798 -0.505251
5.744966 7.761047 2.229265
5.741871 7.754036 -0.168416
5.753063 7.766308 2.589743
3.351791 4.513189 -1.506327
5.764776 7.759454 0.168730
3.810457 5.127044 -1.474779
9.891930 13.304932 0.868882
4.010758 5.394587 -1.306660
9.912927 13.328328 1.453235
4.779104 6.423350 -1.268058
7.628139 10.248857 1.568702
5.854033 7.862384 -1.203582
5.777192 7.756346 1.531806
5.762679 7.736862 -0.844016
5.798216 7.781737 1.886338
5.772306 7.744150 -0.506193
5.782508 7.755005 2.233314
5.780861 7.749973 -0.168765
5.791685 7.761665 2.594920
3.376782 4.513838 -1.510468
5.803810 7.755292 0.169079
3.829500 5.115271 -1.475229
9.973027 13.316682 0.871917
4.022502 5.371126 -1.304370
9.713305 12.965167 1.417327
4.796760 6.400306 -1.266806
7.643622 10.195168 1.564559
5.893355 7.857780 -1.206019
5.812532 7.747192 1.533997
5.811176 7.745384 -0.847154
5.844198 7.786574 1.892444
5.813694 7.743117 -0.507449
5.820078 7.748795 2.237363
5.817486 7.742537 -0.169044
5.839639 7.769197 2.604237
3.387868 4.495851 -1.508397
5.846493 7.755746 0.169533
3.848502 5.103431 -1.475679
4.038863 5.353917 -1.303607
9.679291 12.826221 1.405822
4.817878 6.381949 -1.266494
7.679166 10.168423 1.564559
5.919553 7.835575 -1.205775
5.856208 7.748922 1.538377
5.851386 7.742541 -0.849071
5.890288 7.791182 1.898550
5.852737 7.738705 -0.508496
5.864722 7.751748 2.244112
5.864995 7.749289 -0.169637
5.873721 7.758005 2.607343
3.396530 4.474768 -1.505292
5.881997 7.746438 0.169777
3.875724 5.102380 -1.479278
4.057524 5.339788 -1.303607
9.687836 12.744769 1.400593
4.837736 6.361946 -1.265868
7.671341 10.084683 1.555784
5.944462 7.811706 -1.205288
5.901171 7.752008 1.543070
5.883205 7.728408 -0.849768
5.924581 7.779950 1.900839
5.902709 7.748416 -0.510485
5.905921 7.749826 2.249511
5.902922 7.743080 -0.169952
5.915993 7.757425 2.614072
3.414476 4.465952 -1.506327
5.923582 7.744917 0.170196
3.874564 5.064057 -1.472080
4.083299 5.334945 -1.305897
9.691085 12.657086 1.394666
4.853907 6.337181 -1.264304
7.670278 10.010571 1.548472
5.988603 7.812964 -1.208700
5.941415 7.748607 1.546511
5.928331 7.731543 -0.852383
5.976796 7.791933 1.908853
5.935802 7.735686 -0.511008
5.954294 7.756989 2.257609
5.954268 7.754153 -0.170650
5.958337 7.756642 2.620802
3.427689 4.450944 -1.505292
5.972541 7.752711 0.170824
3.896976 5.056675 -1.473879
4.104295 5.323768 -1.306660
9.693830 12.569545 1.388740
4.871173 6.313941 -1.263052
7.676070 9.946017 1.542622
6.030391 7.810872 -1.211625
5.987597 7.755444 1.551830
5.973552 7.734453 -0.854998
6.024365 7.797431 1.915341
5.983530 7.741785 -0.512788
5.993258 7.751574 2.262108
5.999520 7.759674 -0.171208
6.007663 7.767404 2.631155
3.447940 4.445059 -1.507362
6.012927 7.751822 0.171243
3.910139 5.039106 -1.472530
4.118037 5.303207 -1.305134
9.713204 12.504160 1.385253
4.889659 6.294635 -1.262426
8.873465 11.419004 1.775636
6.034331 7.762619 -1.207238
6.027974 7.751647 1.555272
6.018866 7.737141 -0.857612
6.062246 7.792905 1.919157
6.031247 7.750273 -0.514672
6.038081 7.756261 2.269306
6.036402 7.751305 -0.171487
6.056109 7.773819 2.640472
3.456715 4.425989 -1.504774
6.064574 7.762300 0.171941
3.938504 5.039246 -1.476579
4.140436 5.295710 -1.306660
9.732526 12.443629 1.382116
4.904297 6.268195 -1.260549
8.885126 11.352010 1.770030
6.076080 7.760262 -1.210163
6.073268 7.753884 1.559965
6.062918 7.740669 -0.860227
6.108784 7.796424 1.925263
6.079211 7.755894 -0.516451
6.084360 7.759672 2.276505
6.078230 7.749069 -0.171906
6.092750 7.764789 2.644613
3.468561 4.409340 -1.503221
6.095341 7.745799 0.172046
3.946428 5.013216 -1.472980
4.151610 5.271969 -1.304370
4.918813 6.241726 -1.258672
8.884140 11.269483 1.761987
6.100671 7.735890 -1.209675
6.112531 7.748147 1.563093
6.107176 7.741359 -0.862668
6.143257 7.784301 1.927553
6.119859 7.751871 -0.517603
6.128316 7.759798 2.282803
6.123835 7.751342 -0.172430
6.135391 7.763176 2.651342
3.479132 4.391149 -1.501150
6.137249 7.743279 0.172465
3.959062 4.993302 -1.471180
4.172426 5.260522 -1.305134
4.935659 6.218328 -1.257420
8.888858 11.194874 1.755162
6.115292 7.699001 -1.207238
6.159204 7.751506 1.568099
6.153994 7.744950 -0.865457
6.191158 7.788938 1.934040
6.159314 7.746093 -0.518649
6.175990 7.764284 2.290452
6.172021 7.756522 -0.173023
6.180497 7.764385 2.659107
3.502875 4.389547 -1.504774
6.185448 7.748378 0.173058
3.967955 4.968793 -1.468031
4.193215 5.248992 -1.305897
4.959802 6.204150 -1.258046
8.888210 11.114166 1.747363
6.112366 7.640407 -1.201388
6.208440 7.757723 1.573731
6.203398 7.751423 -0.868594
6.242850 7.797930 1.941672
6.201295 7.743254 -0.519905
6.217675 7.760930 2.295851
6.214068 7.753654 -0.173442
6.229312 7.769896 2.668424
3.512124 4.369765 -1.502186
6.237515 7.757909 0.173756
3.987719 4.957948 -1.468930
4.196745 5.215966 -1.301317
4.982668 6.188335 -1.258359
8.889599 11.036692 1.740051
6.126542 7.603568 -1.198951
6.252838 7.757534 1.578111
6.247925 7.751438 -0.871035
6.294681 7.806656 1.949305
6.244586 7.741771 -0.521266
6.261862 7.760410 2.302149
6.249889 7.742806 -0.173686
6.272172 7.767645 2.675154
3.523710 4.352973 -1.500633
6.289729 7.767169 0.174454
4.007451 4.947029 -1.469830
4.213689 5.199761 -1.300936
13.931766 17.185892 1.935555
4.990549 6.154031 -1.254917
8.894301 10.963972 1.733470
6.125529 7.548224 -1.193588
6.293573 7.752532 1.581553
6.279966 7.735770 -0.871732
6.335505 7.801402 1.953503
6.294242 7.747828 -0.523150
6.307351 7.761188 2.308898
6.294537 7.742666 -0.174175
6.312658 7.762189 2.680848
3.540105 4.342143 -1.501150
6.321856 7.751366 0.174594
4.027160 4.936029 -1.470730
26.911694 32.973473 2.230559
4.233057 5.186541 -1.301317
13.981587 17.124813 1.934160
5.000756 6.122803 -1.252102
8.898610 10.891351 1.726889
6.141788 7.514502 -1.191639
6.340600 7.754985 1.586558
6.328367 7.740025 -0.874695
6.378859 7.798993 1.958464
6.349072 7.759819 -0.525453
6.346741 7.754208 2.313397
6.344331 7.748496 -0.174803
6.360526 7.765511 2.689647
3.550334 4.323790 -1.499080
6.366647 7.750883 0.175083
4.036943 4.912907 -1.468031
27.003777 32.851582 2.228675
4.253625 5.174769 -1.302081
5.023354 6.106834 -1.252414
8.891158 10.805045 1.718114
6.170506 7.496080 -1.192126
6.390236 7.760252 1.592190
6.375613 7.742494 -0.877484
6.412279 7.784259 1.960372
6.388824 7.753020 -0.526500
6.398563 7.762078 2.322395
6.395507 7.755621 -0.175467
6.404804 7.764126 2.696894
3.570331 4.317324 -1.501150
6.416610 7.756344 0.175711
4.041643 4.883773 -1.463532
27.103010 32.738651 2.227418
4.270412 5.158377 -1.301699
5.037077 6.080136 -1.250537
8.916157 10.758657 1.715677
6.181434 7.456155 -1.189201
6.429894 7.753106 1.595319
6.421678 7.743198 -0.880099
6.468246 7.796580 1.969149
6.426054 7.742966 -0.527337
6.435575 7.751692 2.325994
6.437873 7.751707 -0.175885
6.457794 7.772925 2.707765
3.581669 4.300383 -1.499598
6.455161 7.747730 0.176025
4.063658 4.875622 -1.465331
27.293873 32.735874 2.233699
4.289651 5.144945 -1.302081
15.038134 18.030138 2.054086
5.064600 6.070099 -1.252102
6.717471 8.048266 1.287184
6.197240 7.422346 -1.187251
6.472116 7.748804 1.599073
6.469104 7.745199 -0.882888
6.519341 7.802577 1.976400
6.469689 7.740414 -0.528698
6.485097 7.756090 2.334092
6.481573 7.749125 -0.176339
6.496038 7.763675 2.712424
3.586728 4.276012 -1.495457
6.502734 7.749658 0.176583
4.083157 4.864393 -1.466231
4.323995 5.149487 -1.307042
5.075590 6.040286 -1.249599
6.765959 8.049084 1.291084
6.215447 7.391551 -1.185789
6.519473 7.750351 1.604079
6.512775 7.742389 -0.885154
6.570553 7.808316 1.983650
6.515965 7.740702 -0.530268
6.539748 7.766196 2.343990
6.520176 7.740220 -0.176653
6.539285 7.760155 2.719153
3.601633 4.263465 -1.495457
6.543942 7.743715 0.176967
4.098853 4.848624 -1.465781
4.343213 5.135859 -1.307423
14.988637 17.717844 2.030380
5.088986 6.013485 -1.247721
6.814538 8.049657 1.294984
6.238644 7.366782 -1.185301
6.569465 7.754681 1.609711
6.557787 7.740897 -0.887594
6.602848 7.791322 1.985177
6.568774 7.748380 -0.532361
6.580677 7.759675 2.348939
6.570443 7.744859 -0.177282
6.588836 7.763793 2.728471
3.621500 4.256753 -1.497527
6.600744 7.755848 0.177770
4.117017 4.835769 -1.466231
4.377661 5.140099 -1.312384
5.104822 5.989670 -1.246470
6.859336 8.045460 1.298152
6.264322 7.344958 -1.185301
6.615655 7.756899 1.614717
6.608047 7.745239 -0.890732
6.651670 7.793614 1.991664
6.619125 7.752742 -0.534245
6.644428 7.779628 2.361986
6.625958 7.758003 -0.178084
6.638386 7.769808 2.738306
3.632565 4.239686 -1.495974
6.645942 7.756697 0.178294
4.131763 4.820610 -1.465781
4.412192 5.144160 -1.317345
6.922862 8.068484 0.930126
5.122085 5.969708 -1.245844
6.904078 8.043758 1.301565
6.278297 7.312097 -1.183351
6.667150 7.762229 1.620661
6.657115 7.747817 -0.893695
6.712021 7.811719 2.001968
6.663027 7.751953 -0.535711
6.690520 7.781192 2.369184
6.676468 7.762117 -0.178713
6.691930 7.777339 2.749176
3.644082 4.224690 -1.494939
6.695184 7.759190 0.178887
4.153658 4.812059 -1.467581
6.935134 8.031595 0.556122
4.431794 5.132471 -1.318109
6.949578 8.045485 0.930126
5.145474 5.954783 -1.246470
6.951587 8.042134 1.305221
6.295996 7.281126 -1.181889
6.709710 7.756838 1.624416
6.714106 7.759183 -0.897704
6.755951 7.807541 2.006929
6.720109 7.763382 -0.538118
6.732946 7.775470 2.374583
6.721854 7.759923 -0.179201
6.736747 7.774373 2.756423
3.651938 4.202557 -1.491833
6.737969 7.753883 0.179306
4.172986 4.800473 -1.468480
6.969678 8.014875 0.556645
4.466036 5.133969 -1.322688
14.266704 16.394630 1.901390
5.160779 5.928435 -1.244906
7.008290 8.050761 1.310583
6.313550 7.250124 -1.180427
6.753615 7.752731 1.628483
6.746388 7.741706 -0.898401
6.800001 7.800487 2.011509
6.761646 7.753750 -0.539165
6.788303 7.781576 2.384031
6.765992 7.756000 -0.179655
6.776544 7.765367 2.761599
3.670403 4.194144 -1.493386
6.776880 7.741174 0.179585
4.182850 4.776349 -1.465781
4.502043 5.139022 -1.328031
14.476167 16.518547 1.921610
5.164514 5.891073 -1.240838
7.058694 8.048899 1.314483
6.345314 7.232905 -1.181401
6.809290 7.761783 1.635366
6.799652 7.748061 -0.901888
6.845324 7.797357 2.016851
6.811071 7.755617 -0.540945
6.845006 7.791507 2.394379
6.810180 7.751866 -0.180109
6.818914 7.759077 2.767811
3.670969 4.165364 -1.487692
6.828958 7.748661 0.180283
4.196088 4.759529 -1.464881
4.538137 5.143887 -1.333373
14.649759 16.599369 1.936949
5.185327 5.875397 -1.241151
7.093232 8.034374 1.315945
6.364011 7.205871 -1.180427
6.859887 7.764612 1.640998
6.843811 7.743684 -0.904154
6.899747 7.806975 2.025247
6.856597 7.755431 -0.542515
6.887587 7.787744 2.400228
6.861050 7.755003 -0.180737
6.894608 7.790202 2.787481
3.697582 4.167620 -1.492868
6.878532 7.750199 0.180877
4.201033 4.731737 -1.460832
9.721726 10.946004 0.767245
4.573421 5.149361 -1.338716
9.726400 10.947407 1.281189
5.207119 5.858736 -1.241464
7.144970 8.036273 1.320333
6.378573 7.171743 -1.178477
6.907959 7.764229 1.646004
6.891966 7.746253 -0.907117
6.946530 7.804845 2.030971
6.902223 7.752331 -0.543980
6.927693 7.778205 2.404727
6.914678 7.760872 -0.181435
6.926903 7.771854 2.789552
3.709535 4.151805 -1.491833
6.936188 7.760439 0.181680
4.230512 4.731572 -1.465331
9.759878 10.911999 0.767245
4.591369 5.133364 -1.338716
5.232806 5.846413 -1.242715
7.200788 8.042339 1.325451
6.400921 7.146475 -1.177989
6.954791 7.762139 1.650697
6.938904 7.744408 -0.909732
6.985528 7.793706 2.034406
6.950577 7.751982 -0.545655
6.982125 7.784441 2.414175
6.969773 7.767942 -0.182168
6.977218 7.773503 2.798869
3.713666 4.127343 -1.487692
6.984642 7.759959 0.182238
4.228749 4.696500 -1.459033
4.615828 5.124601 -1.340624
15.145329 16.808800 1.979481
5.242603 5.816372 -1.240213
7.250085 8.040745 1.329351
6.423164 7.121145 -1.177502
6.995079 7.752479 1.653825
6.983248 7.739367 -0.911998
7.041632 7.801335 2.042801
7.013728 7.767702 -0.548481
7.027544 7.780266 2.420473
7.010254 7.758401 -0.182517
7.023737 7.770604 2.806634
3.730646 4.117217 -1.488727
7.025118 7.750344 0.182587
4.258204 4.696149 -1.463532
4.646880 5.122998 -1.344440
15.327087 16.891573 1.995518
5.257559 5.792190 -1.238961
7.302129 8.041839 1.333738
6.439976 7.089862 -1.176039
7.051318 7.760183 1.660708
7.027635 7.734119 -0.914264
7.085986 7.795596 2.047762
7.052895 7.756470 -0.549423
7.073015 7.775871 2.426772
7.057479 7.756071 -0.183041
7.065125 7.761752 2.812328
3.742392 4.101314 -1.487692
7.079090 7.755315 0.183285
4.250918 4.655353 -1.455433
4.689893 5.134286 -1.351691
5.275082 5.770884 -1.238335
7.355610 8.044133 1.338369
6.459324 7.061481 -1.175064
7.106347 7.768822 1.667592
7.088216 7.746286 -0.918622
7.133040 7.792533 2.053486
7.100158 7.753901 -0.550993
7.123807 7.777002 2.434870
7.110174 7.762118 -0.183739
7.122150 7.772462 2.824751
3.750147 4.081116 -1.485104
7.126416 7.755357 0.183844
4.271609 4.646968 -1.457233
4.719745 5.130891 -1.355126
5.294191 5.753358 -1.238335
7.406444 8.045988 1.342757
6.471950 7.028339 -1.173114
7.149484 7.761402 1.671346
7.142217 7.750798 -0.922108
7.182788 7.794826 2.060356
7.148846 7.755275 -0.552772
7.166734 7.771958 2.440719
7.161632 7.763707 -0.184367
7.179369 7.780209 2.836657
3.763661 4.068657 -1.485104
7.183325 7.762722 0.184612
4.287803 4.632030 -1.457233
4.752742 5.132497 -1.359705
5.306188 5.726148 -1.236458
7.458774 8.046292 1.347144
6.485645 6.994062 -1.171165
7.203403 7.765360 1.677603
7.192272 7.753361 -0.925245
7.229982 7.791293 2.066080
7.201689 7.758087 -0.554761
7.209734 7.764028 2.446118
7.205019 7.756243 -0.184786
7.232783 7.783406 2.847010
3.777842 4.055493 -1.485104
7.232189 7.761010 0.185170
4.306605 4.619884 -1.458133
9.785523 10.493689 0.751963
4.790714 5.137411 -1.365429
5.326142 5.707592 -1.236458
7.513909 8.049228 1.352019
6.518146 6.980086 -1.172627
7.249342 7.760379 1.681984
7.236972 7.747137 -0.927511
7.277245 7.787523 2.071804
7.258734 7.764998 -0.557064
7.267404 7.771553 2.456465
7.262106 7.763171 -0.185554
7.274429 7.773625 2.852704
3.784044 4.033829 -1.481998
7.278395 7.756130 0.185659
4.317369 4.599141 -1.456333
9.761935 10.395408 0.747358
4.823400 5.136401 -1.369627
5.337915 5.680329 -1.234581
7.571871 8.054770 1.357381
6.534315 6.948613 -1.171165
7.300747 7.760927 1.687615
7.284432 7.740875 -0.929952
7.333982 7.793530 2.080200
7.300852 7.755611 -0.558215
7.322541 7.775932 2.465914
7.311097 7.761065 -0.186112
7.317417 7.765059 2.858915
3.810746 4.032568 -1.486657
7.327402 7.753929 0.186217
4.328041 4.578379 -1.454533
9.756995 10.317731 0.744217
4.859735 5.137228 -1.374588
15.871931 16.772379 2.020270
5.345120 5.646380 -1.231452
7.619049 8.048471 1.360793
6.558532 6.925760 -1.171165
7.352246 7.761211 1.693247
7.345672 7.751554 -0.934310
7.367901 7.772294 2.081726
7.351216 7.751990 -0.559890
7.385864 7.785799 2.477611
7.358789 7.757257 -0.186636
7.375065 7.771697 2.870821
3.816807 4.010846 -1.483551
7.379210 7.751645 0.186811
4.334043 4.551194 -1.450934
9.735102 10.222866 0.739821
4.885761 5.128763 -1.376878
5.370248 5.633409 -1.232704
9.023936 9.462832 1.605507
6.572908 6.890186 -1.169215
7.412019 7.769801 1.700756
7.394692 7.748929 -0.937099
7.419387 7.772090 2.088595
7.403062 7.752280 -0.561774
7.427806 7.775467 2.482560
7.414832 7.761886 -0.187369
7.436848 7.782220 2.884279
3.832122 3.998892 -1.484068
7.436699 7.760336 0.187613
4.357202 4.545238 -1.453634
9.720959 10.136928 0.736053
4.918585 5.127260 -1.381076
5.383430 5.609866 -1.231452
9.027770 9.404217 1.600632
6.584723 6.856895 -1.167265
7.458256 7.763823 1.705136
7.457588 7.760423 -0.941631
7.476405 7.780005 2.097373
7.452261 7.752164 -0.563554
7.479213 7.777483 2.491108
7.458511 7.753255 -0.187788
7.486742 7.779876 2.893079
3.845361 3.986163 -1.484068
7.491510 7.763114 0.188311
4.364922 4.521588 -1.450934
9.731313 10.077070 0.734169
4.953290 5.129282 -1.386037
5.402978 5.591042 -1.231452
9.049508 9.361227 1.598682
6.603093 6.828165 -1.166290
7.511406 7.764718 1.711080
7.499907 7.752831 -0.943722
7.526729 7.777842 2.103860
7.515397 7.763411 -0.566275
7.536139 7.782128 2.501006
7.514750 7.757331 -0.188521
7.532678 7.773115 2.900326
3.848483 3.961631 -1.479927
7.540862 7.759860 0.188870
4.391546 4.517501 -1.454533
9.727439 10.002950 0.731238
4.986218 5.127443 -1.390234
9.708241 9.979725 1.218089
5.416953 5.566483 -1.230201
9.076589 9.323894 1.597707
6.621350 6.799384 -1.165315
7.566033 7.766748 1.717338
7.556121 7.756572 -0.947383
7.564793 7.762771 2.106913
7.568934 7.764308 -0.568264
7.587749 7.780885 2.509104
7.571105 7.761115 -0.189254
7.588093 7.775814 2.911197
3.864991 3.950934 -1.480963
7.590282 7.756356 0.189428
4.396379 4.491006 -1.450934
9.738544 9.944673 0.729459
5.023318 5.129643 -1.395577
9.715137 9.917308 1.214602
5.436347 5.547544 -1.230201
8.995131 9.175911 1.577721
6.645045 6.776227 -1.165315
7.617994 7.765679 1.722969
7.620817 7.768557 -0.952089
7.620722 7.765741 2.114927
7.616979 7.759218 -0.569834
7.633974 7.773822 2.515403
7.634588 7.771727 -0.190161
7.638211 7.772701 2.919997
3.885538 3.944299 -1.483551
7.639768 7.752604 0.189987
4.406558 4.470081 -1.449135
9.732532 9.869376 0.726423
5.054979 5.126055 -1.399393
9.716112 9.849296 1.210419
5.444580 5.517285 -1.227698
9.721609 9.847980 1.699103
6.657498 6.741693 -1.163365
7.674210 7.768549 1.729540
7.684295 7.778758 -0.956621
7.665725 7.757245 2.119888
7.660866 7.749629 -0.571090
7.692581 7.778996 2.525750
7.684173 7.767774 -0.190720
7.699266 7.780323 2.932938
3.888396 3.919743 -1.479410
7.703407 7.762792 0.190894
4.426253 4.458822 -1.450484
9.724394 9.795947 0.723388
5.068688 5.104203 -1.398248
9.730778 9.795528 1.207979
5.461022 5.495442 -1.227072
6.677018 6.716764 -1.162877
7.718039 7.761265 1.733607
7.735291 7.775898 -0.959585
7.732911 7.770801 2.130955
7.716053 7.751148 -0.573183
7.741709 7.776919 2.533399
7.731053 7.763505 -0.191243
7.755017 7.784860 2.944325
3.900009 3.905459 -1.478892
7.757371 7.765501 0.191593
4.443770 4.446875 -1.451384
9.738474 9.745277 0.722027
5.091140 5.092919 -1.399775
9.706852 9.706855 1.201006
5.477817 5.475907 -1.226759
9.010508 9.004221 1.564071
6.696448 6.691777 -1.162390
7.773080 7.764947 1.740177
7.797687 7.786809 -0.964117
7.789207 7.775627 2.139351
7.777057 7.760789 -0.575800
7.803319 7.786996 2.545096
7.787904 7.768894 -0.192011
7.808150 7.786380 2.954678
3.906090 3.885693 -1.476304
7.802932 7.759471 0.192081
4.452963 4.426620 -1.449585
9.739845 9.678846 0.719620
5.106607 5.074625 -1.399393
9.713548 9.649335 1.197868
5.476321 5.438226 -1.222379
9.062855 8.996671 1.567971
6.719768 6.668360 -1.162390
7.833794 7.771157 1.747686
7.855944 7.790410 -0.967952
7.835858 7.770492 2.145075
7.841050 7.772919 -0.578626
7.859520 7.788517 2.554544
7.843383 7.769813 -0.192709
7.847640 7.771309 2.959337
3.923055 3.874064 -1.477339
7.858426 7.760290 0.192779
4.454521 4.397357 -1.445086
9.740876 9.612519 0.717212
5.133560 5.064146 -1.401683
9.720474 9.585691 1.194382
5.508879 5.430597 -1.225195
9.122480 8.992850 1.572846
6.726036 6.628144 -1.159465
7.887612 7.770102 1.753631
7.924259 7.803478 -0.973007
7.888072 7.765132 2.151562
7.885143 7.759539 -0.579778
7.919967 7.791089 2.564892
7.896118 7.767627 -0.193338
7.907774 7.776379 2.971760
3.939312 3.863053 -1.478374
7.913950 7.758031 0.193442
4.473391 4.383730 -1.445985
9.747506 9.548802 0.715119
5.159619 5.054440 -1.403973
9.719714 9.518244 1.190199
5.519330 5.403044 -1.223318
9.172402 8.976017 1.575771
6.744609 6.597893 -1.158490
7.958405 7.782575 1.763017
7.984212 7.807812 -0.977016
7.950229 7.771858 2.161103
7.937895 7.757092 -0.581662
7.966629 7.782461 2.571191
7.957443 7.770767 -0.194141
7.980462 7.790525 2.988325
3.952772 3.849279 -1.478374
7.976803 7.765233 0.194315
4.484477 4.364010 -1.444636
9.766461 9.500795 0.714072
5.154714 5.014496 -1.397867
9.744308 9.475925 1.189153
5.536742 5.382367 -1.223005
9.254932 8.993746 1.584545
6.761902 6.568778 -1.157515
7.995445 7.764379 1.765207
8.031430 7.799325 -0.979456
8.008299 7.774146 2.169498
7.997889 7.761330 -0.584069
8.018926 7.779027 2.579289
8.011793 7.769395 -0.194804
8.035347 7.789514 2.998677
3.949521 3.819342 -1.472163
8.038363 7.770699 0.195153
4.506689 4.355102 -1.446885
9.765092 9.433339 0.711560
5.177835 5.001927 -1.399393
9.745796 9.411402 1.185318
5.555495 5.363008 -1.223005
9.303411 8.977929 1.587470
6.784791 6.545132 -1.157515
8.050936 7.763848 1.771464
8.087288 7.798904 -0.982942
8.077788 7.787022 2.180947
8.065203 7.772168 -0.587000
8.081120 7.784786 2.590536
8.070552 7.771898 -0.195572
8.084759 7.782853 3.006960
3.960043 3.802855 -1.471128
8.087077 7.763367 0.195676
4.516240 4.333945 -1.445086
5.198099 4.986539 -1.400156
5.561349 5.331279 -1.220189
9.274497 8.887711 1.577233
6.801859 6.515922 -1.156540
8.113657 7.769852 1.779286
8.144683 7.799562 -0.986603
8.120523 7.773710 2.185145
8.124024 7.774353 -0.589303
8.142038 7.788862 2.601334
8.117867 7.763025 -0.196060
8.134214 7.775949 3.015242
3.967700 3.783676 -1.469057
8.145971 7.765444 0.196444
4.520056 4.307398 -1.441486
5.215473 4.968365 -1.400156
5.599957 5.330901 -1.224569
9.328471 8.877180 1.581133
6.821688 6.489401 -1.156053
8.176519 7.775512 1.787108
8.206511 7.804034 -0.990786
8.174643 7.771019 2.192395
8.180070 7.773461 -0.591396
8.203088 7.792603 2.612132
8.184064 7.771822 -0.197003
8.193534 7.778097 3.027148
4.003327 3.791055 -1.477339
8.202074 7.764453 0.197142
4.532230 4.288918 -1.440587
5.232785 4.950128 -1.400156
5.605608 5.299112 -1.221753
9.408460 8.890918 1.589420
6.829870 6.451915 -1.153615
8.233766 7.775411 1.793678
8.262670 7.802705 -0.994273
8.241693 7.780169 2.203081
8.233303 7.769532 -0.593280
8.251496 7.783986 2.618880
8.247517 7.777503 -0.197875
8.255780 7.782575 3.040089
4.003868 3.765150 -1.472680
8.262637 7.767280 0.197945
4.550015 4.275739 -1.441486
5.238582 4.921082 -1.397104
5.625513 5.280863 -1.222066
9.850542 9.243800 1.658642
6.849453 6.425321 -1.153128
8.285355 7.769591 1.798997
8.323284 7.805159 -0.998282
8.296018 7.776863 2.210331
8.309923 7.787180 -0.596839
8.311331 7.785776 2.629228
8.303809 7.776002 -0.198573
8.319564 7.788037 3.053547
4.012752 3.747195 -1.471128
8.332093 7.777960 0.198957
4.570611 4.265150 -1.443286
5.255729 4.902765 -1.397104
5.635242 5.253113 -1.220189
9.894361 9.220193 1.660592
6.874746 6.404077 -1.153615
8.351456 7.776971 1.807444
8.376722 7.800500 -1.001419
8.361907 7.783979 2.220635
8.364837 7.783975 -0.598828
8.369850 7.785914 2.639126
8.354327 7.768764 -0.199132
8.373584 7.783937 3.063382
4.016659 3.725983 -1.468022
8.381298 7.772043 0.199516
4.579012 4.244672 -1.441486
5.274839 4.887977 -1.397867
5.652629 5.234398 -1.220189
9.942365 9.203510 1.663517
6.881374 6.367763 -1.151178
8.409102 7.778742 1.814327
8.434723 7.802441 -1.005254
8.410740 7.777532 2.226741
8.425802 7.788733 -0.601340
8.437127 7.796472 2.652173
8.421175 7.779006 -0.200109
8.431993 7.786273 3.075288
4.035325 3.717174 -1.470092
8.436324 7.768478 0.200179
4.592368 4.227341 -1.441036
5.291871 4.869533 -1.397867
9.293766 8.549055 1.104786
5.679593 5.222656 -1.222066
9.261244 8.513165 1.544572
6.900635 6.341019 -1.150690
8.462390 7.773397 1.819959
8.500055 7.807996 -1.009786
8.473990 7.781320 2.236281
8.472064 7.776834 -0.602701
8.490133 7.790691 2.660271
8.474805 7.773893 -0.200738
8.490443 7.785517 3.086676
4.051124 3.705676 -1.471128
8.512092 7.783512 0.201331
4.599905 4.204710 -1.438787
9.302084 8.502906 0.660480
5.305937 4.848384 -1.397104
9.288249 8.484310 1.100603
5.700707 5.205462 -1.222692
9.264511 8.456697 1.540185
6.909897 6.307393 -1.148741
8.533356 7.786565 1.829658
8.558172 7.806473 -1.013447
8.534465 7.782120 2.245059
8.522778 7.768739 -0.604376
8.536087 7.780870 2.666570
8.530098 7.772686 -0.201436
8.550493 7.788539 3.099099
4.060532 3.689622 -1.470092
8.573380 7.787512 0.202169
4.609494 4.185503 -1.437437
9.299177 8.443819 0.658282
5.313262 4.822846 -1.394814
9.292723 8.432043 1.097814
5.712084 5.181221 -1.221440
9.268972 8.404595 1.536285
6.924891 6.279111 -1.147766
8.573766 7.771493 1.832786
8.619449 7.810155 -1.017630
8.595145 7.785409 2.254218
8.592907 7.780653 -0.607516
8.608066 7.794378 2.680967
8.591409 7.776560 -0.202273
8.610651 7.791251 3.111523
4.064141 3.668369 -1.466986
8.637761 7.793868 0.203076
4.621901 4.168891 -1.436987
9.304864 8.389905 0.656607
5.329227 4.805198 -1.394814
9.283637 8.367829 1.093456
5.732168 5.164896 -1.222066
9.276145 8.355210 1.532873
6.949720 6.257555 -1.148253
8.641949 7.778522 1.841547
8.679241 7.809340 -1.021465
8.655944 7.788377 2.263376
8.642423 7.773482 -0.609191
8.662752 7.789042 2.689515
8.648245 7.773260 -0.202971
8.665101 7.785677 3.121358
4.068925 3.645715 -1.463881
8.693209 7.789024 0.203739
4.640781 4.156631 -1.438337
9.317722 8.342721 0.655456
5.340951 4.780397 -1.393287
9.290486 8.312493 1.090667
5.742227 5.135949 -1.220189
9.275661 8.296313 1.527998
6.968559 6.230613 -1.147766
8.702926 7.778584 1.848743
8.737647 7.806874 -1.025126
8.710786 7.780142 2.270246
8.703630 7.771020 -0.611493
8.733407 7.794868 2.702562
8.712622 7.776315 -0.203844
8.725378 7.784966 3.133264
4.096060 3.644329 -1.469057
8.753079 7.785016 0.204472
4.644332 4.129236 -1.434738
9.319920 8.286261 0.653571
5.357606 4.761723 -1.393287
9.191356 8.166204 1.075676
5.757165 5.113252 -1.219563
9.264441 8.225355 1.521173
6.985412 6.199759 -1.146791
8.772873 7.786182 1.857816
8.809555 7.815998 -1.030355
8.779018 7.786160 2.280931
8.751628 7.759139 -0.612959
8.797022 7.796650 2.713809
8.783112 7.784322 -0.204856
8.788651 7.786486 3.146204
4.097172 3.619779 -1.464916
8.828297 7.799644 0.205624
4.656541 4.112521 -1.434288
9.137677 8.067292 0.638813
5.374194 4.742994 -1.393287
9.201875 8.118256 1.073584
5.771128 5.091516 -1.218938
9.269335 8.174895 1.517517
6.991041 6.163433 -1.144353
8.823708 7.776410 1.862822
8.869675 7.814172 -1.034190
8.834251 7.782964 2.288563
8.825272 7.772318 -0.616308
8.850620 7.791900 2.722358
8.844758 7.783998 -0.205659
8.859292 7.794039 3.161734
4.103346 3.601075 -1.462845
8.881025 7.791197 0.206218
4.667938 4.093670 -1.433388
9.279922 8.135412 0.646768
5.375130 4.712205 -1.389471
9.296172 8.146791 1.081428
5.791839 5.073942 -1.219563
9.273918 8.121566 1.513617
7.003550 6.131148 -1.142891
8.895397 7.784587 1.872208
8.919531 7.805707 -1.036979
8.898309 7.784394 2.298104
8.894444 7.778281 -0.619239
8.921782 7.799433 2.735855
8.897475 7.775445 -0.206253
8.922812 7.794847 3.174675
4.115892 3.586728 -1.462845
8.944356 7.791670 0.207055
4.682197 4.077355 -1.433388
9.321822 8.114769 0.647710
5.379700 4.683100 -1.386418
9.289986 8.084207 1.077419
5.824416 5.066663 -1.222692
9.282740 8.072207 1.510449
7.030904 6.111872 -1.143866
8.955314 7.782001 1.879091
8.946717 7.774531 -1.036979
8.974336 7.795774 2.310697
8.951704 7.773374 -0.621333
8.994568 7.807850 2.749802
8.966850 7.781038 -0.207230
8.980615 7.790235 3.185545
4.131310 3.574866 -1.463881
9.006284 7.790492 0.207858
4.703773 4.067358 -1.435638
9.325918 8.061280 0.646035
5.413839 4.679698 -1.390998
9.294026 8.030889 1.074630
5.860006 5.061794 -1.226446
9.280813 8.013806 1.505574
7.031156 6.069134 -1.140453
9.024302 7.786825 1.887851
8.975159 7.741680 -1.036979
9.022307 7.782350 2.316040
9.015084 7.773383 -0.623845
9.043910 7.795487 2.756550
9.033346 7.783626 -0.208137
9.050199 7.795403 3.200556
4.138522 3.554667 -1.461810
9.069831 7.790275 0.208696
4.709071 4.043295 -1.432938
9.323683 8.002668 0.643942
5.422014 4.652154 -1.388708
9.308278 7.983796 1.072887
5.887516 5.047999 -1.228324
9.271049 7.949066 1.499481
7.058329 6.049719 -1.141428
9.091932 7.789976 1.896299
8.990017 7.699942 -1.035585
9.091034 7.783706 2.326343
9.076899 7.768858 -0.626147
9.119803 7.802831 2.770947
9.099960 7.785853 -0.209045
9.115527 7.796410 3.214015
4.159723 3.547721 -1.464916
9.154625 7.804985 0.209987
4.707543 4.012105 -1.427989
9.316600 7.940274 0.641534
5.435232 4.630652 -1.387945
9.305751 7.925421 1.069401
5.933680 5.051745 -1.234268
9.275939 7.894439 1.495581
7.065334 6.010947 -1.138991
9.152167 7.786354 1.903182
9.000147 7.654313 -1.033667
9.160032 7.787528 2.337029
9.152660 7.778518 -0.629497
9.184116 7.802490 2.782195
9.163661 7.785112 -0.209883
9.189808 7.804558 3.230579
4.160287 3.523192 -1.460775
9.210976 7.800432 0.210685
4.723798 3.998989 -1.428889
9.322915 7.889643 0.640069
5.442367 4.604047 -1.385655
9.301414 7.865870 1.065740
5.970009 5.048622 -1.238335
9.283870 7.848263 1.492656
7.082194 5.984923 -1.138503
9.215508 7.784952 1.910691
9.023767 7.620277 -1.033319
9.232304 7.796379 2.348859
9.210453 7.775181 -0.631695
9.250154 7.805923 2.794342
9.221352 7.778862 -0.210581
9.242097 7.793609 3.239379
4.160121 3.499427 -1.456634
9.271821 7.796544 0.211453
4.742202 3.986238 -1.430239
9.321508 7.835548 0.638185
5.454600 4.583447 -1.384892
9.298458 7.810636 1.062428
6.014824 5.050618 -1.243967
9.297527 7.804320 1.490462
7.100002 5.957612 -1.138016
9.280617 7.787365 1.918825
9.019983 7.565986 -1.030007
9.289548 7.789335 2.356491
9.278867 7.777621 -0.634521
9.307218 7.798620 2.803340
9.283881 7.779066 -0.211418
9.296030 7.786485 3.249214
4.175278 3.487360 -1.457669
9.334461 7.796517 0.212291
4.765866 3.979235 -1.433388
9.339602 7.795286 0.637557
5.470567 4.564377 -1.384892
9.333315 7.784513 1.063300
6.042159 5.039503 -1.246157
9.352324 7.797600 1.495093
7.119721 5.934032 -1.138016
9.353271 7.792857 1.928211
9.041744 7.530630 -1.029484
9.350023 7.787387 2.365268
9.338377 7.774921 -0.636824
9.373466 7.801373 2.815487
9.357098 7.784978 -0.212466
9.370686 7.793516 3.265779
4.186819 3.473496 -1.457669
9.397020 7.793249 0.213094
4.769227 3.953867 -1.430239
9.379061 7.772831 0.638394
5.482648 4.543707 -1.384128
9.406643 7.792921 1.068704
6.084056 5.038538 -1.251163
9.408540 7.788957 1.499724
7.134273 5.904083 -1.137041
9.429124 7.800451 1.938223
9.068204 7.501872 -1.029658
9.419513 7.789732 2.375954
9.402403 7.772820 -0.639336
9.444206 7.804604 2.828535
9.425838 7.786656 -0.213408
9.454434 7.807504 3.285449
4.201900 3.461317 -1.458704
9.468931 7.797265 0.214106
4.773971 3.929765 -1.427539
9.447774 7.774311 0.641220
5.510602 4.534522 -1.387182
9.473793 7.792948 1.073236
6.118392 5.031069 -1.254605
9.475542 7.788844 1.506062
7.145638 5.871580 -1.135579
9.514302 7.815133 1.950112
9.075863 7.454995 -1.027566
9.495198 7.796674 2.388165
9.475795 7.777965 -0.642476
9.507550 7.801255 2.839332
9.496251 7.789218 -0.214385
9.529437 7.813649 3.302013
4.216948 3.449075 -1.459739
9.539436 7.799608 0.215083
4.790678 3.915542 -1.428439
9.522802 7.780456 0.644465
5.502074 4.495383 -1.381076
9.544143 7.795123 1.078117
6.148156 5.019677 -1.257107
9.554962 7.798393 1.514349
7.153781 5.836567 -1.133629
9.575200 7.809343 1.956995
9.100284 7.422011 -1.027392
9.561921 7.795735 2.398088
9.540042 7.775126 -0.644988
9.575514 7.801255 2.851480
9.554396 7.781276 -0.215083
9.606090 7.820589 3.319096
4.216964 3.424591 -1.455598
9.603867 7.796507 0.215921
4.807343 3.901250 -1.429339
9.591781 7.781143 0.647291
5.505534 4.466256 -1.378023
9.599152 7.784346 1.081254
6.207074 5.031770 -1.265555
9.620681 7.796239 1.520442
7.174112 5.811558 -1.133629
9.660739 7.823109 1.968884
9.119945 7.385182 -1.026695
9.636377 7.800605 2.409918
9.619910 7.784496 -0.648547
9.655718 7.810675 2.867226
9.614151 7.774283 -0.215816
9.663377 7.811300 3.329448
4.225885 3.407424 -1.454563
9.663720 7.789287 0.216654
4.817895 3.882004 -1.428439
9.657772 7.778933 0.649908
5.527984 4.450971 -1.379549
9.685238 7.798269 1.087878
6.241525 5.023702 -1.268997
9.694236 7.799939 1.527754
7.197451 5.788967 -1.134116
9.746483 7.836382 1.980773
9.131420 7.339227 -1.024951
9.700107 7.793513 2.418695
9.688863 7.781705 -0.651269
9.723941 7.809878 2.879373
9.695808 7.784492 -0.217038
9.708667 7.792029 3.335660
4.241362 3.394328 -1.455598
9.743731 7.795041 0.217806
4.822962 3.857013 -1.425740
9.737698 7.784641 0.653362
5.541193 4.428230 -1.378786
9.741771 7.785111 1.091016
6.270702 5.009418 -1.271187
9.758435 7.792849 1.533360
7.215515 5.760072 -1.133629
9.833817 7.847420 1.992663
9.159814 7.306953 -1.025126
9.768513 7.789734 2.428617
9.764177 7.783483 -0.654409
9.793650 7.806976 2.891521
9.780573 7.793768 -0.218295
9.785512 7.794912 3.352224
4.250748 3.376358 -1.454563
9.797292 7.779174 0.218365
4.835539 3.838100 -1.425290
9.791200 7.768758 0.655037
5.548155 4.400571 -1.376496
9.823310 7.791451 1.096942
6.323072 5.013402 -1.278070
9.839828 7.798950 1.541647
7.224130 5.723727 -1.131679
9.905870 7.845667 2.001423
9.175601 7.264672 -1.023906
9.847798 7.794088 2.441211
9.820832 7.769951 -0.656293
9.846649 7.790376 2.898719
9.835738 7.778954 -0.218888
9.857962 7.793742 3.367236
4.278267 3.372714 -1.459739
9.872854 7.780347 0.219412
4.840388 3.813117 -1.422590
9.877663 7.778541 0.658910
5.561161 4.377779 -1.375733
9.898766 7.792368 1.102172
6.356928 5.002410 -1.281199
9.907351 7.793519 1.547741
7.226339 5.682481 -1.128754
9.200599 7.229765 -1.023731
9.921077 7.793104 2.452277
9.894797 7.769677 -0.659328
9.901934 7.772487 -0.219726
4.269069 3.343772 -1.453010
9.942916 7.785036 0.220424
4.850809 3.796691 -1.422141
9.943164 7.782439 0.661736
5.592681 4.375775 -1.380312
9.964006 7.793138 1.106704
6.405291 5.007967 -1.287769
9.967756 7.790472 1.553347
7.253540 5.667085 -1.130216
9.207875 7.191399 -1.022163
9.966619 7.778375 -0.662573
9.972249 7.779976 -0.220773
4.276141 3.325291 -1.451457
9.995510 7.772892 0.221017
4.875679 3.790153 -1.425740
10.004967 7.774642 0.664039
5.601721 4.351408 -1.378786
9.818046 7.623895 1.087529
6.440588 5.001236 -1.291523
7.269155 5.640568 -1.129729
9.223477 7.151886 -1.021117
10.025507 7.770978 -0.664771
10.043613 7.779402 -0.221750
4.287145 3.311091 -1.451457
4.874997 3.762394 -1.421691
5.613012 4.330408 -1.378023
6.476778 4.993197 -1.295278
7.276218 5.605469 -1.127779
9.234513 7.111537 -1.019722
12.300193 9.465591 -0.813406
4.301743 3.298458 -1.452493
4.878168 3.739093 -1.418991
5.621859 4.306015 -1.376496
6.516827 4.989704 -1.299971
7.282156 5.571658 -1.125829
9.262448 7.081677 -1.020071
12.234716 9.350765 -0.807021
4.317267 3.287687 -1.454045
4.905146 3.732664 -1.423040
5.623606 4.277840 -1.373443
6.562512 4.988445 -1.305602
7.301559 5.546206 -1.125829
9.279174 7.043280 -1.019199
12.233868 9.282652 -0.804822
4.309252 3.256700 -1.447316
4.915037 3.713169 -1.422141
5.636113 4.254836 -1.372680
6.601253 4.979822 -1.309669
7.320873 5.520686 -1.125829
9.283020 6.995257 -1.016933
12.277384 9.244955 -0.805450
4.328321 3.247433 -1.449904
4.925494 3.692792 -1.421241
5.654074 4.237489 -1.373443
6.621757 4.959118 -1.310295
7.337881 5.491436 -1.125342
9.291427 6.950878 -1.015190
12.267985 9.170953 -0.802729
4.336532 3.229996 -1.448869
4.931459 3.671784 -1.419441
5.678282 4.224757 -1.375733
6.628654 4.930060 -1.308418
7.352866 5.464702 -1.124854
9.322033 6.923151 -1.015887
12.293522 9.126646 -0.802415
4.342558 3.212154 -1.447316
4.941113 3.652229 -1.418541
5.676468 4.194241 -1.371917
6.655358 4.913930 -1.310295
7.346338 5.420148 -1.120954
9.338126 6.884655 -1.015016
12.320481 9.080127 -0.802101
4.348074 3.191641 -1.445246
4.950689 3.632655 -1.417642
49.058208 35.984158 3.188516
5.694973 4.175725 -1.372680
6.679698 4.894176 -1.311547
7.378026 5.403853 -1.122904
9.352450 6.844964 -1.013970
12.366578 9.044337 -0.802938
25.339550 18.525396 -0.547901
4.363871 3.179860 -1.446798
4.970272 3.619073 -1.419441
5.696813 4.146581 -1.369627
6.690351 4.866179 -1.310295
7.391357 5.372108 -1.121929
9.363394 6.802905 -1.012575
13.319319 9.669952 -0.862601
4.371814 3.162342 -1.445763
4.984453 3.602844 -1.419891
5.714436 4.128968 -1.370390
6.691280 4.831234 -1.307166
7.393969 5.334658 -1.119492
9.372538 6.759691 -1.011007
13.323830 9.602378 -0.860717
4.385966 3.149315 -1.446798
4.976417 3.570652 -1.414042
5.735196 4.113572 -1.371917
43.344440 31.077393 4.666144
6.698472 4.800942 -1.305289
7.412542 5.308821 -1.119492
9.404179 6.732730 -1.011878
13.367005 9.562792 -0.861345
4.395358 3.132865 -1.446281
15.186348 10.824325 0.325522
4.981881 3.549608 -1.412243
15.191140 10.819745 0.977426
5.736725 4.084419 -1.368864
6.727230 4.787867 -1.307792
7.420401 5.277306 -1.118029
9.421127 6.695244 -1.011181
13.379108 9.504529 -0.860089
15.179384 10.775465 -0.324929
4.419914 3.128318 -1.450940
15.168540 10.731975 0.324336
4.995831 3.533323 -1.412693
5.737412 4.056307 -1.365811
43.799049 30.954100 4.692291
6.734221 4.757518 -1.305915
7.432291 5.246790 -1.117054
9.438391 6.660526 -1.010658
13.399149 9.448557 -0.859252
15.190749 10.703987 -0.324370
4.411839 3.099543 -1.444728
15.261546 10.718040 0.325522
5.019300 3.523699 -1.415842
5.754752 4.038509 -1.366574
6.747553 4.731713 -1.305289
7.450559 5.220816 -1.117054
9.435473 6.609247 -1.007869
13.382959 9.367373 -0.856112
15.264070 10.676115 -0.325138
4.413123 3.077494 -1.441622
15.344796 10.696723 0.326500
5.031570 3.506156 -1.415842
15.293775 10.653227 0.976798
5.765591 4.016154 -1.365811
6.747817 4.696844 -1.302161
7.465480 5.192508 -1.116567
24.878054 17.297134 4.799097
9.460125 6.577406 -1.008043
13.418859 9.322875 -0.856321
15.409655 10.698037 -0.327442
4.427017 3.064269 -1.442657
15.421511 10.670399 0.327337
5.040573 3.486355 -1.414942
5.782805 3.998235 -1.366574
6.757668 4.668770 -1.300909
7.473757 5.159652 -1.115105
25.029324 17.273026 4.816617
9.469907 6.535292 -1.006649
13.415145 9.251037 -0.854018
15.453493 10.648716 -0.327582
4.440869 3.050986 -1.443693
15.524597 10.661788 0.328734
5.043073 3.462120 -1.412243
15.484494 10.630260 0.984335
5.803201 3.982469 -1.368101
6.777184 4.647386 -1.301535
7.481895 5.126801 -1.113642
9.481156 6.494312 -1.005429
13.480317 9.226717 -0.856112
15.600947 10.674192 -0.329955
4.459474 3.040906 -1.446281
15.725085 10.722904 0.332224
5.052915 3.444281 -1.411793
5.797597 3.948924 -1.363521
6.795823 4.627111 -1.302161
7.485727 5.093027 -1.111692
9.502116 6.460063 -1.005254
13.500931 9.175224 -0.855484
4.458335 3.018521 -1.442657
5.056836 3.421163 -1.409543
5.810659 3.929678 -1.363521
6.785745 4.585666 -1.297155
7.519912 5.077973 -1.114130
9.505322 6.416254 -1.003337
13.516319 9.116868 -0.854437
4.459224 2.996474 -1.439552
5.078455 3.410007 -1.412243
5.827602 3.911558 -1.364284
6.811555 4.568552 -1.299032
7.534290 5.049488 -1.113642
9.524353 6.380815 -1.002988
13.511543 9.045200 -0.852134
4.482514 2.989466 -1.443693
5.083842 3.387935 -1.410443
5.824881 3.880309 -1.360468
6.814307 4.535988 -1.296529
7.561789 5.029752 -1.115105
9.551548 6.350837 -1.003511
13.509765 8.975871 -0.850041
4.481646 2.966336 -1.440069
5.082631 3.361572 -1.406844
5.831840 3.855620 -1.358942
6.836689 4.516534 -1.297781
7.575988 5.001136 -1.114617
9.565339 6.311977 -1.002640
13.337593 8.794522 -0.837271
4.500044 2.955980 -1.442657
5.091077 3.341670 -1.405944
5.851826 3.839552 -1.360468
49.422394 32.415081 5.170950
6.845806 4.488308 -1.296529
7.586756 4.970311 -1.113642
9.585649 6.277454 -1.002465
13.364866 8.745727 -0.837061
4.495770 2.930758 -1.437999
5.105976 3.326007 -1.406844
5.865194 3.819100 -1.360468
49.368267 32.133667 5.153519
6.861431 4.464386 -1.296529
7.590746 4.935140 -1.111692
9.589125 6.232015 -1.000548
13.455616 8.738177 -0.840829
4.510840 2.918194 -1.439552
38.295223 24.764835 0.796039
5.124102 3.312393 -1.408643
5.885087 3.802864 -1.361995
49.396450 31.907103 5.144804
6.873654 4.438263 -1.295903
7.621270 4.917224 -1.113642
9.597426 6.189863 -0.999153
13.486033 8.691158 -0.840829
4.517747 2.900344 -1.438516
38.253536 24.548920 0.793386
5.125793 3.288172 -1.405944
43.654423 27.993391 2.717807
5.888409 3.775941 -1.359705
49.343136 31.629126 5.127721
6.892433 4.416372 -1.296529
7.628356 4.884170 -1.112180
9.615621 6.154173 -0.998805
13.570132 8.678467 -0.844179
28.320196 18.097609 -0.586645
4.529474 2.885593 -1.439034
38.193932 24.322870 0.790385
5.127375 3.263982 -1.403245
43.645927 27.784105 2.711526
5.904867 3.757469 -1.360468
49.369179 31.403236 5.119005
6.901138 4.388048 -1.295278
7.657915 4.867363 -1.114130
9.623588 6.112028 -0.997410
13.543009 8.594656 -0.840620
28.312513 17.960739 -0.585249
4.539018 2.870558 -1.439034
38.237202 24.172564 0.789617
5.143112 3.250085 -1.404594
5.904015 3.729481 -1.357415
6.905628 4.358814 -1.293400
7.707589 4.863129 -1.119004
9.640430 6.077959 -0.997062
13.267256 8.358076 -0.821779
28.324535 17.836922 -0.584272
4.533788 2.846244 -1.434375
38.181641 23.960604 0.786824
5.147259 3.228868 -1.402795
5.919678 3.711967 -1.358178
49.238735 30.863483 5.084143
6.916697 4.333790 -1.292775
7.764898 4.861478 -1.124854
9.640268 6.033269 -0.994970
13.274576 8.301329 -0.820523
4.546974 2.832445 -1.435410
5.166770 3.216032 -1.405044
5.939266 3.695431 -1.359705
49.237896 30.624058 5.072987
6.928427 4.307536 -1.292149
7.822291 4.859483 -1.130704
9.664653 6.001686 -0.995319
13.374753 8.299167 -0.824919
4.556834 2.816555 -1.435410
28.836693 17.816870 0.591671
5.166358 3.190810 -1.401895
5.928743 3.660236 -1.354362
49.198689 30.362001 5.057996
6.940058 4.281252 -1.291523
7.866245 4.848813 -1.134604
9.682151 5.965826 -0.994970
13.655354 8.407400 -0.840411
4.563343 2.798615 -1.434375
5.172480 3.169700 -1.400545
5.954873 3.647726 -1.357415
6.941482 4.248749 -1.289020
7.903443 4.833755 -1.137529
48.924469 29.910534 9.082273
9.706317 5.934068 -0.995319
13.578944 8.295133 -0.833921
4.582986 2.788692 -1.437481
5.186842 3.153652 -1.401445
5.960860 3.622837 -1.355889
49.154041 29.862617 5.031849
6.959647 4.226545 -1.289646
7.960999 4.830851 -1.143378
48.900215 29.661724 9.058496
9.703121 5.885686 -0.992878
13.635147 8.264243 -0.835596
4.587732 2.769681 -1.435928
5.196152 3.134519 -1.400995
5.953296 3.589841 -1.351309
49.087326 29.588036 5.014419
6.970975 4.200184 -1.289020
8.018625 4.827611 -1.149228
48.857906 29.403236 9.031589
9.720194 5.849722 -0.992530
13.674176 8.222782 -0.836224
4.579141 2.742732 -1.430234
5.205390 3.115360 -1.400545
5.972529 3.573071 -1.352836
49.063778 29.340824 5.001519
6.975422 4.169743 -1.287143
8.079739 4.826056 -1.155565
48.838142 29.159590 9.009062
9.735425 5.812690 -0.992007
13.850307 8.263000 -0.845226
4.590348 2.727717 -1.430752
5.209528 3.093194 -1.398746
5.988342 3.554204 -1.353599
49.059666 29.106337 4.990712
6.983134 4.141343 -1.285891
8.144355 4.826156 -1.162390
48.817238 28.916485 8.986535
9.745366 5.772586 -0.990961
13.985631 8.277670 -0.851715
4.596513 2.709715 -1.429716
5.213578 3.071033 -1.396946
5.990561 3.527303 -1.351309
49.051071 28.870243 4.979556
6.990740 4.112933 -1.284640
8.185108 4.811783 -1.165802
48.768017 28.657822 8.959003
9.768893 5.740550 -0.991309
13.835317 8.123630 -0.840829
4.617616 2.700482 -1.433340
5.241091 3.062649 -1.401445
5.996056 3.502411 -1.349783
48.979500 28.598373 4.962125
7.008465 4.090499 -1.285266
8.225863 4.797182 -1.169215
48.772171 28.431711 8.941482
9.788871 5.706417 -0.991309
13.835979 8.059198 -0.839155
4.618660 2.679499 -1.430752
5.239949 3.037493 -1.398296
5.998054 3.475552 -1.347493
48.968678 28.363325 4.950969
7.019283 4.064029 -1.284640
8.276923 4.788321 -1.174089
48.700127 28.162392 8.910195
9.788034 5.660242 -0.989218
13.832897 7.992870 -0.837271
4.612915 2.654689 -1.426093
5.247142 3.017239 -1.397396
6.010148 3.454595 -1.347493
48.943016 28.120743 4.938418
7.040278 4.043435 -1.285891
8.345241 4.789039 -1.181401
48.702190 27.937170 8.892675
9.807734 5.626038 -0.989218
13.839921 7.932613 -0.836015
4.635577 2.646231 -1.430234
5.250871 2.995044 -1.395596
6.032404 3.439428 -1.349783
48.930088 27.886600 4.927263
7.030320 4.005147 -1.281511
8.389508 4.775594 -1.185301
48.657215 27.697344 8.867645
9.827312 5.591770 -0.989218
13.811965 7.852668 -0.832665
28.246267 16.052639 -0.567099
4.644785 2.630035 -1.430234
5.243814 2.968017 -1.391097
6.051208 3.422217 -1.351309
48.853680 27.617592 4.909832
7.043562 3.981813 -1.281511
8.405297 4.747749 -1.185301
48.602226 27.441874 8.840113
9.831157 5.548616 -0.987649
13.806620 7.789155 -0.830781
28.232450 15.914656 -0.565702
4.645059 2.609887 -1.427646
5.260940 2.953509 -1.392897
6.041978 3.390604 -1.346730
48.840744 27.396940 4.899373
7.071203 3.964929 -1.284014
8.401039 4.706734 -1.182377
48.590874 27.212198 8.820715
9.843508 5.510379 -0.986952
13.802350 7.723361 -0.828897
28.270367 15.806270 -0.565353
4.659659 2.595662 -1.429199
5.264407 2.931336 -1.391097
6.050935 3.366522 -1.345967
48.766701 27.120918 4.881942
7.085687 3.938987 -1.284014
8.431300 4.685092 -1.184326
48.561222 26.973368 8.798188
9.845265 5.466311 -0.985209
13.809606 7.661098 -0.827641
28.192463 15.633781 -0.562700
4.653471 2.570976 -1.424540
5.281940 2.915787 -1.392897
6.059210 3.343487 -1.345204
48.791294 26.912022 4.874969
7.089015 3.908504 -1.282137
8.444937 4.652245 -1.183839
48.535179 26.726582 8.775661
9.865233 5.430192 -0.985209
13.825767 7.607066 -0.827013
28.197001 15.501451 -0.561653
4.667944 2.556688 -1.426093
5.295504 2.899205 -1.393797
6.071426 3.321252 -1.345204
48.777721 26.671848 4.863813
7.092892 3.876813 -1.280260
8.454158 4.618928 -1.182864
48.517212 26.496412 8.755638
9.873636 5.389993 -0.984163
13.811472 7.533391 -0.824501
28.208807 15.379949 -0.560816
4.675956 2.542007 -1.426093
5.291389 2.874188 -1.390198
6.085280 3.304037 -1.345967
48.710670 26.436752 4.848823
7.108508 3.856396 -1.280886
8.448483 4.579522 -1.179939
48.507549 26.282692 8.738117
9.901031 5.364644 -0.985209
13.796432 7.469040 -0.822198
28.055630 15.175949 -0.556767
4.681397 2.523839 -1.425058
5.308253 2.859396 -1.391997
6.079488 3.273472 -1.342151
48.648273 26.183453 4.833483
7.114969 3.827814 -1.279634
8.453926 4.544362 -1.178477
48.438915 26.027176 8.709333
9.907412 5.323446 -0.983988
13.794263 7.405724 -0.820523
28.013269 15.026886 -0.554882
4.676550 2.500195 -1.420917
5.328515 2.846359 -1.394697
6.083951 3.248530 -1.340624
48.679619 25.981569 4.827557
7.138744 3.808535 -1.281511
8.480249 4.520424 -1.179939
48.421379 25.800352 8.689936
9.908349 5.279463 -0.982245
13.805928 7.350015 -0.819686
28.030243 14.910234 -0.554184
4.685250 2.483854 -1.420917
5.334974 2.825916 -1.393797
6.091784 3.225434 -1.339861
48.600956 25.722023 4.810822
7.131042 3.772506 -1.277757
8.481936 4.483376 -1.177989
48.395878 25.570253 8.669287
9.935527 5.249496 -0.983117
13.803239 7.286863 -0.818011
28.078585 14.810426 -0.554114
4.704151 2.472879 -1.424022
