# This PCD file was generated using the MATLAB® pcwrite function
# from Computer Vision Toolbox®.
# .PCD v.7 - Point Cloud Data file format
VERSION .7
FIELDS x y z
SIZE 4 4 4
TYPE F F F
COUNT 1 1 1
WIDTH 1684
HEIGHT 1
VIEWPOINT 0 0 0 1 0 0 0
POINTS 1684
DATA ascii
9.108593 7.386532 -1.025997
9.612632 7.792489 2.405338
9.589646 7.771091 -0.646872
9.638145 7.807606 2.863627
9.608725 7.780988 -0.215816
9.651916 7.813183 3.327378
4.225007 3.411589 -1.455081
9.666060 7.802311 0.216829
4.807603 3.879245 -1.426190
9.633680 7.770631 0.648652
5.521040 4.453331 -1.378786
9.661180 7.790021 1.085786
6.228791 5.020617 -1.267119
9.668691 7.790518 1.524586
7.184132 5.786519 -1.132654
9.731782 7.835745 1.978896
9.134323 7.354689 -1.025997
9.699416 7.806903 2.420222
9.671179 7.781387 -0.650536
9.709380 7.809331 2.876674
9.687250 7.788757 -0.216968
9.703225 7.798805 3.335660
4.238398 3.398027 -1.455598
9.724440 7.793541 0.217527
4.825676 3.866096 -1.427539
9.712193 7.778153 0.652106
5.542682 4.438938 -1.380312
9.738088 7.796094 1.091364
6.270952 5.018593 -1.272125
9.745430 7.796400 1.532385
7.201188 5.758925 -1.132166
9.799190 7.833800 1.987031
9.156827 7.320273 -1.025649
9.757284 7.797508 2.427854
9.740417 7.781237 -0.653362
9.768557 7.800931 2.886122
9.765954 7.796062 -0.218120
9.774180 7.799829 3.350672
4.235118 3.371181 -1.450422
9.790706 7.790675 0.218399
4.831518 3.843161 -1.425290
9.789308 7.783983 0.655456
5.548922 4.412234 -1.378023
9.815145 7.801733 1.096942
6.308540 5.012647 -1.276192
9.822326 7.801846 1.540185
7.211914 5.726351 -1.130704
9.882177 7.843755 1.998294
9.168281 7.277116 -1.024080
9.833659 7.802447 2.440066
9.814459 7.784430 -0.656502
9.847647 7.807947 2.901419
9.811915 7.776828 -0.218539
9.834654 7.792063 3.362060
4.252924 3.361168 -1.452493
9.847655 7.780002 0.219063
4.843371 3.825068 -1.424840
9.869722 7.791841 0.659014
5.558127 4.387969 -1.376496
9.870475 7.789639 1.100080
6.339953 5.001611 -1.279008
9.885352 7.795783 1.545791
7.234978 5.703598 -1.131191
9.174844 7.230276 -1.021988
9.902472 7.800879 2.450369
9.879233 7.779778 -0.659014
9.910054 7.801255 2.911766
9.879859 7.774684 -0.219447
9.924049 7.806654 3.383283
4.272231 3.352264 -1.455081
9.915660 7.777670 0.219970
4.853628 3.805732 -1.423940
9.929873 7.783213 0.661213
5.585773 4.378230 -1.379549
9.950926 7.796919 1.106006
6.393143 5.007464 -1.286204
9.951581 7.791820 1.551884
7.254842 5.678310 -1.131191
9.207874 7.204342 -1.022860
9.944090 7.774771 -0.661527
9.963669 7.784469 -0.220703
4.282380 3.336146 -1.454563
9.991659 7.781096 0.221052
4.857657 3.781583 -1.421241
10.005838 7.786536 0.664457
5.594821 4.353886 -1.378023
9.949777 7.740114 1.102869
6.429297 4.999668 -1.289959
7.258945 5.640769 -1.128754
9.228247 7.168487 -1.022337
10.018501 7.776751 -0.664667
10.038180 7.786412 -0.221750
4.292472 3.319994 -1.454045
4.863117 3.758646 -1.418991
5.600664 4.327126 -1.375733
6.470162 4.995303 -1.294652
7.272306 5.610544 -1.127779
9.234280 7.121632 -1.020245
12.290421 9.471732 -0.813196
4.290244 3.294403 -1.449387
4.894762 3.755882 -1.424390
5.606388 4.300382 -1.373443
6.517350 4.995519 -1.300596
7.301301 5.592369 -1.129241
9.252757 7.084508 -1.019548
12.244097 9.368093 -0.807963
4.310936 3.286433 -1.452493
4.909391 3.739955 -1.424840
5.630737 4.287920 -1.375733
6.550467 4.984702 -1.303725
7.298655 5.550028 -1.125829
9.261566 7.040111 -1.017805
12.248092 9.303553 -0.806078
4.322382 3.271364 -1.452493
4.909333 3.714249 -1.421241
5.645671 4.268238 -1.375733
6.585871 4.977246 -1.307480
7.326525 5.532970 -1.127291
9.287677 7.008937 -1.017979
12.262934 9.250854 -0.805032
4.327029 3.252370 -1.450422
4.922269 3.697088 -1.421241
5.666073 4.254209 -1.377259
6.614267 4.962523 -1.309669
7.310850 5.481166 -1.121929
9.304489 6.973322 -1.017282
12.251987 9.175669 -0.802206
4.333710 3.233781 -1.448869
4.932019 3.677556 -1.420341
5.665147 4.222673 -1.373443
6.644224 4.948843 -1.312172
7.333125 5.457982 -1.122417
9.312791 6.928905 -1.015539
12.280737 9.130459 -0.801996
4.346525 3.219783 -1.449387
4.943261 3.659156 -1.419891
5.667228 4.193529 -1.370390
6.661457 4.925622 -1.312172
7.355322 5.434716 -1.122904
9.328906 6.890439 -1.014667
12.307711 9.083981 -0.801682
4.354624 3.202303 -1.448351
4.951294 3.638415 -1.418541
5.699235 4.186507 -1.374588
6.656317 4.885973 -1.307792
7.364645 5.401961 -1.121442
9.340050 6.848405 -1.013273
12.349010 9.048049 -0.802310
4.367337 3.188221 -1.448869
4.963962 3.621114 -1.418541
5.715402 4.167742 -1.374970
6.666943 4.858059 -1.306541
7.377038 5.371545 -1.120467
9.363894 6.815767 -1.013273
13.288262 9.665123 -0.861136
4.376876 3.171822 -1.448351
4.970259 3.599191 -1.416742
5.710832 4.133951 -1.370390
6.690264 4.839387 -1.307792
7.392526 5.343438 -1.119979
9.382785 6.779536 -1.012750
13.334873 9.628036 -0.861973
4.381646 3.152014 -1.446281
4.982791 3.581821 -1.416742
5.722036 4.111703 -1.369627
6.700698 4.811394 -1.306541
7.404682 5.312969 -1.119004
9.404776 6.745579 -1.012575
13.391130 9.597716 -0.863439
4.394195 3.137822 -1.446798
15.198319 10.848866 0.325941
4.995265 3.564404 -1.416742
15.173827 10.823389 0.976798
5.729962 4.087143 -1.368101
43.484062 31.005442 4.672420
6.707799 4.781096 -1.304664
7.416715 5.282485 -1.118029
9.402294 6.694221 -1.009786
13.405024 9.537017 -0.862183
15.152296 10.772162 -0.324510
4.392512 3.113528 -1.442657
15.144724 10.731009 0.323986
4.993365 3.536807 -1.412693
15.134665 10.719903 0.971983
5.744193 4.067118 -1.368101
43.777412 30.984690 4.692291
6.717999 4.753087 -1.303412
7.444833 5.263441 -1.119492
9.417470 6.655609 -1.008915
13.408860 9.469438 -0.860299
15.191205 10.724159 -0.324580
4.411254 3.103733 -1.445246
15.262001 10.738258 0.325732
5.003472 3.519109 -1.412243
5.758356 4.047041 -1.368101
6.727258 4.726243 -1.302161
7.446001 5.227315 -1.117054
9.440644 6.622697 -1.008915
13.394403 9.392807 -0.857368
15.280949 10.707791 -0.325697
4.410436 3.081344 -1.441622
15.332183 10.707813 0.326430
5.010931 3.498277 -1.410893
15.277921 10.661996 0.976380
5.774964 4.030171 -1.368864
6.737231 4.698213 -1.300909
7.447917 5.189941 -1.114617
24.872667 17.325624 4.800974
9.457648 6.587940 -1.008392
13.391048 9.320890 -0.855065
15.354353 10.679502 -0.326465
4.427514 3.070334 -1.443693
15.412193 10.683851 0.327337
5.034325 3.488532 -1.414042
15.333103 10.621114 0.977531
5.772857 3.998811 -1.365048
6.760089 4.679163 -1.302161
7.469252 5.166172 -1.115105
24.988243 17.276886 4.811612
9.477311 6.552619 -1.008043
13.426787 9.276362 -0.855274
15.424447 10.648564 -0.327163
4.435023 3.052669 -1.442657
15.515288 10.675332 0.328734
5.051288 3.474252 -1.415392
15.467189 10.634285 0.983707
5.780310 3.974185 -1.363521
6.766611 4.648827 -1.300283
7.477422 5.133325 -1.113642
25.149378 17.258860 4.831010
9.463984 6.494696 -1.004208
13.449203 9.222656 -0.854646
15.593488 10.685087 -0.329955
4.439272 3.032809 -1.440587
5.052119 3.448906 -1.412243
5.803879 3.960622 -1.365811
6.779534 4.622951 -1.299658
7.501853 5.111669 -1.114617
9.491539 6.464983 -1.004731
13.511030 9.195891 -0.856530
4.453029 3.019464 -1.441622
5.057673 3.426878 -1.410443
5.820919 3.942541 -1.366574
6.785816 4.592613 -1.297781
7.509785 5.078777 -1.113155
9.500845 6.422883 -1.003337
13.509948 9.126308 -0.854437
4.469953 3.008215 -1.443693
5.066370 3.407029 -1.409543
5.818353 3.911244 -1.362758
6.808362 4.573309 -1.299032
7.514283 5.043679 -1.111205
9.529820 6.394127 -1.004034
13.491957 9.045724 -0.851297
4.473999 2.988305 -1.441622
5.081474 3.391486 -1.410443
5.838500 3.895273 -1.364284
6.817711 4.545130 -1.297781
7.548363 5.028426 -1.113642
9.553742 6.361924 -1.004208
13.540077 9.009642 -0.852343
4.476352 2.967331 -1.439034
5.083533 3.367272 -1.407744
5.845514 3.870532 -1.362758
6.826944 4.516946 -1.296529
7.569183 5.004234 -1.114130
9.569242 6.324145 -1.003511
13.334784 8.806031 -0.837480
4.481842 2.948501 -1.437481
5.095257 3.349505 -1.407744
5.858990 3.850102 -1.362758
49.506317 32.519608 5.182106
6.842671 4.493086 -1.296529
7.599879 4.986499 -1.116079
9.567936 6.275403 -1.001071
13.358758 8.755054 -0.837061
4.500195 2.938120 -1.440069
5.110183 3.333827 -1.408643
5.869104 3.827483 -1.361995
6.864934 4.473485 -1.297781
7.603932 4.951273 -1.114130
9.591454 6.243051 -1.001245
13.436116 8.738864 -0.839992
4.502317 2.917140 -1.437481
5.107064 3.306441 -1.404594
5.882430 3.806971 -1.361995
49.374165 31.941578 5.144804
6.867235 4.440918 -1.295278
7.607832 4.916079 -1.112180
9.603145 6.203048 -1.000199
13.479964 8.700571 -0.840829
4.518971 2.905586 -1.439552
38.280125 24.603727 0.794294
5.112018 3.284379 -1.402795
5.889075 3.782172 -1.360468
49.404873 31.717381 5.136436
6.879370 4.414784 -1.294652
7.641655 4.900210 -1.114617
9.619705 6.166265 -0.999676
13.540524 8.672857 -0.842714
4.517686 2.882522 -1.435928
38.261250 24.403275 0.792130
5.138238 3.275944 -1.406844
43.678715 27.847876 2.714771
5.892309 3.755260 -1.358178
49.347260 31.437668 5.119005
6.898071 4.392868 -1.295278
7.655365 4.871372 -1.114130
9.619315 6.118750 -0.997410
13.594316 8.640534 -0.844179
28.289846 17.974068 -0.585040
4.539146 2.873967 -1.439552
38.210178 24.192833 0.789407
5.150722 3.259928 -1.407294
5.908699 3.736769 -1.358942
6.895904 4.359411 -1.292149
7.698329 4.862924 -1.118029
9.627138 6.076624 -0.996016
13.247904 8.358809 -0.820942
28.328728 17.860285 -0.584551
4.545381 2.856842 -1.438516
38.206341 24.003994 0.787592
5.142267 3.229490 -1.401895
5.921059 3.717153 -1.358942
49.283321 30.927382 5.090418
6.904387 4.331113 -1.290897
7.758987 4.863435 -1.124367
9.650614 6.046779 -0.996364
13.260071 8.301919 -0.819895
28.390905 17.761282 -0.584551
4.548769 2.836870 -1.436446
28.780216 17.941999 0.591986
5.161777 3.216675 -1.404144
5.927332 3.692311 -1.357415
49.221859 30.649834 5.072987
6.929524 4.313250 -1.292775
7.802888 4.853093 -1.128266
9.668278 6.010953 -0.996016
13.333081 8.282980 -0.822617
4.566858 2.826056 -1.439034
28.832460 17.835119 0.591776
5.161371 3.191464 -1.400995
5.930165 3.665403 -1.355126
49.206501 30.402441 5.060437
6.944537 4.289036 -1.292775
7.863705 4.852930 -1.134604
9.692591 5.979262 -0.996364
13.729161 8.462759 -0.845226
4.558583 2.798981 -1.433340
5.179125 3.177503 -1.402795
5.946269 3.646738 -1.355889
49.203625 30.163834 5.049281
6.942626 4.254447 -1.289646
7.911068 4.844112 -1.138991
48.969456 29.973270 9.093536
9.682817 5.926668 -0.993227
13.588230 8.310577 -0.834759
4.573277 2.786066 -1.434893
5.180197 3.153327 -1.400095
5.952254 3.621876 -1.354362
49.138401 29.888348 5.031849
6.950681 4.226083 -1.288394
7.951682 4.830895 -1.142403
48.928581 29.713982 9.066630
9.703445 5.892834 -0.993227
13.678629 8.300393 -0.838527
4.594547 2.777079 -1.438516
5.197846 3.139254 -1.401895
5.974946 3.607162 -1.356652
49.133236 29.650791 5.020694
6.955243 4.195671 -1.286517
8.009296 4.827710 -1.148253
48.842503 29.428814 9.031589
9.723958 5.858924 -0.993227
13.659602 8.223759 -0.835596
4.595929 2.756058 -1.435928
5.198743 3.115080 -1.399196
5.970657 3.576198 -1.352836
49.065506 29.376743 5.003263
6.980018 4.177452 -1.288394
8.073805 4.828248 -1.155078
48.860168 29.207455 9.015945
9.737510 5.820854 -0.992530
13.787679 8.235427 -0.841667
4.600542 2.737034 -1.434375
5.206233 3.094926 -1.398296
5.986481 3.557339 -1.353599
49.106079 29.168674 4.996987
6.980966 4.144998 -1.285891
8.117926 4.816239 -1.158978
48.822475 28.954130 8.990290
9.761192 5.788867 -0.992878
13.991605 8.291100 -0.852343
4.596757 2.713104 -1.430234
5.217005 3.076732 -1.398296
5.985331 3.528445 -1.350546
49.035950 28.895920 4.979556
7.005605 4.126618 -1.287769
8.175746 4.812041 -1.164827
48.807484 28.715405 8.969015
9.767604 5.746674 -0.991484
13.841393 8.136945 -0.841458
4.602865 2.695090 -1.429199
5.226031 3.057520 -1.397846
5.997611 3.507532 -1.350546
49.026443 28.660212 4.968400
7.006322 4.094168 -1.285266
8.240494 4.811497 -1.171652
48.747047 28.451271 8.939605
9.787602 5.712546 -0.991484
13.835207 8.068453 -0.839364
4.615587 2.680946 -1.430234
5.224874 3.032410 -1.394697
6.006422 3.484603 -1.349783
48.977955 28.402952 4.953410
7.017154 4.067703 -1.284640
8.288157 4.800613 -1.176039
48.733246 28.215601 8.918956
9.798863 5.673352 -0.990612
13.811422 7.990109 -0.836224
48.521542 28.036526 15.015646
4.631611 2.668677 -1.432305
5.248939 3.021931 -1.398296
6.021951 3.465576 -1.350546
7.031312 4.043182 -1.284640
8.308308 4.773629 -1.176527
48.704681 27.972500 8.895803
9.811699 5.635141 -0.989915
13.808049 7.923952 -0.834340
4.635868 2.649616 -1.430752
5.242533 2.993927 -1.393797
6.023783 3.438693 -1.348256
48.915466 27.912239 4.927263
7.041948 4.016657 -1.284014
8.365479 4.769650 -1.182377
48.670170 27.738466 8.872651
9.833039 5.601846 -0.990089
13.814795 7.863852 -0.833084
28.283045 16.093138 -0.568006
4.626143 2.623746 -1.425058
5.252432 2.976527 -1.393797
6.021486 3.410958 -1.345204
48.834389 27.651691 4.909832
7.065543 3.999123 -1.285891
8.391617 4.747746 -1.183839
48.607132 27.489410 8.844493
9.830748 5.557444 -0.987997
13.819926 7.806212 -0.831828
28.263117 15.957971 -0.566540
4.646605 2.615022 -1.428681
5.262274 2.959091 -1.393797
6.049879 3.400589 -1.349020
48.797272 27.417387 4.896932
7.064989 3.967930 -1.283388
8.432371 4.732031 -1.187251
48.609768 27.267374 8.827599
9.839662 5.517245 -0.986952
13.814375 7.742766 -0.829944
28.206989 15.796674 -0.564306
4.649409 2.594209 -1.426611
5.272572 2.940703 -1.393797
6.052012 3.372660 -1.346730
48.806950 27.187899 4.887868
7.076033 3.940089 -1.282763
8.438433 4.696773 -1.185789
48.594181 27.036049 8.807574
9.855376 5.480930 -0.986603
13.797275 7.666849 -0.827222
28.247971 15.690356 -0.564027
4.668578 2.583578 -1.429716
5.276493 2.917588 -1.391997
6.063749 3.351512 -1.346730
48.772484 26.946098 4.874969
7.086285 3.913452 -1.282137
8.431256 4.652389 -1.182377
48.529125 26.778492 8.778790
9.860494 5.438794 -0.985209
13.788963 7.599370 -0.825129
28.204487 15.537615 -0.562072
4.669100 2.562617 -1.427128
5.282721 2.898201 -1.391097
6.065081 3.324664 -1.344440
48.761417 26.718231 4.864511
7.106153 3.893731 -1.283388
8.439674 4.620588 -1.181401
48.504471 26.544430 8.757515
9.879420 5.404339 -0.985209
13.803576 7.547849 -0.824501
28.209421 15.412216 -0.561095
4.658909 2.536958 -1.421434
5.299652 2.883469 -1.392897
6.082971 3.308287 -1.345967
48.692215 26.470726 4.848823
7.112757 3.865130 -1.282137
8.438309 4.581626 -1.178964
48.508911 26.338181 8.742497
9.879771 5.362050 -0.983465
13.815795 7.491999 -0.823663
28.063465 15.211874 -0.557186
4.676237 2.525268 -1.424022
5.319473 2.871434 -1.395596
6.087571 3.283303 -1.344440
48.696613 26.253357 4.840107
7.111625 3.834025 -1.279634
8.448211 4.550796 -1.178233
48.450954 26.088186 8.715591
9.889657 5.322807 -0.982594
13.812419 7.431005 -0.821989
28.014238 15.058900 -0.555161
4.688428 2.510755 -1.425058
5.312782 2.842721 -1.391097
6.095531 3.260183 -1.343677
48.668488 26.019325 4.828254
7.139569 3.815376 -1.282137
8.468335 4.521673 -1.178720
48.448677 25.858309 8.698070
9.914372 5.289339 -0.983117
13.804315 7.361537 -0.819895
28.016298 14.927917 -0.554114
4.704424 2.497178 -1.427128
5.308899 2.816855 -1.387498
6.107440 3.237819 -1.343677
48.580441 25.743736 4.810125
7.153504 3.789184 -1.282137
8.480559 4.490225 -1.178233
48.440865 25.637295 8.680550
9.931016 5.253765 -0.982942
13.799421 7.294089 -0.818011
28.082384 14.837497 -0.554393
4.716532 2.482540 -1.428164
5.326087 2.801004 -1.389298
6.101327 3.207346 -1.339861
48.620617 25.548063 4.805244
7.152697 3.756844 -1.279634
8.479382 4.449890 -1.175796
48.384068 25.380650 8.653643
9.951060 5.219990 -0.983117
13.810645 7.238461 -0.817174
28.108227 14.719633 -0.553835
4.706330 2.456228 -1.422469
5.334105 2.781493 -1.388848
6.115969 3.187842 -1.340624
48.532803 25.286139 4.787813
7.183289 3.740977 -1.282763
8.512471 4.429429 -1.178233
48.342682 25.144163 8.630490
9.942706 5.171435 -0.980502
13.818104 7.181002 -0.816127
28.099102 14.590090 -0.552648
4.721738 2.443337 -1.424540
5.348975 2.765543 -1.390198
6.116593 3.161067 -1.338334
48.574753 25.092785 4.783281
7.164708 3.699567 -1.277131
8.513769 4.392405 -1.176283
48.331837 24.924572 8.612969
9.960696 5.136699 -0.980502
13.807580 7.114424 -0.814034
28.057405 14.444327 -0.550833
4.725082 2.424193 -1.422987
5.355126 2.745078 -1.389298
6.148558 3.150439 -1.342914
48.498909 24.839504 4.767245
7.191645 3.681738 -1.279634
8.532584 4.364464 -1.176770
48.291901 24.690971 8.590443
9.978564 5.101900 -0.980502
13.814545 7.057094 -0.812987
28.068474 14.326292 -0.550065
4.736958 2.409440 -1.424022
5.350779 2.719304 -1.385699
6.149015 3.123623 -1.340624
48.496487 24.624969 4.758529
7.190361 3.649457 -1.277131
8.525767 4.325370 -1.173846
48.271339 24.478865 8.572297
9.989205 5.063432 -0.979805
13.803457 6.990784 -0.810893
28.030186 14.189788 -0.548389
4.743198 2.392847 -1.423505
5.370208 2.706807 -1.388398
50.407356 25.407387 2.958343
6.145312 3.096149 -1.337571
48.474667 24.412046 4.748419
7.184781 3.616710 -1.274002
8.557796 4.305998 -1.176283
48.249889 24.267187 8.554151
9.998822 5.026696 -0.979108
13.798006 6.930631 -0.809219
28.030626 14.073421 -0.547482
4.737284 2.370190 -1.419364
5.382640 2.690727 -1.389298
50.495720 25.231312 2.958343
6.145008 3.070490 -1.335281
48.427021 24.187052 4.735868
7.210873 3.599925 -1.276505
8.562116 4.270780 -1.174821
48.217632 24.040428 8.533502
10.004737 4.988179 -0.978062
13.806614 6.877709 -0.808381
28.011541 13.941652 -0.546156
4.745530 2.353638 -1.419364
5.378031 2.665001 -1.385699
6.162726 3.052505 -1.336808
48.368320 23.947130 4.721924
7.237557 3.581743 -1.279008
8.580531 4.242624 -1.175308
48.170204 23.807215 8.510349
10.018515 4.951462 -0.977713
13.816212 6.822394 -0.807544
28.017004 13.822548 -0.545318
4.757185 2.338762 -1.420399
5.376806 2.641055 -1.382999
6.162771 3.025782 -1.334518
48.326397 23.716734 4.709722
7.235830 3.549495 -1.276505
8.595286 4.212653 -1.175308
48.167873 23.597197 8.495331
10.023215 4.910322 -0.976493
13.807648 6.758330 -0.805660
47.975159 23.471651 12.330467
27.993231 13.689519 -0.543922
4.765319 2.322143 -1.420399
5.385993 2.622272 -1.382999
6.190948 3.012843 -1.338334
48.355148 23.521742 4.704493
7.241070 3.520759 -1.275254
8.613511 4.184357 -1.175796
48.107796 23.359875 8.470302
10.052841 4.881394 -0.977713
13.823969 6.706600 -0.805241
47.969131 23.261515 12.307972
27.943670 13.544626 -0.542037
4.769917 2.303813 -1.419364
5.398623 2.605150 -1.383899
6.190818 2.986095 -1.336045
48.354397 23.313015 4.696474
7.253313 3.495466 -1.275254
8.610178 4.145654 -1.173358
48.114269 23.155859 8.457161
10.066226 4.844553 -0.977364
13.814897 6.642722 -0.803357
47.962204 23.051754 12.285477
27.785299 13.348280 -0.538058
4.774445 2.285482 -1.418329
5.425264 2.594696 -1.388398
6.179948 2.954307 -1.331465
48.338413 23.097687 4.687061
7.244081 3.459908 -1.271500
8.613849 4.110442 -1.171896
48.077137 22.931627 8.436512
10.054302 4.795658 -0.974575
13.819968 6.585869 -0.802310
47.929787 22.830549 12.256683
27.936441 13.301074 -0.540082
4.775411 2.265491 -1.416258
5.416678 2.567397 -1.383899
6.204416 2.939443 -1.334518
48.271091 22.858875 4.672768
7.234689 3.424460 -1.267745
8.642502 4.087136 -1.173846
48.096169 22.734976 8.425875
10.086224 4.765587 -0.975970
13.810368 6.522233 -0.800426
47.885826 22.604883 12.225190
27.910364 13.169336 -0.538686
4.787180 2.249615 -1.417293
5.413261 2.542673 -1.380750
6.218703 2.918350 -1.335281
48.239101 22.627659 4.661612
7.232884 3.391210 -1.265242
8.654918 4.056103 -1.173602
48.060753 22.513308 8.405850
10.119037 4.737951 -0.977539
13.816088 6.463111 -0.799379
47.880096 22.387938 12.202695
27.919933 13.054897 -0.537988
4.795003 2.232892 -1.417293
5.424310 2.523638 -1.381199
6.221731 2.893314 -1.333755
48.252758 22.428890 4.655337
7.269757 3.377596 -1.269622
8.661822 4.022520 -1.172627
10.142743 4.705957 -0.978236
13.820445 6.406441 -0.798333
47.879822 22.194601 12.183799
27.907270 12.930462 -0.536871
4.802382 2.216978 -1.417293
5.432650 2.505636 -1.381199
6.220594 2.867733 -1.331465
48.211044 22.215424 4.644181
7.241446 3.335288 -1.262739
8.667901 3.990456 -1.171652
10.147433 4.667298 -0.977190
13.823465 6.352240 -0.797286
47.822121 21.975500 12.150507
27.884581 12.807792 -0.535614
4.802680 2.197826 -1.415223
5.449790 2.491659 -1.383449
6.230071 2.847087 -1.331465
48.150345 21.994156 4.631282
7.284811 3.326025 -1.268371
8.678164 3.958529 -1.171165
10.152786 4.626889 -0.976144
13.826277 6.298088 -0.796239
47.781475 21.755150 12.120813
27.874517 12.685522 -0.534567
4.817742 2.183397 -1.417293
5.456680 2.471815 -1.382999
6.236886 2.822616 -1.330702
7.278952 3.291166 -1.265242
8.699165 3.931480 -1.172139
10.187030 4.599627 -0.977887
13.831063 6.239153 -0.795193
47.757851 21.533430 12.094718
27.871223 12.566793 -0.533660
4.807711 2.158652 -1.412117
5.444366 2.442229 -1.377600
6.235953 2.796008 -1.328412
7.297608 3.268966 -1.266494
8.724388 3.904437 -1.173602
10.246675 4.583561 -0.982071
13.801699 6.168021 -0.792262
47.761555 21.334787 12.076722
27.860147 12.444953 -0.532613
4.825806 2.146571 -1.415223
5.448874 2.422576 -1.376701
6.260026 2.780603 -1.331465
7.279522 3.231921 -1.261488
8.711882 3.864218 -1.170189
10.324545 4.575208 -0.987997
13.796510 6.110898 -0.790796
47.693062 21.114738 12.041630
27.822964 12.312015 -0.531077
4.836434 2.132113 -1.416258
5.460862 2.405116 -1.377600
6.254839 2.753499 -1.328412
7.312456 3.216039 -1.265242
8.725318 3.833781 -1.170189
10.427220 4.579408 -0.996364
13.792152 6.051464 -0.789331
47.705799 20.921507 12.026333
27.794050 12.189156 -0.529750
4.836765 2.112124 -1.414187
5.490241 2.396347 -1.382999
6.268013 2.733217 -1.329176
7.352055 3.204399 -1.270248
8.741626 3.806409 -1.170677
10.472375 4.555696 -0.999153
13.808483 6.004097 -0.789122
47.653374 20.710409 11.995740
27.755720 12.057024 -0.528215
4.840561 2.093698 -1.413152
5.477521 2.366931 -1.377600
6.270304 2.708211 -1.327649
7.331104 3.163342 -1.264616
8.755517 3.774346 -1.170677
10.561405 4.550646 -1.006126
13.801043 5.940814 -0.787447
47.682419 20.515574 11.984042
27.707876 11.915707 -0.526469
4.840737 2.073744 -1.411081
5.482166 2.346264 -1.376701
6.283330 2.687850 -1.328412
7.302138 3.120655 -1.257733
8.761337 3.740640 -1.169702
10.639530 4.540343 -1.012052
13.807000 5.886333 -0.786609
47.595982 20.281790 11.944451
27.697784 11.796980 -0.525492
4.855060 2.059853 -1.413152
5.490324 2.327112 -1.376701
6.292674 2.665902 -1.328412
7.302073 3.090526 -1.255856
8.774341 3.710037 -1.169702
10.737901 4.538076 -1.019897
13.798021 5.825676 -0.784935
47.591084 20.083691 11.925555
27.733070 11.703504 -0.525422
4.869346 2.045885 -1.415223
5.501603 2.310403 -1.377600
6.294700 2.640880 -1.326886
7.337785 3.076990 -1.260236
8.775608 3.676319 -1.168240
10.810651 4.524413 -1.025300
13.802523 5.773725 -0.784097
47.538754 19.876158 11.895862
27.733168 11.589657 -0.524654
4.865403 2.025271 -1.412117
5.506035 2.289689 -1.376701
6.303424 2.619990 -1.326886
7.341183 3.048329 -1.258985
8.806725 3.653268 -1.170677
10.836637 4.493120 -1.026346
13.804143 5.717863 -0.783051
47.528618 19.677305 11.876066
27.725412 11.472904 -0.523747
4.858153 2.002387 -1.407976
5.513995 2.270454 -1.376701
6.308899 2.596478 -1.326123
7.346299 3.020430 -1.258046
19.218464 7.897748 2.551213
8.790042 3.610438 -1.166777
10.863314 4.459802 -1.027392
13.794450 5.657519 -0.781376
47.510468 19.475788 11.854470
27.720877 11.357865 -0.522909
4.879422 1.991257 -1.412117
5.503842 2.243834 -1.372201
6.325196 2.577404 -1.327649
7.378753 3.003703 -1.261801
8.824659 3.588705 -1.169702
10.849284 4.409849 -1.024603
13.836321 5.618346 -0.782632
47.502327 19.279034 11.835575
27.715881 11.242997 -0.522071
4.882761 1.972764 -1.411081
5.526097 2.230445 -1.375801
6.326872 2.552370 -1.326123
7.378200 2.973500 -1.259923
8.822400 3.551950 -1.167752
10.905274 4.388317 -1.028438
18.926695 7.612323 3.965393
13.818788 5.555112 -0.780538
47.417439 19.052084 11.797783
27.684444 11.117857 -0.520745
4.893205 1.957144 -1.412117
5.530231 2.209694 -1.374901
6.324803 2.525902 -1.323833
7.395873 2.950653 -1.261175
8.827368 3.518195 -1.166777
10.876105 4.332524 -1.024254
18.759806 7.469234 3.924941
13.804688 5.493558 -0.778654
19.688435 7.830997 4.891786
27.667339 10.998982 -0.519698
4.889230 1.935783 -1.409011
5.534284 2.188947 -1.374001
6.326279 2.500920 -1.322306
7.409800 2.926275 -1.261801
8.850675 3.491728 -1.168240
19.742111 7.784598 3.361151
10.883745 4.291617 -1.023557
13.820065 5.443870 -0.778445
27.653460 10.881842 -0.518720
4.885166 1.914474 -1.405905
5.534634 2.166772 -1.372201
6.342284 2.481682 -1.323833
7.405252 2.894636 -1.259298
8.844317 3.453594 -1.165802
18.764421 7.323495 3.190325
10.903116 4.253138 -1.023906
13.794322 5.378186 -0.775933
27.635378 10.763467 -0.517673
4.899354 1.899350 -1.407976
37.196575 14.420130 0.696351
5.538529 2.146030 -1.371302
6.333028 2.451334 -1.320017
7.401072 2.861778 -1.256795
8.867430 3.426992 -1.167265
19.692789 7.606714 3.343631
10.884439 4.202144 -1.020768
13.799035 5.321838 -0.775096
27.631725 10.651133 -0.516905
4.909562 1.883622 -1.409011
5.553636 2.128506 -1.373101
6.356213 2.434833 -1.323070
7.425776 2.841571 -1.259298
8.868805 3.390217 -1.165802
10.906486 4.166966 -1.021465
13.810063 5.270793 -0.774677
27.627636 10.538927 -0.516137
4.912494 1.865102 -1.407976
37.283249 14.155147 0.696107
5.560665 2.110077 -1.373101
6.361001 2.411240 -1.322306
7.464715 2.828127 -1.264304
8.846580 3.348143 -1.161415
10.906054 4.123235 -1.020071
13.816255 5.220735 -0.774049
27.589424 10.414169 -0.514741
4.904186 1.843363 -1.403835
5.557050 2.086545 -1.370402
6.354258 2.384613 -1.319253
50.123695 18.800339 4.683575
7.459743 2.796507 -1.261801
19.739605 7.396050 2.588261
8.869368 3.321416 -1.162877
10.912204 4.084250 -1.019374
19.610863 7.336106 4.069956
13.804463 5.161280 -0.772374
27.595633 10.306613 -0.514183
4.921455 1.830272 -1.406940
5.571606 2.069850 -1.372201
50.396423 18.712221 2.817349
6.377267 2.367883 -1.322306
19.760672 7.333236 1.844041
7.465755 2.769078 -1.261175
19.683407 7.296736 2.577537
8.895798 3.295955 -1.164827
19.711864 7.299461 3.329239
10.911448 4.040596 -1.017979
19.614260 7.259425 4.065377
13.818648 5.111679 -0.772165
19.449833 7.190851 4.787408
19.775866 7.307467 -0.368001
4.949570 1.821087 -1.413152
19.759171 7.266045 0.367478
5.553190 2.040976 -1.365903
19.778872 7.265453 1.104289
6.378122 2.342901 -1.320780
19.778669 7.261462 1.843344
7.438286 2.729390 -1.254917
19.678938 7.217052 2.573637
8.907250 3.264881 -1.164827
10.932969 4.005228 -1.018676
13.813900 5.055171 -0.770909
19.533377 7.144339 4.801805
19.805010 7.239769 -0.368071
4.934112 1.795871 -1.406940
19.837029 7.216173 0.368455
5.571269 2.025575 -1.368602
19.815378 7.200455 1.104917
6.389953 2.321963 -1.321543
7.481191 2.715542 -1.260549
19.789850 7.179452 2.584849
8.899931 3.227000 -1.162390
19.483761 7.060723 3.282308
10.931897 3.961612 -1.017282
19.269436 6.979239 3.983710
13.816440 5.001479 -0.770071
27.596743 9.978984 -0.512228
4.943985 1.779947 -1.407976
37.093731 13.347250 0.688113
5.570971 2.003476 -1.366803
6.394322 2.298320 -1.320780
7.486907 2.688075 -1.259923
8.903666 3.193235 -1.161415
10.953161 3.926114 -1.017979
19.378695 6.942405 4.001265
13.822530 4.949183 -0.769443
27.543072 9.856427 -0.510623
4.931970 1.756196 -1.402799
27.914562 9.939934 0.517220
5.592272 1.990217 -1.370402
6.383808 2.269408 -1.316964
19.872402 7.060610 1.845087
7.503226 2.665875 -1.261175
8.925430 3.167677 -1.162877
19.449459 6.898872 3.268542
10.970555 3.889191 -1.018328
13.808744 4.892649 -0.767769
27.520754 9.740214 -0.509575
4.952344 1.744967 -1.406940
5.588154 1.966806 -1.367702
6.398707 2.250830 -1.318490
7.512484 2.639673 -1.261175
8.936434 3.136500 -1.162877
19.898413 6.980034 3.339876
10.964590 3.846197 -1.016585
13.833280 4.847056 -0.768187
27.524389 9.633512 -0.509017
4.940161 1.721316 -1.401764
27.903961 9.717191 0.515754
5.587625 1.944724 -1.365903
6.413942 2.231059 -1.320017
7.508592 2.608893 -1.258985
19.710686 6.844699 2.561938
8.928575 3.098780 -1.160440
20.057034 6.957138 3.362403
10.974185 3.806591 -1.016236
13.831243 4.792204 -0.767141
27.504938 9.519055 -0.508040
4.957098 1.707836 -1.404870
5.594378 1.925209 -1.365903
6.417977 2.207383 -1.319253
7.513916 2.581386 -1.258359
8.916805 3.059860 -1.157515
10.987407 3.768258 -1.016236
18.796558 6.442841 3.862356
13.828992 4.737418 -0.766094
27.503937 9.411353 -0.507411
4.966687 1.691766 -1.405905
28.043049 9.546650 0.517080
5.589996 1.901902 -1.363203
6.410774 2.179909 -1.316200
7.537845 2.560222 -1.260862
19.333164 6.562727 2.506853
8.938710 3.032545 -1.158978
10.981624 3.723486 -1.014493
18.885874 6.399867 3.876094
13.834094 4.685276 -0.765466
19.239470 6.512205 4.689330
27.479795 9.296058 -0.506364
4.972562 1.674420 -1.405905
5.603989 1.884861 -1.365003
6.403456 2.152515 -1.313148
7.520519 2.525090 -1.256482
19.273146 6.467419 2.496128
8.949241 3.001326 -1.158978
11.009668 3.690193 -1.015887
19.891012 6.663169 4.077589
13.842787 4.634424 -0.765047
27.455181 9.181059 -0.505317
4.963713 1.652170 -1.401764
5.617931 1.867748 -1.366803
6.425836 2.135101 -1.316200
7.510539 2.492602 -1.253353
8.948358 2.966319 -1.157515
11.022481 3.651742 -1.015887
13.836128 4.578543 -0.763791
27.403522 9.057547 -0.503781
4.980461 1.638457 -1.404870
5.609605 1.843261 -1.363203
6.436981 2.113881 -1.316964
20.018896 6.570271 1.843344
7.511686 2.463909 -1.252102
8.936021 2.927651 -1.154590
11.023801 3.609527 -1.014841
13.844431 4.527737 -0.763372
27.377951 8.943201 -0.502734
4.986150 1.621060 -1.404870
5.604884 1.820058 -1.360504
6.436851 2.088976 -1.315437
7.539031 2.443766 -1.255230
8.931078 2.891547 -1.152640
11.028751 3.568568 -1.014144
13.837346 4.472009 -0.762116
27.374744 8.836528 -0.502106
4.999135 1.606010 -1.406940
5.614915 1.801672 -1.361404
6.432886 2.062898 -1.313148
7.536228 2.413817 -1.253353
8.944898 2.861566 -1.153128
19.874819 6.354337 3.304835
11.063912 3.537332 -1.016236
13.864287 4.427329 -0.762744
27.393991 8.737278 -0.501896
4.993662 1.585044 -1.403835
5.624885 1.783238 -1.362304
6.447534 2.042804 -1.314674
7.529542 2.382727 -1.250850
8.962403 2.832715 -1.154103
11.049597 3.490286 -1.013796
13.879659 4.378902 -0.762744
27.393805 8.631992 -0.501338
4.984418 1.562978 -1.399693
5.642233 1.767088 -1.365003
6.432142 2.013247 -1.310095
7.549126 2.359967 -1.252727
8.960867 2.797865 -1.152640
20.385239 6.364915 3.382427
11.042692 3.445762 -1.012052
13.929183 4.341120 -0.764628
27.376459 8.526824 -0.500500
5.008297 1.551287 -1.404870
5.636892 1.744912 -1.362304
6.461639 1.997739 -1.314674
7.530487 2.326758 -1.248347
8.981478 2.771644 -1.154103
11.054653 3.407191 -1.012052
13.909142 4.284325 -0.762744
27.367832 8.419442 -0.499802
5.013413 1.534671 -1.404870
5.628040 1.720665 -1.358704
6.471982 1.977452 -1.315437
7.542342 2.301608 -1.248973
8.964513 2.732176 -1.150690
11.073515 3.372838 -1.012750
13.946942 4.242726 -0.764000
27.354965 8.311065 -0.499034
4.996550 1.510452 -1.398658
5.637743 1.702137 -1.359604
6.448773 1.945773 -1.309331
7.557896 2.277549 -1.250224
8.966392 2.698576 -1.149715
11.066140 3.328428 -1.011007
13.996099 4.204355 -0.765884
27.353159 8.206352 -0.498476
4.994388 1.490790 -1.396588
5.654856 1.685786 -1.362304
6.455526 1.923249 -1.309331
7.562014 2.250024 -1.249599
8.990979 2.671791 -1.151665
11.043312 3.279567 -1.007869
14.102597 4.182744 -0.770909
27.324118 8.093776 -0.497428
5.010679 1.476625 -1.399693
5.656968 1.664935 -1.361404
6.477267 1.905136 -1.312384
7.539497 2.214704 -1.244593
8.981203 2.634800 -1.149228
11.062342 3.243238 -1.008566
14.220620 4.163794 -0.776561
27.348364 7.997231 -0.497359
5.004674 1.455886 -1.396588
5.644030 1.639745 -1.356905
6.476337 1.880324 -1.310858
7.562359 2.192779 -1.247096
8.994159 2.604535 -1.149715
11.069765 3.203503 -1.008218
14.284955 4.128543 -0.779282
27.303106 7.880638 -0.496032
5.009725 1.438409 -1.396588
5.657213 1.622181 -1.358704
6.497959 1.862033 -1.313911
7.569967 2.166366 -1.247096
9.007013 2.574217 -1.150203
11.061723 3.159368 -1.006474
14.333850 4.088519 -0.781167
27.291988 7.774321 -0.495334
5.018432 1.421967 -1.397623
5.662840 1.602425 -1.358704
6.466635 1.828657 -1.306278
7.562274 2.135635 -1.244593
9.000661 2.538448 -1.148253
11.072683 3.120739 -1.006474
14.363416 4.042784 -0.782004
27.292006 7.671437 -0.494846
5.023365 1.404440 -1.397623
5.664646 1.581598 -1.357805
6.488108 1.810292 -1.309331
7.592518 2.115586 -1.248347
9.007553 2.506484 -1.148009
11.071993 3.078863 -1.005429
14.373590 3.991556 -0.781795
27.075817 7.508794 -0.490448
5.017063 1.383815 -1.394517
5.673891 1.562849 -1.358704
6.494387 1.787635 -1.309331
7.569382 2.080691 -1.243341
9.031563 2.479228 -1.149959
11.055774 3.032814 -1.002988
14.398995 3.944521 -0.782423
27.190590 7.438516 -0.492053
5.029320 1.368321 -1.396588
27.319948 7.427801 0.494182
5.679311 1.543035 -1.358704
6.496798 1.763924 -1.308568
47.054573 12.766811 4.265576
7.584225 2.056325 -1.244593
9.017168 2.441463 -1.147034
11.085525 2.999410 -1.004731
14.401108 3.891113 -0.781795
27.247280 7.351884 -0.492612
5.037797 1.351760 -1.397623
27.399792 7.346885 0.495160
5.662075 1.517147 -1.353306
6.510501 1.743268 -1.310095
7.595173 2.030857 -1.245219
9.033306 2.412023 -1.148009
11.088227 2.958638 -1.004034
14.348985 3.823339 -0.778236
27.236729 7.252220 -0.491983
5.035015 1.332188 -1.395552
5.682146 1.502349 -1.356905
6.497565 1.715518 -1.306278
7.590406 2.002638 -1.243341
9.033578 2.380029 -1.147034
11.102340 2.920936 -1.004383
14.365447 3.776746 -0.778445
27.246399 7.153058 -0.491704
5.031928 1.313534 -1.393482
5.676042 1.479557 -1.354205
6.491819 1.690993 -1.303989
7.604997 1.978120 -1.244593
9.030303 2.345484 -1.145572
11.088824 2.878094 -1.002291
14.363077 3.722566 -0.777608
27.224743 7.045876 -0.490866
5.036482 1.295960 -1.393482
5.692496 1.462643 -1.356905
6.509091 1.671250 -1.306278
7.615683 1.952541 -1.245219
9.061511 2.319863 -1.148497
11.083361 2.835416 -1.000896
14.375981 3.672416 -0.777608
46.587353 11.892288 11.100434
27.222050 6.943874 -0.490378
5.037230 1.277422 -1.392447
5.697566 1.442768 -1.356905
6.499660 1.644668 -1.303226
7.587979 1.917233 -1.239587
9.065704 2.287244 -1.148009
11.081600 2.793785 -0.999851
14.342230 3.610507 -0.775096
46.575672 11.716272 11.087837
27.191816 6.835165 -0.489400
5.056653 1.263577 -1.396588
5.706349 1.423813 -1.357805
6.516791 1.624818 -1.305515
7.617626 1.896466 -1.243341
9.038957 2.246967 -1.143622
11.102884 2.757976 -1.000896
14.378010 3.566187 -0.776352
46.548180 11.536777 11.071641
27.207748 6.738276 -0.489261
5.049777 1.243151 -1.393482
5.696146 1.400162 -1.354205
6.518610 1.601125 -1.304752
7.601178 1.864216 -1.239587
9.050601 2.216344 -1.144109
11.100832 2.716358 -0.999851
46.669891 11.411425 9.338956
14.367086 3.510291 -0.775096
27.171661 6.633791 -0.488214
5.042821 1.222783 -1.390376
5.704545 1.382182 -1.355105
6.508893 1.574669 -1.301699
7.607319 1.838997 -1.239587
9.046323 2.183526 -1.142647
11.110247 2.677595 -0.999851
14.398066 3.467308 -0.776142
46.625637 11.219643 11.071641
27.163544 6.531430 -0.487655
5.043090 1.205155 -1.389341
5.705545 1.361357 -1.354205
6.517899 1.553985 -1.302462
7.617535 1.813348 -1.240213
9.057753 2.152851 -1.143134
11.107896 2.636034 -0.998805
14.406195 3.416103 -0.775933
27.170609 6.432878 -0.487376
5.043712 1.185780 -1.388305
5.710261 1.341434 -1.354205
6.535019 1.532776 -1.304752
7.624130 1.785414 -1.240213
9.072944 2.123031 -1.144109
11.085987 2.589988 -0.996016
14.383608 3.355115 -0.774049
27.072157 6.309846 -0.485212
5.044056 1.167294 -1.387270
5.699950 1.316985 -1.350606
6.532678 1.508187 -1.303226
7.630315 1.758792 -1.240213
9.076795 2.088874 -1.143622
11.094960 2.551277 -0.996016
14.422485 3.311140 -0.775514
27.048323 6.199863 -0.484374
5.055634 1.151397 -1.389341
5.700712 1.296217 -1.349706
6.541731 1.486246 -1.303989
7.644114 1.733896 -1.241464
9.056927 2.051037 -1.140210
11.115458 2.515174 -0.997062
14.418369 3.257257 -0.774677
27.073700 6.106295 -0.484444
5.044543 1.130362 -1.385200
5.716612 1.278864 -1.352406
6.527719 1.459118 -1.300173
7.642407 1.705483 -1.240213
9.071782 2.021134 -1.141185
11.104720 2.472031 -0.995319
14.429652 3.206904 -0.774677
27.210928 6.042497 -0.486538
5.044684 1.111916 -1.384164
5.713209 1.258222 -1.350606
6.536608 1.437167 -1.300936
7.605576 1.670804 -1.233329
9.078435 1.991037 -1.141185
11.105498 2.431546 -0.994621
14.412893 3.153056 -0.773212
5.040792 1.093544 -1.382094
5.709949 1.236620 -1.348807
6.545175 1.416315 -1.301699
7.626809 1.647580 -1.235832
9.081447 1.958505 -1.140697
11.125187 2.397221 -0.995667
14.396472 3.096856 -0.771746
5.052136 1.077552 -1.384164
37.032684 7.891810 0.660923
5.710417 1.215873 -1.347907
6.557761 1.395092 -1.303226
7.640241 1.622594 -1.237084
9.072693 1.923497 -1.138747
11.110096 2.353425 -0.993575
14.434553 3.052366 -0.773212
5.063430 1.061494 -1.386235
5.706997 1.194335 -1.346107
6.528000 1.364958 -1.296356
7.657462 1.598335 -1.238961
9.052145 1.886148 -1.135335
11.102638 2.311378 -0.992181
14.441207 3.001151 -0.773002
5.051966 1.040698 -1.382094
5.726403 1.177545 -1.349706
46.693287 9.593272 2.498205
6.525032 1.340587 -1.294830
7.647513 1.568418 -1.236458
9.078121 1.858518 -1.137772
11.122353 2.275001 -0.993227
14.392890 2.938733 -0.769862
5.047995 1.021523 -1.380023
5.719017 1.155235 -1.347007
46.796974 9.444435 2.501973
6.556614 1.323238 -1.300173
46.622021 9.400637 4.160989
7.637450 1.538595 -1.233955
9.092339 1.828381 -1.138747
11.102878 2.230671 -0.990786
14.442225 2.896325 -0.771955
5.062898 1.006157 -1.383129
5.719192 1.134505 -1.346107
46.661163 9.247643 2.492971
6.553490 1.298818 -1.298646
7.623396 1.508090 -1.230826
9.133719 1.803560 -1.143134
11.110598 2.191898 -0.990786
14.420893 2.839724 -0.770281
5.058796 0.986997 -1.381059
5.719291 1.113791 -1.345207
46.650036 9.076306 2.490669
6.565692 1.277432 -1.300173
7.636370 1.482978 -1.232078
9.077598 1.759576 -1.135335
11.118180 2.153104 -0.990786
14.430717 2.789371 -0.770281
5.069800 0.970784 -1.383129
5.734629 1.096016 -1.347907
46.626503 8.902909 2.487737
6.558542 1.252294 -1.297883
46.620049 8.893269 4.152274
7.637619 1.455572 -1.231452
9.079783 1.727139 -1.134847
11.106055 2.110558 -0.989043
14.424667 2.736007 -0.769443
5.050374 0.948802 -1.376917
5.726928 1.073835 -1.345207
46.657291 8.740108 2.487737
6.547435 1.226503 -1.294830
46.552891 8.712142 4.143559
7.662070 1.432534 -1.234581
9.066243 1.691790 -1.132410
11.101603 2.069589 -0.987997
14.410568 2.681251 -0.768187
5.072653 0.934669 -1.382094
5.730641 1.053839 -1.345207
46.687519 8.577178 2.487737
6.563262 1.205767 -1.297120
46.583019 8.549577 4.143559
7.647594 1.402219 -1.231452
9.083811 1.662274 -1.133873
11.108758 2.030827 -0.987997
14.411982 2.629494 -0.767769
5.053072 0.912836 -1.375882
5.718942 1.031061 -1.341608
46.646908 8.409917 2.484074
6.559702 1.181462 -1.295593
46.514530 8.369287 4.134842
7.652442 1.375513 -1.231452
9.085649 1.629856 -1.133385
11.100091 1.989224 -0.986603
14.401410 2.575658 -0.766722
5.071446 0.897885 -1.380023
5.714654 1.010732 -1.339808
46.550106 8.224807 2.477375
6.563787 1.158556 -1.295593
7.664744 1.351500 -1.232704
9.071453 1.596280 -1.130948
11.079494 1.945643 -0.984163
14.382332 2.523059 -0.765256
5.074396 0.881061 -1.380023
5.725827 0.992113 -1.341608
46.578533 8.062254 2.477375
6.552116 1.134102 -1.292540
7.669414 1.324742 -1.232704
9.057407 1.561230 -1.128510
11.105519 1.912274 -0.985906
14.355620 2.466747 -0.763372
5.069823 0.862046 -1.377953
5.725414 0.971466 -1.340708
46.606396 7.899603 2.477375
6.548293 1.109910 -1.291014
46.500027 7.873249 4.126127
7.685678 1.299937 -1.234581
9.054973 1.528285 -1.127535
11.104270 1.872169 -0.985209
46.213997 7.783319 9.109603
14.372022 2.417951 -0.763791
5.061367 0.842444 -1.374847
5.721080 0.950196 -1.338909
46.562752 7.725132 2.473607
6.544380 1.085765 -1.289487
46.527229 7.710873 4.126127
7.670681 1.269872 -1.231452
9.075921 1.499254 -1.129485
11.110737 1.833394 -0.985209
46.240879 7.621987 9.109603
14.396140 2.370360 -0.764628
5.068090 0.825391 -1.375882
5.724362 0.930221 -1.338909
6.563633 1.065429 -1.292540
7.678967 1.243722 -1.232078
9.085018 1.468195 -1.129973
11.117069 1.794601 -0.985209
14.412215 2.321360 -0.765047
46.193253 7.432050 10.801700
5.066984 0.807971 -1.374847
5.708169 0.908173 -1.334410
6.578764 1.045504 -1.294830
7.671342 1.216396 -1.230201
9.070230 1.434964 -1.127535
46.306984 7.317755 7.425319
11.103584 1.752675 -0.983465
14.372482 2.266099 -0.762535
5.077546 0.790584 -1.376917
5.726710 0.890636 -1.338009
46.513519 7.225616 2.466908
6.567031 1.018978 -1.291777
7.679654 1.188874 -1.230826
9.067335 1.402078 -1.126560
11.093882 1.711478 -0.982071
14.384639 2.214010 -0.762744
5.068816 0.771110 -1.373811
5.718376 0.867887 -1.335310
6.551137 0.993104 -1.287961
7.683757 1.162061 -1.230826
46.344254 7.000628 5.754915
9.072413 1.368837 -1.126560
11.103728 1.673338 -0.982419
14.380428 2.162006 -0.762116
5.075299 0.753981 -1.374847
5.744503 0.851348 -1.340708
6.554564 0.970232 -1.287961
7.676042 1.133500 -1.228949
9.092848 1.339473 -1.128510
46.186832 6.795573 7.394032
11.085848 1.631086 -0.980328
46.040539 6.765840 9.045491
14.379986 2.110632 -0.761698
5.081723 0.736816 -1.375882
5.743582 0.830734 -1.339808
46.460129 6.719851 2.460209
6.561797 0.947909 -1.288724
7.679951 1.106700 -1.228949
46.274097 6.659968 5.740290
9.093539 1.307157 -1.128023
46.134815 6.631681 7.382143
11.095419 1.592948 -0.980676
46.001686 6.596179 9.033280
14.367495 2.057588 -0.760651
5.068961 0.716910 -1.371741
5.738587 0.810591 -1.338009
46.412106 6.547577 2.456441
6.572842 0.926095 -1.290250
7.683579 1.081224 -1.228949
9.082096 1.274793 -1.126073
46.036392 6.453607 7.362745
11.104858 1.554757 -0.981025
14.326766 2.003304 -0.758139
5.075139 0.700623 -1.372776
5.722076 0.787898 -1.333510
46.433559 6.393642 2.456441
6.548648 0.900548 -1.284908
7.671649 1.052251 -1.226446
46.043022 6.307119 5.706167
9.070756 1.240928 -1.124123
11.113901 1.518460 -0.981374
14.337629 1.953818 -0.758348
5.081382 0.683417 -1.373811
5.751698 0.772549 -1.339808
46.455593 6.231530 2.456441
6.555643 0.878203 -1.285671
7.679013 1.027327 -1.227072
9.082692 1.211889 -1.125098
11.099383 1.477036 -0.979631
14.347989 1.906784 -0.758557
5.064466 0.664052 -1.368635
5.731171 0.749436 -1.334410
46.477062 6.069319 2.456441
6.562412 0.856968 -1.286434
7.655128 0.996946 -1.222692
9.094743 1.181198 -1.126073
11.100519 1.437768 -0.979282
14.350597 1.856172 -0.758348
5.074532 0.646463 -1.370706
5.722154 0.727949 -1.331710
46.355309 5.888934 2.448904
6.569405 0.833406 -1.287198
7.674409 0.970867 -1.225195
9.067298 1.145469 -1.122173
45.411537 5.728754 7.249487
11.089658 1.397016 -0.977887
45.333523 5.702860 8.881396
14.305780 1.797093 -0.755627
45.263317 5.677958 10.531758
5.076757 0.628745 -1.370706
5.740256 0.708883 -1.335310
46.320084 5.720221 2.445974
6.556686 0.808545 -1.284145
7.677751 0.944070 -1.225195
45.303013 5.562514 5.604284
9.071241 1.113809 -1.122173
45.223419 5.544752 7.216322
11.106332 1.359752 -0.978933
45.185562 5.524081 8.848577
14.323859 1.748608 -0.756255
45.131012 5.509440 10.496666
5.082651 0.612367 -1.371741
5.727096 0.687986 -1.331710
6.539838 0.784458 -1.280329
7.672994 0.917668 -1.223943
45.297554 5.409416 5.601359
9.067001 1.082778 -1.121198
11.094953 1.321033 -0.977539
14.285948 1.695915 -0.753952
45.110332 5.355143 10.487668
5.084653 0.595510 -1.371741
5.729346 0.668989 -1.331710
6.554236 0.762991 -1.282618
7.672071 0.891760 -1.223318
45.307358 5.258268 5.600384
9.058894 1.049757 -1.119736
11.099497 1.282293 -0.977539
14.279876 1.644662 -0.753324
5.079123 0.576000 -1.369671
36.580647 4.141977 0.642598
5.735632 0.648424 -1.332610
46.282181 5.224108 2.440949
6.556990 0.738959 -1.282618
7.661546 0.862090 -1.221128
45.251362 5.083762 5.591122
9.094244 1.020081 -1.123635
11.068480 1.237620 -0.974401
14.305656 1.594528 -0.754371
45.147499 5.032203 10.487668
5.085041 0.557803 -1.370706
36.595585 4.007865 0.642598
5.734096 0.626975 -1.331710
46.200863 5.051676 2.435716
6.571239 0.717349 -1.284908
7.652872 0.832723 -1.219250
45.218388 4.912288 5.584785
9.070122 0.985330 -1.120223
11.084619 1.200260 -0.975447
14.303193 1.543722 -0.753952
5.090705 0.541344 -1.371741
36.608673 3.886495 0.642598
5.728392 0.607134 -1.329911
46.217361 4.898428 2.435716
6.569677 0.695139 -1.284145
7.659520 0.807753 -1.219876
45.234425 4.762320 5.584785
9.071364 0.955041 -1.119979
11.104389 1.165161 -0.976842
14.288368 1.494208 -0.752905
5.104002 0.525648 -1.374847
5.730373 0.588135 -1.329911
6.556322 0.671750 -1.281092
7.658226 0.781949 -1.219250
45.249969 4.612278 5.584785
9.062794 0.922162 -1.118517
45.171597 4.588382 7.191293
11.112354 1.126792 -0.977190
45.067074 4.569797 8.805073
14.277349 1.445204 -0.752068
45.003036 4.547456 10.442677
5.086670 0.505028 -1.369671
5.740149 0.568896 -1.331710
46.250431 4.575651 2.435716
6.562647 0.648100 -1.281855
7.633519 0.751164 -1.214870
45.265793 4.454308 5.584785
9.065957 0.890523 -1.118517
45.136227 4.425652 7.183159
11.084492 1.084892 -0.974401
45.083519 4.404597 8.805073
14.298452 1.394420 -0.752905
45.019405 4.382469 10.442677
5.092248 0.487636 -1.370706
5.757715 0.549336 -1.335310
6.553144 0.624069 -1.279565
7.671492 0.727874 -1.220502
9.053349 0.855792 -1.116567
45.143536 4.267314 7.181907
11.104080 1.047693 -0.975796
45.098621 4.247187 8.805073
14.291303 1.343375 -0.752277
45.034428 4.225305 10.442677
5.086225 0.469151 -1.368635
5.720694 0.526665 -1.326311
46.181805 4.243513 2.430482
6.547462 0.600478 -1.278039
7.638455 0.699187 -1.214870
45.394627 4.147214 5.596972
9.052184 0.825411 -1.116079
45.315536 4.124040 7.206937
11.091796 1.007482 -0.974401
14.271808 1.293815 -0.751021
5.103147 0.453649 -1.372776
5.741910 0.508410 -1.330810
46.096153 4.081525 2.425249
6.561151 0.579798 -1.280329
7.640849 0.672517 -1.214870
9.027325 0.791379 -1.112667
11.087137 0.969997 -0.973704
14.260320 1.242605 -0.750184
5.097000 0.435174 -1.370706
5.735797 0.488706 -1.329011
6.563135 0.556890 -1.280329
7.654847 0.648177 -1.216747
45.520702 3.846505 5.609159
9.029900 0.761436 -1.112667
11.074571 0.929963 -0.972309
14.256401 1.194638 -0.749765
45.269089 3.785440 10.487668
5.083012 0.417007 -1.366565
5.737468 0.468682 -1.329011
6.557118 0.534486 -1.278802
7.649187 0.620815 -1.215496
45.533852 3.687573 5.609159
9.020631 0.728950 -1.111205
11.041848 0.890348 -0.969172
14.268448 1.145502 -0.750184
5.084436 0.399263 -1.366565
5.750647 0.450568 -1.331710
46.135738 3.606651 2.425249
6.547200 0.510679 -1.276512
7.631510 0.593915 -1.212367
45.617085 3.542077 5.617934
9.042790 0.700572 -1.113642
11.064754 0.853328 -0.970915
14.240306 1.095731 -0.748509
5.105130 0.382065 -1.371741
36.313377 2.711317 0.635617
5.721241 0.426166 -1.324512
6.568606 0.488133 -1.280329
7.637674 0.564898 -1.212993
45.658066 3.368950 5.621346
9.029575 0.664677 -1.111692
11.043962 0.811020 -0.968823
45.619610 3.342098 8.891318
14.216521 1.039010 -0.747044
45.594471 3.324257 10.554254
5.087163 0.362869 -1.366565
36.134678 2.577499 0.632336
5.745949 0.408853 -1.329911
6.570270 0.465202 -1.280329
7.631623 0.539012 -1.211741
45.767994 3.224486 5.633533
9.015889 0.633618 -1.109742
45.746105 3.206920 7.263253
11.042751 0.772183 -0.968475
45.697025 3.195443 8.904293
14.199964 0.990473 -0.745997
5.092194 0.346258 -1.367600
36.063648 2.445927 0.630939
5.743453 0.388528 -1.329011
6.556106 0.442353 -1.277275
7.629517 0.512103 -1.211116
45.838390 3.068694 5.640845
9.025969 0.602670 -1.110717
45.733368 3.045629 7.259499
11.029476 0.732578 -0.967080
45.649136 3.032017 8.892844
14.211307 0.941425 -0.746415
45.639378 3.015369 10.559652
5.085717 0.327097 -1.365529
5.733105 0.367730 -1.326311
6.565521 0.418819 -1.278802
7.651056 0.485388 -1.214244
45.888447 2.911193 5.645720
9.024055 0.570906 -1.110230
45.751606 2.886478 7.260750
11.024011 0.693576 -0.966383
45.757915 2.870820 8.911925
14.194727 0.888087 -0.745369
5.090684 0.309576 -1.366565
5.730524 0.346481 -1.325412
45.992779 2.780833 2.414781
6.559104 0.395427 -1.277275
7.621154 0.456789 -1.209239
45.871059 2.741314 5.642307
9.026087 0.537830 -1.110230
45.753513 2.726276 7.259499
11.010453 0.654142 -0.964988
45.681423 2.705979 8.895135
14.213691 0.839471 -0.746206
5.091734 0.291805 -1.366565
5.735532 0.327697 -1.326311
45.930416 2.616170 2.411013
6.564365 0.372753 -1.278039
7.622627 0.431511 -1.209239
45.808552 2.585168 5.633533
