# This PCD file was generated using the MATLAB® pcwrite function
# from Computer Vision Toolbox®.
# .PCD v.7 - Point Cloud Data file format
VERSION .7
FIELDS x y z
SIZE 4 4 4
TYPE F F F
COUNT 1 1 1
WIDTH 1595
HEIGHT 1
VIEWPOINT 0 0 0 1 0 0 0
POINTS 1595
DATA ascii
-23.814861 -6.145638 5.678215
-12.053776 -3.108344 -0.217282
-7.693367 -1.971030 -2.128010
-12.433065 -3.183019 0.224019
-8.633546 -2.208689 -2.057402
-11.654690 -2.979408 0.630439
-10.450523 -2.669634 -2.096609
-11.773502 -3.007595 1.063126
-11.537597 -2.945187 -1.885974
-12.479669 -3.183346 1.581377
-18.712643 -4.769795 -2.371090
-12.390982 -3.156120 2.025201
-12.264622 -3.121653 -1.107226
-11.635610 -2.957232 -0.629183
-24.026094 -6.106319 5.723205
-12.041830 -3.058234 -0.216864
-7.694921 -1.941400 -2.126457
-11.913355 -3.003486 0.214455
-8.777642 -2.211307 -2.089795
-11.668891 -2.939685 0.630648
-10.494047 -2.641765 -2.103478
-11.900378 -2.993586 1.073584
-11.603870 -2.916845 -1.895047
-12.319902 -3.094547 1.559684
-18.744579 -4.708315 -2.373040
-12.605014 -3.163820 2.058365
-12.482225 -3.130688 -1.125878
-11.572239 -2.898157 -0.625205
-24.236301 -6.069751 5.768195
-12.450105 -3.115704 -0.224019
-7.706940 -1.917270 -2.128010
-8.921097 -2.216012 -2.122188
-11.715405 -2.910122 0.632637
-10.533237 -2.614518 -2.109584
-11.871564 -2.944513 1.070098
-11.745778 -2.911138 -1.916635
-12.407170 -3.072763 1.569433
-18.798628 -4.655674 -2.377915
-12.523394 -3.099227 2.043347
-12.301060 -3.041927 -1.108621
-11.702006 -2.889453 -0.631695
-12.609862 -3.111286 -0.226707
-7.707628 -1.890322 -2.126457
-12.737094 -3.121459 0.228906
-9.064678 -2.219792 -2.154581
-12.290038 -3.007353 0.663097
-10.599059 -2.593573 -2.121033
-11.908359 -2.911754 1.072539
-11.885855 -2.904056 -1.937910
-12.521429 -3.057027 1.582595
-18.853334 -4.599434 -2.382790
-12.342218 -3.008709 2.012060
-12.283978 -2.994512 -1.106181
-11.707642 -2.849687 -0.631486
-15.791839 -3.837959 -0.283671
-7.719812 -1.864766 -2.128010
-12.032566 -2.904318 0.216061
-9.172776 -2.212350 -2.178426
-12.498510 -3.012165 0.673773
-10.621408 -2.559779 -2.123704
-12.205127 -2.939208 1.098337
-13.424682 -3.230416 -2.186954
-12.354456 -2.970604 1.560171
-18.888575 -4.538237 -2.385227
-12.410270 -2.979442 2.021446
-12.132264 -2.910460 2.425183
-15.947709 -3.822824 -0.859461
-12.331780 -2.951495 -0.221331
-7.737551 -1.840492 -2.131116
-12.779975 -3.037551 0.229290
-9.269556 -2.201481 -2.199572
-12.404011 -2.943618 0.668121
-10.678034 -2.534023 -2.133245
-12.773640 -3.028977 1.148538
-13.457020 -3.188545 -2.190396
-12.318390 -2.916487 1.554322
-18.969982 -4.487810 -2.393514
-12.493645 -2.953372 2.033335
-25.745398 -6.085953 -2.314508
-12.272275 -2.898784 2.451133
-16.357502 -3.860721 -0.880814
-12.809140 -3.018515 -0.229709
-7.770261 -1.819638 -2.138363
-15.019931 -3.514595 0.269256
-9.307545 -2.176212 -2.206770
-12.112753 -2.829873 0.651897
-10.700196 -2.499861 -2.135916
-12.011926 -2.804103 1.079162
-13.466144 -3.141106 -2.190083
-12.401959 -2.890593 1.563584
-19.062868 -4.439575 -2.403264
-12.296088 -2.861392 1.999546
-26.018751 -6.054759 -2.337168
-12.167585 -2.829247 2.428236
-16.331972 -3.794559 -0.878721
-12.507924 -2.901481 -0.224124
-7.744564 -1.785127 -2.129563
-14.790471 -3.406495 0.264928
-9.330276 -2.147205 -2.210369
-11.906022 -2.739969 0.640278
-10.718425 -2.464692 -2.137824
-11.971154 -2.750559 1.074630
-13.475101 -3.093639 -2.189770
-11.727042 -2.690159 1.477300
-12.576939 -2.882816 -1.584302
-12.282405 -2.815304 1.995791
-26.307739 -6.025281 -2.361223
-12.146766 -2.779749 2.422129
-11.981876 -2.739817 -0.644151
-12.626645 -2.884933 -0.226078
-7.745096 -1.756800 -2.128010
-12.816428 -2.907117 0.229394
-9.346848 -2.118407 -2.212619
-11.140237 -2.522823 0.598619
-10.707814 -2.422932 -2.134008
-13.529600 -3.058955 -2.196966
-11.770752 -2.659132 1.481688
-12.667756 -2.859451 -1.594539
-26.655146 -6.006993 -2.390508
-12.203279 -2.747892 -0.655560
-15.629478 -3.513656 -0.279622
-7.754651 -1.731949 -2.129046
-12.564971 -2.803999 0.224717
-9.348480 -2.084494 -2.211269
-12.474608 -2.779263 0.669796
-10.641055 -2.370759 -2.119125
-12.055721 -2.683729 1.080557
-13.513201 -3.005705 -2.192586
-11.741206 -2.609414 1.476813
-12.844319 -2.852222 -1.615500
-26.917150 -5.967392 -2.412122
-12.387745 -2.746298 2.466397
-18.140770 -4.018393 -0.973763
-18.449371 -4.079996 -0.329816
-7.777928 -1.707242 -2.133704
-12.148884 -2.666660 0.217108
-9.363313 -2.053521 -2.213068
-13.001242 -2.848995 0.697534
-10.665015 -2.335101 -2.122178
-11.948695 -2.613977 1.070098
-13.597460 -2.972185 -2.204475
-12.215676 -2.670150 1.535310
-19.211477 -4.195806 -2.414475
-27.272638 -5.946399 -2.442104
-12.497477 -2.722607 2.486241
-12.542687 -2.730160 -0.672726
-11.663524 -2.536664 -0.208347
-7.787616 -1.680899 -2.134739
-12.393147 -2.672701 0.221297
-9.382208 -2.021650 -2.215768
-10.661585 -2.295382 -2.119888
-12.736880 -2.739853 1.139823
-13.661827 -2.936325 -2.213235
-12.477690 -2.679544 1.566996
-15.977631 -3.428225 -2.006457
-16.044756 -3.439699 -1.435629
-12.403241 -2.656758 2.465634
-12.047760 -2.576220 -0.215049
-7.763201 -1.647289 -2.126457
-12.750135 -2.705476 0.227510
-9.388860 -1.990526 -2.215768
-12.295915 -2.604609 0.658700
-10.677217 -2.259775 -2.121415
-12.746367 -2.695376 1.139823
-13.756526 -2.908986 -2.227001
-11.367790 -2.401789 1.426603
-16.019989 -3.381782 -2.010357
-16.009878 -3.373815 -1.431446
-12.953722 -2.729781 2.573250
-16.047642 -3.378844 -0.859461
-12.115389 -2.546492 -0.216096
-7.776185 -1.623114 -2.128528
-11.929489 -2.487854 0.212710
-9.397657 -1.958140 -2.216218
-12.128510 -2.527153 0.649280
-10.746156 -2.237162 -2.133626
-11.947671 -2.485118 1.067658
-13.832354 -2.874618 -2.237639
-13.635105 -2.828658 -1.709827
-16.090631 -3.329281 -0.861136
-12.182514 -2.518446 -0.217143
-7.755309 -1.590525 -2.121281
-12.066963 -2.474795 0.215014
-9.407919 -1.927747 -2.217118
-12.614688 -2.582543 0.674820
-10.942396 -2.238190 -2.171025
-16.215631 -3.313849 1.448005
-13.961802 -2.853254 -2.257037
-16.292967 -3.326691 2.041799
-13.685256 -2.791759 -1.714946
-28.812372 -5.867187 -2.572489
-20.548260 -4.180590 -1.098951
-16.279142 -3.306116 -0.289954
-7.798689 -1.571076 -2.131634
-13.412931 -2.699651 0.238819
-9.407279 -1.891716 -2.215318
-11.883895 -2.387582 0.635254
-11.173419 -2.244841 -2.215292
-12.027237 -2.414197 1.073236
-14.053514 -2.818372 -2.270177
-12.034632 -2.411312 1.507036
-13.496857 -2.701840 -1.690084
-16.334856 -3.266990 2.638424
-29.192160 -5.838466 -2.604562
-20.089462 -4.010628 -1.073620
-12.298282 -2.450743 -0.218888
-7.788965 -1.540844 -2.127493
-12.135367 -2.398466 0.215921
-9.446326 -1.865284 -2.222966
-12.405543 -2.447366 0.662678
-11.416174 -2.252183 -2.261850
-12.074687 -2.379905 1.076722
-13.640747 -2.686101 -2.201972
-12.716900 -2.501873 1.591370
-19.462646 -3.825478 -2.435437
-29.697212 -5.831741 -2.647791
-20.021019 -3.924338 -1.069224
-12.326385 -2.411641 -0.219237
-7.786711 -1.512173 -2.125422
-12.029806 -2.334003 0.213897
-9.445127 -1.830815 -2.221167
-12.490483 -2.418857 0.666760
-11.630203 -2.252258 -2.302683
-13.622888 -2.633220 -2.197592
-12.027785 -2.322719 1.504112
-19.495375 -3.761273 -2.437875
-30.047071 -5.786158 -2.677076
-19.795319 -3.808393 -1.056454
-30.060135 -5.772353 -0.534288
-7.792202 -1.483623 -2.125422
-12.083063 -2.300597 0.214700
-9.447631 -1.797106 -2.220267
-12.516509 -2.378600 0.667702
-11.717460 -2.224630 -2.318329
-13.628565 -2.582540 -2.196966
-12.098230 -2.292549 1.511911
-19.531792 -3.697634 -2.440799
-30.521286 -5.767052 -2.717516
-19.934755 -3.759507 -1.063153
-12.409737 -2.338114 -0.220424
-7.797333 -1.456414 -2.125422
-12.120899 -2.261799 0.215223
-9.450323 -1.761752 -2.219367
-13.467183 -2.510585 0.717945
-11.750246 -2.188387 -2.323290
-14.387153 -2.674294 -2.317733
-12.949698 -2.404761 1.617206
-19.572538 -3.631090 -2.444212
-30.987886 -5.743267 -2.757259
-12.185787 -2.251904 -0.216305
-7.802369 -1.429189 -2.125422
-13.269175 -2.430564 0.235468
-9.442694 -1.727950 -2.216218
-11.782920 -2.151946 -2.328252
-12.836257 -2.342001 1.141566
-14.419262 -2.630824 -2.321488
-12.895108 -2.350414 1.609407
-19.678213 -3.583234 -2.455911
-31.540939 -5.731961 -2.804672
-31.870569 -5.786120 -1.697569
-12.984571 -2.352675 -0.230337
-7.818472 -1.405358 -2.128528
-13.328752 -2.393420 0.236375
-9.471686 -1.699105 -2.221617
-11.774532 -2.110087 -2.325199
-14.455581 -2.585344 -2.325868
-12.954041 -2.314465 1.615744
-19.729685 -3.521503 -2.460786
-31.999144 -5.705678 -2.843718
-32.006588 -5.695479 -1.703745
-13.165558 -2.340402 -0.233408
-7.815721 -1.376717 -2.126457
-20.910833 -3.683384 0.370619
-9.473431 -1.667013 -2.220717
-11.793427 -2.071013 -2.327488
-12.875450 -2.258705 1.143658
-14.506879 -2.544902 -2.332751
-12.961645 -2.271494 1.615744
-18.806593 -3.292428 -2.344279
-20.140833 -3.518760 -1.788784
-32.615555 -5.692333 -1.735147
-13.201229 -2.299235 -0.233897
-7.808821 -1.348818 -2.123352
-20.036806 -3.457358 0.354912
-9.475350 -1.633270 -2.219817
-11.961314 -2.059630 0.636091
-11.811839 -2.033892 -2.329778
-12.937847 -2.225456 1.148538
-14.465055 -2.485550 -2.324616
-18.853191 -3.232799 -2.348666
-20.376871 -3.486747 -1.808656
-19.539398 -3.339930 -1.038869
-13.201289 -2.251798 -0.233758
-7.825142 -1.322118 -2.126457
-12.358929 -2.088135 0.218783
-9.475229 -1.599214 -2.218467
-11.909347 -2.007903 0.632951
-11.826958 -1.991887 -2.331304
-14.474068 -2.432519 -2.324616
-18.981823 -3.186684 -2.363290
-20.357479 -3.410330 -1.805867
-19.346636 -3.234049 -1.027983
-13.086781 -2.185283 -0.231593
-7.825898 -1.294166 -2.125422
-12.366499 -2.042827 0.218783
-9.475260 -1.563523 -2.217118
-11.841587 -1.951870 -2.332831
-14.455183 -2.377488 -2.320236
-19.067812 -3.129311 -2.372553
-20.324039 -3.331829 -1.801858
-20.378819 -3.333511 -1.082203
-20.439783 -3.339815 -0.361509
-7.845623 -1.269309 -2.129563
-12.317933 -1.992864 0.217806
-9.495783 -1.534580 -2.220717
-20.705175 -3.342383 1.099160
-11.859958 -1.912398 -2.335121
-14.443484 -2.326402 -2.317107
-19.066326 -3.064172 -2.371090
-20.227346 -3.243519 -1.792271
-20.338486 -3.257700 -1.079482
-20.403927 -3.260878 -0.360671
-7.842157 -1.242075 -2.127493
-13.087214 -2.070470 0.231279
-9.497231 -1.500818 -2.219817
-12.442657 -1.964046 0.660166
-11.893385 -1.877344 -2.340463
-14.510057 -2.285189 -2.326494
-19.433813 -3.053681 -2.415451
-20.080528 -3.151710 -1.778326
-20.359863 -3.180991 -0.359694
-7.854082 -1.215876 -2.129563
-11.971874 -1.851207 0.211453
-9.510116 -1.468844 -2.221617
-11.903746 -1.836415 -2.341227
-14.787375 -2.275995 -2.369670
-19.636639 -3.015357 -2.439337
-19.740860 -3.027829 -1.747298
-29.323956 -4.487197 -1.554692
-19.477335 -2.973495 -0.343917
-7.846817 -1.186721 -2.126457
-12.875941 -1.945004 0.227300
-9.501696 -1.433604 -2.218467
-20.636343 -3.109906 1.093717
-11.929496 -1.797780 -2.345043
-15.139031 -2.276051 -2.424735
-19.599930 -2.939722 -2.433487
-19.621262 -2.939420 -1.735794
-19.703827 -2.944757 -1.044102
-20.278728 -3.023446 -0.357879
-7.854733 -1.159887 -2.127493
-13.013221 -1.919303 0.229604
-9.502788 -1.399862 -2.217567
-11.947352 -1.757842 -2.347332
-15.553407 -2.282863 -2.489811
-19.612038 -2.871574 -2.433731
-19.706318 -2.881871 -1.742418
-19.844423 -2.894988 -1.051011
-20.720549 -3.015415 -0.365488
-7.862559 -1.133011 -2.128528
-13.031716 -1.875579 0.229813
-9.499900 -1.365573 -2.215768
-12.152549 -1.744713 0.643418
-11.910664 -1.709986 -2.338937
-15.803755 -2.263283 -2.528607
-20.250784 -2.892936 -2.511727
-29.475763 -4.205526 -2.604911
-20.198462 -2.874671 -1.069224
-19.721226 -2.799723 -0.347687
-7.854988 -1.103947 -2.125422
-13.081750 -1.836193 0.230581
-9.510399 -1.333215 -2.217118
-11.908782 -1.667313 -2.337410
-15.881988 -2.217934 -2.539870
-20.429846 -2.845783 -2.532689
-29.817846 -4.148175 -2.633847
-20.702951 -2.872776 -1.095392
-20.000271 -2.768155 -0.352434
-7.854965 -1.075997 -2.124387
-13.044493 -1.784554 0.229813
-9.511132 -1.299482 -2.216218
-20.491247 -2.799666 1.083878
-11.914530 -1.625733 -2.337410
-15.940524 -2.169412 -2.548005
-20.679636 -2.807025 -2.562425
-21.784771 -2.953163 -1.923353
-20.518887 -2.774261 -1.085134
-21.111172 -2.850589 -0.371841
-7.854844 -1.048060 -2.123352
-20.106718 -2.682809 0.354074
-9.513457 -1.267677 -2.215768
-11.912348 -1.583099 -2.335884
-15.959380 -2.118098 -2.549882
-20.917109 -2.768649 -2.590699
-22.300611 -2.943853 -1.967977
-20.607178 -2.716648 -1.089321
-21.370804 -2.809728 -0.376239
-7.881265 -1.024996 -2.129563
-20.262705 -2.631670 0.356657
-9.521689 -1.234962 -2.216668
-11.917532 -1.543587 -2.335884
-16.009775 -2.067943 -2.556765
-21.158968 -2.725543 -2.619460
-22.314205 -2.870393 -1.968325
-20.992929 -2.692977 -1.109208
-20.475994 -2.619405 -0.360322
-7.880960 -0.996996 -2.128528
-20.989954 -2.651647 0.369293
-9.535610 -1.202937 -2.218917
-21.240742 -2.675802 1.121978
-11.907264 -1.500017 -2.332831
-16.009058 -2.011061 -2.555514
-21.416533 -2.682756 -2.650171
-32.564854 -4.073485 -2.871259
-20.707266 -2.575553 -0.364232
-7.876724 -0.968537 -2.126457
-9.530078 -1.168460 -2.216668
-11.916325 -1.458921 -2.333594
-16.066959 -1.961393 -2.563648
-21.555824 -2.623812 -2.666258
-32.563053 -3.957871 -2.869864
-29.299122 -3.550773 -1.546737
-21.121120 -2.552197 -0.371352
-7.872384 -0.940118 -2.124387
-31.198198 -3.720164 0.548424
-9.541840 -1.136108 -2.218467
-11.917446 -1.416850 -2.332831
-16.058016 -1.903437 -2.561146
-21.746218 -2.569990 -2.688682
-36.779346 -4.340113 -3.240102
-20.136862 -2.361975 -0.353900
-7.875617 -0.912634 -2.124387
-9.545748 -1.102791 -2.218467
-11.922318 -1.375244 -2.332831
-16.064564 -1.847368 -2.561146
-21.877331 -2.508084 -2.703794
-36.687382 -4.199458 -3.230689
-29.120790 -3.323050 -1.536061
-21.257637 -2.418243 -0.373447
-7.897953 -0.887294 -2.129563
-9.541792 -1.068598 -2.216668
-11.930949 -1.334055 -2.333594
-16.047356 -1.788654 -2.557391
-21.747847 -2.416352 -2.686732
-31.505661 -3.494953 -2.773296
-31.637486 -3.498399 -1.668157
-20.009747 -2.205566 -0.351387
-7.904843 -0.860137 -2.130599
-9.564838 -1.037386 -2.221167
-11.927725 -1.291554 -2.332067
-16.014219 -1.728392 -2.551134
-21.870625 -2.352737 -2.700869
-27.595293 -2.963705 -2.428159
-20.088909 -2.143338 -0.352643
-7.894349 -0.831125 -2.126975
-9.566463 -1.003788 -2.220717
-11.936066 -1.250322 -2.332831
-16.024086 -1.672891 -2.551759
-22.396006 -2.330208 -2.764728
-27.603491 -2.867154 -2.427985
-7.887592 -0.802583 -2.124387
-9.577664 -0.971177 -2.222516
-11.948171 -1.209438 -2.334357
-16.002312 -1.614174 -2.547379
-18.264112 -1.835881 -2.253852
-29.831673 -2.993376 -2.623039
-20.258591 -2.018508 -0.355366
-7.894191 -0.775423 -2.125422
-9.567419 -0.936408 -2.219367
-11.960136 -1.168487 -2.335884
-15.988187 -1.556387 -2.544250
-18.136055 -1.759084 -2.237278
-29.400984 -2.836174 -1.547993
-7.900696 -0.748228 -2.126457
-9.564809 -0.902456 -2.218017
-11.960233 -1.126363 -2.335121
-16.017124 -1.502783 -2.548005
-18.122318 -1.693918 -2.234840
-18.443157 -1.720661 -1.620574
-19.252489 -1.789390 -1.013329
-21.211681 -1.967749 -0.371841
-7.922498 -0.722399 -2.131634
-9.563869 -0.870380 -2.217118
-11.952360 -1.083546 -2.332831
-16.029892 -1.450371 -2.549257
-18.153536 -1.636133 -2.238009
-18.435160 -1.655024 -1.619354
-19.278208 -1.727322 -1.014376
-30.767006 -2.745883 -0.539175
-7.905606 -0.694433 -2.126457
-9.578496 -0.838009 -2.219817
-11.955888 -1.043904 -2.332831
-16.023046 -1.393380 -2.547379
-18.093874 -1.567098 -2.229965
-18.380995 -1.588734 -1.614124
-30.776403 -2.638476 -0.539175
-7.915681 -0.667482 -2.128528
-9.571653 -0.803755 -2.217567
-11.975110 -1.003475 -2.335884
-16.035688 -1.338102 -2.548631
-17.972624 -1.493408 -2.214366
-18.565130 -1.539384 -1.629812
-7.925665 -0.640471 -2.130599
-9.584112 -0.771120 -2.219817
-11.986368 -0.962293 -2.337410
-16.000879 -1.278970 -2.542373
-18.127481 -1.439401 -1.590941
-31.691164 -2.494147 -0.554882
-7.927853 -0.612799 -2.130599
-54.709187 -4.219250 0.957788
-9.575089 -0.736763 -2.217118
-11.981824 -0.919848 -2.335884
-16.021004 -1.224313 -2.544876
-18.070810 -1.371437 -1.585537
-7.941504 -0.585975 -2.133704
-54.767460 -4.031482 0.958556
-9.579545 -0.703478 -2.217567
-11.988877 -0.878305 -2.336647
-16.052761 -1.170392 -2.549257
-7.924229 -0.556896 -2.128528
-9.585712 -0.671982 -2.218467
-11.991871 -0.836450 -2.336647
-16.052614 -1.116881 -2.548631
-18.035074 -1.248484 -2.219728
-18.077955 -1.245112 -1.585363
-30.817396 -2.106326 -0.539175
-7.922177 -0.530356 -2.127493
-9.597723 -0.639162 -2.220717
-11.978907 -0.795638 -2.333594
-16.048529 -1.060315 -2.547379
-18.130442 -1.191514 -2.230941
-18.081985 -1.185156 -1.585363
-7.920125 -0.502457 -2.126457
-9.578502 -0.604306 -2.215768
-12.001205 -0.755054 -2.337410
-16.056076 -1.004535 -2.548005
-18.082977 -1.125010 -2.224603
-18.062149 -1.120550 -1.583271
-38.012756 -2.331630 -0.664762
-7.941114 -0.475963 -2.131634
-9.596115 -0.571796 -2.219367
-12.011606 -0.713623 -2.338937
-16.067373 -0.948952 -2.549257
-18.047159 -1.059555 -2.219728
-18.089817 -1.058896 -1.585363
-38.120483 -2.204689 -0.666507
-7.950443 -0.448675 -2.133704
-9.607781 -0.538842 -2.221617
-11.998343 -0.670810 -2.335884
-16.086365 -0.893737 -2.551759
-17.943716 -0.990647 -2.206567
-18.105341 -0.996400 -1.586409
-83.777657 -4.551898 -1.464501
-7.944243 -0.420512 -2.131634
-9.595981 -0.504584 -2.218467
-12.012375 -0.629543 -2.338174
-16.085440 -0.837374 -2.551134
-17.927238 -0.926980 -2.204129
-18.072893 -0.931344 -1.583271
-7.937945 -0.392397 -2.129563
-9.615119 -0.473623 -2.222516
-11.998812 -0.586841 -2.335121
-16.099968 -0.784604 -2.553011
-17.922285 -0.867141 -2.203154
-18.048172 -0.866918 -1.580831
-83.682846 -3.975652 -1.462337
-7.950782 -0.366605 -2.132669
-9.605033 -0.439524 -2.219817
-12.032072 -0.548478 -2.341227
-16.094715 -0.728043 -2.551759
-17.964863 -0.806355 -2.208029
-18.054928 -0.807236 -1.581179
-83.676247 -3.682659 -1.461988
-7.948153 -0.338685 -2.131634
-9.606508 -0.405991 -2.219817
-12.014298 -0.505649 -2.337410
-16.112947 -0.672516 -2.554262
-17.951702 -0.742988 -2.206079
-83.660614 -3.389416 -1.461499
-7.949286 -0.310940 -2.131634
-9.613709 -0.372682 -2.221167
-12.015989 -0.463711 -2.337410
-16.130987 -0.616870 -2.556765
-17.977991 -0.681218 -2.209004
-18.014330 -0.679447 -1.577170
-83.651962 -3.096623 -1.461150
-7.938739 -0.282777 -2.128528
-9.626637 -0.339536 -2.223866
-11.986141 -0.420662 -2.331304
-16.156733 -0.561386 -2.560519
-17.928677 -0.616684 -2.202667
-18.026548 -0.616905 -1.578042
-83.626289 -2.803396 -1.460522
-7.935772 -0.256325 -2.127493
-9.612128 -0.307113 -2.220267
-12.014942 -0.381785 -2.336647
-16.126917 -0.506811 -2.555514
-18.032478 -0.557242 -1.578390
-83.627129 -2.525841 -1.460382
-7.948205 -0.228956 -2.130599
-9.607298 -0.273392 -2.218917
-12.031902 -0.340286 -2.339700
-16.140436 -0.450845 -2.557391
-17.984053 -0.496056 -2.209004
-18.062199 -0.495061 -1.580831
-83.649422 -2.234264 -1.460627
-7.952818 -0.201308 -2.131634
-9.614038 -0.240000 -2.220267
-12.036942 -0.298382 -2.340463
-16.137960 -0.394405 -2.556765
-18.075768 -0.432295 -1.581877
-83.658707 -1.942304 -1.460662
-7.953472 -0.173546 -2.131634
-9.610920 -0.206357 -2.219367
-12.010431 -0.255778 -2.335121
-16.162937 -0.338563 -2.560519
-17.923567 -0.369188 -2.201204
-18.099077 -0.369639 -1.583794
-83.650986 -1.650010 -1.460417
-7.942440 -0.145569 -2.128528
-9.623272 -0.173015 -2.222066
-12.011250 -0.213852 -2.335121
-16.156122 -0.282007 -2.559268
-18.109333 -0.309778 -2.223872
-18.347277 -0.310645 -1.605409
-83.648247 -1.357871 -1.460278
-7.946764 -0.117903 -2.129563
-9.608230 -0.139197 -2.218467
-12.035481 -0.172263 -2.339700
-16.168859 -0.225775 -2.561146
-18.116261 -0.246643 -2.224603
-18.342276 -0.246518 -1.604886
-83.712456 -1.066638 -1.461325
-7.966443 -0.090382 -2.134739
-9.600863 -0.105573 -2.216668
-12.032082 -0.130207 -2.338937
-16.169548 -0.169333 -2.561146
-18.047533 -0.182700 -2.216072
-18.613974 -0.185185 -1.628592
-83.715668 -0.774418 -1.461325
-7.955120 -0.062480 -2.131634
-9.616762 -0.072176 -2.220267
-12.040317 -0.088261 -2.340463
-16.181892 -0.112976 -2.563023
-18.081808 -0.119925 -2.220216
-83.563896 -0.481302 -1.458637
-7.959154 -0.034728 -2.132669
-9.620853 -0.038622 -2.221167
-12.036625 -0.046217 -2.339700
-16.174286 -0.056458 -2.561771
-18.161520 -0.057060 -2.229965
-19.271486 -0.050457 -1.009979
-83.421051 -0.203837 -1.456124
-7.955362 -0.006943 -2.131634
-9.636518 -0.006729 -2.224766
-12.036713 -0.004203 -2.339700
-16.182287 -0.002827 -2.563023
-18.292625 0.003190 -2.246052
-18.519258 0.009698 -1.620225
-20.146347 0.014061 -1.055826
-83.729202 0.087683 -1.461499
-7.959206 0.019448 -2.132669
-9.632586 0.026896 -2.223866
-12.020953 0.035666 -2.336647
-16.198002 0.053717 -2.565526
-83.616516 0.350240 -4.382195
-83.662460 0.365054 -1.460348
-7.955225 0.047208 -2.131634
-9.609058 0.058699 -2.218467
-12.044315 0.077779 -2.341227
-16.205635 0.107480 -2.566777
-24.338625 0.169916 -2.988480
-82.979782 0.622757 -4.348909
-83.660683 0.657071 -1.460348
-7.955025 0.073588 -2.131634
-9.622436 0.092371 -2.221617
-12.063622 0.117911 -2.345043
-16.205160 0.164048 -2.566777
-24.437132 0.255913 -3.000667
-83.703873 0.949621 -1.461150
-7.954720 0.101356 -2.131634
-9.631798 0.126087 -2.223866
-12.027802 0.159552 -2.338174
-16.224243 0.220883 -2.569906
-83.748032 1.242511 -1.461988
-7.942728 0.128933 -2.128528
-9.635196 0.159773 -2.224766
-12.058578 0.202060 -2.344279
-16.195723 0.277042 -2.565526
-83.649673 1.503919 -4.384603
-83.775169 1.535427 -1.462547
-7.949928 0.158199 -2.130599
-9.615096 0.193012 -2.220267
-12.057756 0.246258 -2.344279
-16.186695 0.336237 -2.564274
-24.331894 0.509681 -2.988236
-82.960693 1.795701 -4.348804
-83.881256 1.830292 -1.464501
-7.957053 0.186128 -2.132669
-9.610428 0.228161 -2.219367
-12.048973 0.288156 -2.342753
-16.213070 0.393408 -2.568654
-7.964078 0.214110 -2.134739
-9.621261 0.262023 -2.222066
-12.067519 0.330751 -2.346569
-16.199751 0.449668 -2.566777
-24.327625 0.683783 -2.988236
-7.947835 0.241439 -2.130599
-9.612496 0.295367 -2.220267
-12.042744 0.372146 -2.341990
-16.190187 0.505967 -2.565526
-24.325224 0.764453 -2.988236
-83.622047 2.686352 -4.384707
-7.954715 0.268055 -2.132669
-9.619253 0.327507 -2.222066
-12.053215 0.412482 -2.344279
-16.196316 0.559926 -2.566777
-24.322556 0.845110 -2.988236
-82.975952 2.941092 -4.351316
-7.949920 0.294289 -2.131634
-9.625905 0.359695 -2.223866
-12.040010 0.452008 -2.341990
-16.194370 0.613632 -2.566777
-24.418638 0.933800 -3.000423
-7.952705 0.322193 -2.132669
-9.601225 0.392339 -2.218467
-12.042282 0.494191 -2.342753
-16.215813 0.671138 -2.570532
-24.316063 1.014893 -2.988236
-7.955392 0.350121 -2.133704
-9.603691 0.426022 -2.219367
-12.052253 0.536751 -2.345043
-16.181799 0.726317 -2.565526
-24.439287 1.105507 -3.003836
-83.639572 3.827303 -4.387952
-7.957980 0.378074 -2.134739
-9.609932 0.459915 -2.221167
-12.030695 0.577876 -2.341227
-16.187056 0.783180 -2.566777
-7.948825 0.406842 -2.132669
-9.615966 0.495536 -2.222966
-12.020655 0.621559 -2.339700
-16.195911 0.843120 -2.568654
-7.951213 0.434797 -2.133704
-9.606486 0.526994 -2.221167
-12.026252 0.663948 -2.341227
-16.200918 0.897260 -2.569906
-7.922728 0.459596 -2.126457
-9.592916 0.559843 -2.218467
-12.031823 0.704285 -2.342753
-16.177967 0.952646 -2.566777
-24.564148 1.455079 -3.021385
-7.949998 0.489026 -2.134222
-9.587117 0.591411 -2.217567
-12.052806 0.747741 -2.347332
-16.186546 1.007025 -2.568654
-83.636719 5.276640 -4.391929
-7.927126 0.514012 -2.128528
-9.596662 0.625634 -2.220267
-12.014997 0.785395 -2.340463
-16.182934 1.063521 -2.568654
-82.992027 5.526864 -4.359062
-7.929139 0.541943 -2.129563
-9.590530 0.658860 -2.219367
-12.000430 0.826524 -2.338174
-16.206713 1.121910 -2.573034
-24.575584 1.709871 -3.024797
-7.923345 0.569343 -2.128528
-9.592059 0.692614 -2.220267
-12.013138 0.869543 -2.341227
-16.182997 1.177043 -2.569906
-24.569466 1.795646 -3.024797
-7.909647 0.597505 -2.125422
-9.589583 0.726095 -2.220267
-12.009871 0.913565 -2.341227
-16.221905 1.239664 -2.576789
-82.771172 6.397956 -4.350793
-7.919068 0.626025 -2.128528
-9.582973 0.760927 -2.219367
-11.994864 0.954550 -2.338937
-16.205666 1.295334 -2.574912
-7.920685 0.653983 -2.129563
-9.574571 0.792219 -2.218017
-11.983634 0.995764 -2.337410
-16.268209 1.354640 -2.585549
-7.910774 0.679581 -2.127493
-9.573688 0.825804 -2.218467
-11.972442 1.034822 -2.335884
-16.271257 1.412103 -2.586801
-83.693718 7.336956 -4.403025
-7.916050 0.707881 -2.129563
-9.584333 0.860437 -2.221617
-11.976579 1.077309 -2.337410
-16.215075 1.464273 -2.578666
-83.415001 7.606027 -4.389731
-7.909684 0.735151 -2.128528
-9.561870 0.892077 -2.217118
-11.988383 1.120570 -2.340463
-16.245266 1.524187 -2.584298
-24.429632 2.300674 -3.012854
-7.914762 0.763499 -2.130599
-9.558859 0.923779 -2.217118
-11.984398 1.162411 -2.340463
-16.247986 1.578814 -2.585549
-24.323084 2.372041 -3.000667
-7.916030 0.790125 -2.131634
-9.547819 0.956365 -2.215318
-11.968757 1.200971 -2.338174
-16.230585 1.634334 -2.583672
-24.314655 2.456924 -3.000667
-7.901552 0.817938 -2.128528
-9.557990 0.991095 -2.218467
-11.968180 1.245237 -2.338937
-16.236273 1.695038 -2.585549
-24.305931 2.541790 -3.000667
-7.910174 0.846751 -2.131634
-9.556232 1.026326 -2.218917
-11.971569 1.287846 -2.340463
-16.206692 1.749160 -2.581795
-7.887969 0.872232 -2.126457
-9.539217 1.056509 -2.215768
-11.986512 1.331792 -2.344279
-16.204727 1.803331 -2.582421
-24.188951 2.700397 -2.988480
-7.904227 0.900572 -2.131634
-9.523854 1.088473 -2.213068
-11.985931 1.371981 -2.345043
-16.206184 1.860791 -2.583672
-7.901035 0.928158 -2.131634
-9.535479 1.123535 -2.216668
-11.992767 1.415192 -2.347332
-16.223131 1.920132 -2.587426
-61.156231 7.292444 -3.227768
-7.890076 0.954804 -2.129563
-9.537304 1.157518 -2.218017
-12.003346 1.458941 -2.350385
-16.228092 1.978184 -2.589303
-7.875193 0.980905 -2.126457
-9.533205 1.190803 -2.218017
-11.990388 1.499854 -2.348859
-16.181890 2.029902 -2.583046
-24.148890 3.037867 -2.988480
-7.879385 1.009373 -2.128528
-9.499998 1.220346 -2.211269
-12.004552 1.544208 -2.352675
-16.202133 2.089910 -2.587426
-24.177511 3.127238 -2.993355
-7.868153 1.035863 -2.126457
-9.515000 1.256051 -2.215768
-11.999088 1.586102 -2.352675
-16.171240 2.143343 -2.583672
-24.127094 3.206379 -2.988480
-7.875976 1.064873 -2.129563
-9.514418 1.289783 -2.216668
-11.977915 1.625862 -2.349622
-16.175402 2.201376 -2.585549
-24.116329 3.286370 -2.988480
-53.060993 7.268451 -2.806777
-7.857093 1.088863 -2.125422
-9.515881 1.322129 -2.218017
-11.980236 1.666656 -2.351149
-16.144539 2.251730 -2.581795
-53.394966 7.456666 6.619699
-52.969349 7.434917 -2.803219
-7.861089 1.115999 -2.127493
-9.521091 1.355051 -2.220267
-11.962981 1.704713 -2.348859
-16.136982 2.305252 -2.581795
-24.093401 3.450449 -2.988480
-52.940445 7.609962 -2.803010
-7.849499 1.142320 -2.125422
-9.518231 1.388559 -2.220717
-11.945302 1.744759 -2.346569
-16.097563 2.356992 -2.576789
-24.081209 3.534530 -2.988480
-52.984695 7.805193 -2.806777
-7.841642 1.169143 -2.124387
-9.513327 1.421776 -2.220717
-11.946906 1.787608 -2.348096
-16.085333 2.412579 -2.576163
-24.068724 3.618574 -2.988480
-7.858521 1.199714 -2.130081
-9.521789 1.457038 -2.223866
-11.948356 1.830486 -2.349622
-16.100243 2.472311 -2.579917
-24.055946 3.702563 -2.988480
-7.825655 1.222665 -2.122316
-9.512795 1.489662 -2.222966
-11.926376 1.869751 -2.346569
-16.052486 2.522364 -2.573660
-24.042875 3.786512 -2.988480
-7.827062 1.250890 -2.123869
-9.515233 1.524091 -2.224766
-11.935285 1.913860 -2.349622
-16.086491 2.585274 -2.580543
-24.029512 3.870415 -2.988480
-7.822647 1.278205 -2.123869
-45.006897 7.362090 0.796039
-9.506008 1.556669 -2.223866
-11.909158 1.952335 -2.345806
-16.042282 2.635651 -2.574912
-45.220520 7.453778 7.258873
-44.721725 7.387585 -2.375529
-45.391335 7.506347 10.621738
-7.816233 1.305183 -2.123352
-44.882305 7.502664 0.794294
-9.500517 1.589842 -2.223866
-11.933250 1.999081 -2.351912
-15.994020 2.685092 -2.568654
-24.001905 4.038078 -2.988480
-44.664150 7.538341 -2.373854
-7.838290 1.337007 -2.130599
-44.954403 7.676128 0.796039
-9.491069 1.622337 -2.222966
-11.910719 2.038074 -2.348859
-16.019598 2.746912 -2.574286
-23.987663 4.121836 -2.988480
-45.234936 7.772787 7.269510
-44.739914 7.711845 -2.379297
-7.818350 1.361706 -2.126457
-9.499075 1.656145 -2.226116
-11.895797 2.078287 -2.347332
-16.002617 2.798659 -2.573034
-23.973864 4.201361 -2.988480
-42.585121 7.478249 8.404373
-44.721962 7.861550 -2.379716
-7.829008 1.390330 -2.130599
-9.483643 1.687586 -2.223866
-42.018036 7.484550 2.236734
-11.892705 2.118413 -2.348096
-15.973305 2.851031 -2.569906
-23.959053 4.285014 -2.988480
-7.816503 1.416270 -2.128528
-9.458520 1.717199 -2.219367
-11.892963 2.161318 -2.349622
-15.943821 2.903232 -2.566777
-40.782669 7.448235 6.566181
-40.824654 7.463265 8.067023
-7.822910 1.445655 -2.131634
-39.932384 7.386614 0.708847
-9.452469 1.750203 -2.219367
-11.881486 2.202103 -2.348859
-15.941358 2.960308 -2.568028
-23.928555 4.452176 -2.988480
-40.674831 7.582698 8.042600
-39.593800 7.402622 -0.703088
-7.817816 1.472953 -2.131634
-9.446301 1.783190 -2.219367
-11.869868 2.242836 -2.348096
-15.934808 3.016675 -2.568654
-38.629761 7.334088 -3.440037
-39.460495 7.513215 9.273832
-7.805038 1.498775 -2.129563
-38.505215 7.400991 0.684414
-9.447674 1.817626 -2.221167
-38.775402 7.466959 2.069469
-11.858112 2.283510 -2.347332
-15.900905 3.067789 -2.564900
-38.472115 7.443386 6.206382
-37.919285 7.336427 -3.379028
-38.764458 7.521005 9.116366
-7.803551 1.526752 -2.130599
-37.890419 7.420074 0.673942
-9.448922 1.852091 -2.222966
-38.749100 7.602265 2.069469
-11.838510 2.322621 -2.345043
-15.901731 3.125558 -2.566777
-40.616562 7.990732 5.082683
-37.864471 7.463026 6.112521
-37.240547 7.340052 -3.320808
-40.735729 8.036333 8.070839
-38.068855 7.524018 8.958900
-37.262100 7.371336 -0.663017
-7.805753 1.555493 -2.132669
-37.134773 7.406776 0.660958
-9.419467 1.880484 -2.217567
-11.853432 2.368551 -2.349622
-15.879101 3.178720 -2.564900
-37.209454 7.455449 4.659553
-23.766743 4.766317 -2.976293
-37.164200 7.459866 6.003643
-36.628674 7.352372 -3.268515
-37.161961 7.466173 7.367899
-37.423378 7.532275 8.813132
-36.683334 7.389996 -0.653174
-7.796488 1.581962 -2.131634
-36.540382 7.420940 0.650835
-9.412845 1.913353 -2.217567
-36.722260 7.471224 1.963959
-11.841245 2.409127 -2.348859
-15.840810 3.228606 -2.560519
-36.805870 7.508306 4.612267
-23.652710 4.829394 -2.964106
-36.584415 7.476440 5.914162
-36.017166 7.360517 -3.216221
-36.885628 7.544694 7.318288
-36.544830 7.481631 -1.954957
-36.965405 7.574464 8.711454
-36.034374 7.390243 -0.642074
-7.787135 1.608386 -2.130599
-9.402291 1.945409 -2.216668
-36.634693 7.580011 1.960610
-11.825073 2.448854 -2.347332
-15.860394 3.290302 -2.565526
-23.596840 4.903851 -2.959232
-35.932785 7.467484 5.812792
-35.425571 7.368534 -3.165671
-35.967239 7.487741 7.141218
-36.502850 7.605893 -1.954120
-36.084091 7.525218 8.509898
-35.383247 7.379059 -0.630904
-7.777692 1.634764 -2.129563
-9.416766 1.980989 -2.221617
-36.729187 7.733358 1.967099
-11.831822 2.493356 -2.350385
-35.436050 7.473996 3.168460
-15.849397 3.342876 -2.565526
-36.812180 7.770962 4.619580
-23.522181 4.969764 -2.951920
-35.500648 7.507054 5.747090
-34.768093 7.358477 -3.109194
-35.392887 7.490711 7.032075
-36.512596 7.734350 -1.956004
-35.540405 7.534904 8.387526
-34.833027 7.391277 -0.621550
-7.760893 1.658125 -2.126457
-34.702087 7.420473 0.619421
-9.396454 2.010995 -2.218467
-36.675999 7.849263 1.965634
-11.800451 2.527643 -2.345806
-15.822177 3.394869 -2.563023
-36.843056 7.911919 4.626892
-23.252390 4.997610 -2.920233
-34.722363 7.462838 5.625071
-34.182526 7.353061 -3.058992
-34.752354 7.481983 6.909957
-36.497093 7.864272 -1.956632
-35.414833 7.637547 8.364130
-34.257088 7.387868 -0.611707
-7.755058 1.685204 -2.126457
-34.118423 7.414065 0.609438
-9.384023 2.040900 -2.217118
-36.660084 7.979788 1.966262
-11.795393 2.569653 -2.346569
-15.795391 3.443952 -2.560519
-22.878843 4.996755 -2.875386
-34.136456 7.461676 5.534339
-33.708984 7.374402 -3.018900
-34.205688 7.483064 6.806157
-36.482521 7.987822 -1.957260
-33.746677 7.401165 -0.603050
-34.374218 7.545082 9.429813
-7.767992 1.716432 -2.131634
-33.645844 7.440625 0.601480
-9.366964 2.073174 -2.214868
-36.704689 8.130506 1.970240
-11.782518 2.609962 -2.345806
-33.676590 7.465921 3.017855
-15.798092 3.505242 -2.563023
-33.682426 7.479543 4.236423
-22.503819 5.001340 -2.830538
-33.557392 7.464077 5.444859
-33.173485 7.378685 -2.973231
-33.645283 7.489790 6.700068
-36.620651 8.158845 -1.966262
-35.406300 7.894782 8.374928
-33.204079 7.409821 -0.593836
-7.754414 1.741844 -2.129563
-33.092896 7.439596 0.592055
-9.363474 2.106714 -2.215768
-38.979179 8.777192 2.093962
-11.754183 2.646765 -2.341990
-33.125538 7.465157 2.970791
-15.774198 3.557759 -2.561146
-33.202999 7.494801 4.179388
-22.160925 5.006375 -2.789590
-33.326908 7.534987 5.411695
-32.665577 7.385465 -2.930001
-33.105759 7.491069 6.597794
-36.518848 8.276764 8.644869
-32.628067 7.400938 -0.583992
-33.377384 7.577029 9.170995
-7.740752 1.767182 -2.127493
-32.649544 7.459750 0.584586
-9.352263 2.138518 -2.214868
-39.006714 8.926560 2.097102
-11.756354 2.690404 -2.344279
-32.644825 7.476659 2.930001
-15.769385 3.614566 -2.562397
-32.716141 7.505020 4.121378
-21.802797 5.005519 -2.746692
-32.126965 7.381668 -2.883983
-32.604904 7.497473 6.503152
-32.146061 7.409686 -0.575825
-32.925312 7.595346 9.054008
-7.734537 1.794191 -2.127493
-32.066204 7.444340 0.574603
-9.356131 2.173799 -2.217567
-39.045349 9.078949 2.100870
-11.746892 2.731425 -2.344279
-32.242069 7.502960 2.896185
-15.745126 3.666904 -2.560519
-32.225761 7.511024 4.062881
-21.514542 5.018464 -2.712568
-33.304264 7.774662 5.416701
-31.681913 7.395935 -2.846332
-32.138824 7.508505 6.415380
-36.532276 8.548392 8.661965
-31.730598 7.430654 -0.568844
-7.720706 1.819407 -2.125422
-31.607948 7.454320 0.566854
-9.348486 2.206442 -2.217567
-38.987812 9.201957 2.099405
-11.744928 2.774218 -2.345806
-31.855032 7.530216 2.863763
-15.709163 3.716382 -2.556765
-31.716425 7.509132 4.001946
-21.365545 5.062417 -2.695994
-33.366718 7.906012 5.431093
-31.159613 7.388789 -2.801708
-31.562284 7.490092 6.305474
-31.355591 7.452603 -0.562561
-31.797821 7.563575 8.757919
-7.725580 1.849042 -2.128528
-31.139648 7.452971 0.558896
-9.322165 2.232892 -2.213068
-38.998184 9.348238 2.101707
-11.742811 2.817028 -2.347332
-31.413961 7.541823 2.826461
-15.712120 3.772146 -2.559268
-31.185650 7.492767 3.938087
-21.298458 5.121169 -2.689657
-33.611641 8.088054 5.475520
-30.688118 7.390225 -2.761617
-31.136446 7.498190 6.225335
-30.777365 7.417408 -1.659155
-31.274963 7.543098 7.427434
-31.395653 7.583812 8.654391
-7.711897 1.872828 -2.126457
-30.685951 7.457729 0.551217
-9.310528 2.264498 -2.212169
-39.008011 9.494694 2.104010
-11.710513 2.850382 -2.342753
-30.738358 7.487519 2.767892
-15.702695 3.827904 -2.559894
-30.750454 7.501838 3.886414
-21.141603 5.161585 -2.672107
-30.299580 7.403049 -2.728846
-30.705782 7.507975 6.144431
-30.332243 7.422250 -1.636546
-30.797951 7.541905 7.320357
-31.368992 7.693350 8.654391
-7.712815 1.901586 -2.128528
-30.201544 7.451756 0.542979
-9.325270 2.302590 -2.217567
-11.692869 2.889359 -2.341227
-30.325207 7.499114 2.733030
-15.673897 3.878897 -2.557391
-30.304022 7.505093 3.833279
-21.027117 5.211475 -2.659920
-33.611870 8.336776 5.484906
-29.902266 7.416679 -2.695378
-30.412628 7.548899 6.091005
-30.351599 7.544998 7.220479
-31.139992 7.746753 -0.560118
-31.341946 7.802803 8.654391
-7.687389 1.923809 -2.123352
-29.814547 7.466775 0.536487
-9.302052 2.331335 -2.213968
-38.971767 9.774572 2.105685
-11.686520 2.931115 -2.341990
-29.838921 7.489484 2.691544
-15.641104 3.928770 -2.554262
-29.923403 7.521792 3.788431
-21.008799 5.284842 -2.659920
-33.624714 8.464655 5.491789
-29.026066 7.306995 -2.618681
-29.944418 7.543746 6.002470
-29.078955 7.331111 -1.571649
-29.924496 7.549828 7.125100
-32.047287 8.091356 -0.576942
-7.676883 1.949681 -2.122316
-29.389057 7.469326 0.529297
-9.290081 2.362831 -2.213068
-39.026443 9.933212 2.110500
-11.680021 2.972860 -2.342753
-29.403282 7.489332 2.654590
-15.627294 3.983348 -2.554262
-29.481487 7.520218 3.735783
-20.967142 5.352248 -2.656996
-33.652370 8.596651 5.501175
-29.077599 7.428004 -2.625654
-29.381514 7.511103 5.894853
-29.029970 7.426625 -1.570393
-29.482630 7.547916 7.026121
-32.092457 8.222034 -0.578268
-7.681255 1.979357 -2.125422
-28.975534 7.472002 0.522316
-9.278003 2.394274 -2.212169
-39.007011 10.073367 2.111337
-11.665772 3.012628 -2.341990
-29.141619 7.531104 2.633323
-15.613294 4.037874 -2.554262
-29.086077 7.527582 3.688985
-20.971392 5.431377 -2.659920
-29.044363 7.527612 4.752167
-28.719761 7.443483 -2.595672
-28.990246 7.518978 5.821583
-28.644291 7.434593 -1.550924
-29.116594 7.562603 6.945138
-28.692120 7.457690 -0.517464
-29.164522 7.585918 8.074637
-7.689251 2.010067 -2.129563
-28.562359 7.471883 0.515335
-9.273358 2.427630 -2.213068
-28.859200 7.560299 1.563484
-11.621000 3.044376 -2.335121
-28.698862 7.523656 2.595672
-15.599105 4.092347 -2.554262
-28.687138 7.531278 3.641700
-20.952305 5.504553 -2.659920
-28.628176 7.526480 4.688342
-28.339054 7.450468 -2.563599
-28.549917 7.511233 5.738390
-28.274368 7.444022 -1.532292
-28.660368 7.550989 6.842561
-28.368134 7.479290 -0.512088
-28.853939 7.612766 7.995956
-7.663515 2.031944 -2.124387
-28.184328 7.478203 0.508982
-9.266712 2.460486 -2.213518
-28.361641 7.535847 1.537945
-11.602712 3.082906 -2.333594
-28.445219 7.563369 2.575104
-15.577090 4.144742 -2.553011
-28.238659 7.519001 3.588078
-20.921455 5.574586 -2.658458
-28.510113 7.601938 4.673324
-27.897047 7.438470 -2.525948
-28.394535 7.576436 5.712440
-27.897017 7.448892 -1.513242
-28.249767 7.548363 6.750782
-28.303215 7.567945 -0.511390
-28.644304 7.664497 7.945228
-7.656375 2.058682 -2.124387
-27.833641 7.489250 0.503118
-9.267475 2.495352 -2.215768
-27.991896 7.542309 1.519313
-11.599463 3.125431 -2.335121
-28.434036 7.666766 2.576498
-15.543454 4.193945 -2.549882
-27.917103 7.537837 3.550542
-20.886536 5.643440 -2.656508
-27.808363 7.518892 4.562568
-27.474707 7.428677 -2.490040
-28.330013 7.665243 5.704807
-27.519978 7.451226 -1.494192
-27.854586 7.547042 6.662601
-28.295927 7.671922 -0.511739
-7.652870 2.086412 -2.125422
-27.448502 7.488468 0.496626
-9.247429 2.524604 -2.213068
-27.577528 7.528833 1.498169
-11.599847 3.169007 -2.337410
-28.503191 7.792243 2.585213
-15.543962 4.252346 -2.552385
-27.454081 7.515736 3.494969
-20.894510 5.720010 -2.659920
-27.470823 7.525473 4.511258
-27.156540 7.444472 -2.463544
-28.378815 7.784862 5.720072
-27.139414 7.449963 -1.474932
-27.521214 7.554770 6.588816
-28.308897 7.776308 -0.512438
-27.585581 7.582794 7.665703
-7.647771 2.112293 -2.125940
-27.053452 7.477169 0.489924
-9.239006 2.555256 -2.213068
-27.194363 7.521216 1.478700
-11.604411 3.211646 -2.340463
-28.434952 7.875023 2.581379
-15.533586 4.304921 -2.553011
-27.107639 7.517613 3.454021
-20.837170 5.778658 -2.655046
-27.095486 7.519335 4.453690
-26.766954 7.433188 -2.430425
-28.349062 7.877876 5.719309
-26.745104 7.437183 -1.454835
-27.124262 7.542619 6.499736
-28.306070 7.876581 -0.512856
-27.217852 7.578879 7.570457
-7.631423 2.135038 -2.123352
-26.681889 7.469803 0.483641
-9.217347 2.582201 -2.209919
-26.806396 7.514744 1.459022
-11.571012 3.243748 -2.335884
-28.473906 7.987571 2.587305
-15.534438 4.360680 -2.555514
-26.750027 7.514057 3.411611
-20.820692 5.852433 -2.655533
-26.753410 7.525076 4.401753
-26.439119 7.436674 -2.402884
-28.500425 8.021843 5.755181
-26.428080 7.443531 -1.438925
-26.741394 7.536808 6.414255
-28.305349 7.982933 -0.513345
-26.904907 7.593037 7.490741
-7.620206 2.160612 -2.122316
-26.305529 7.463550 0.477288
-9.232647 2.621279 -2.215768
-26.449547 7.514394 1.441018
-11.559618 3.284122 -2.335884
-28.484182 8.097805 2.590792
-15.511521 4.412717 -2.554262
-26.395247 7.513905 3.369688
-20.803959 5.926159 -2.656021
-26.381233 7.519864 4.344811
-26.094931 7.438254 -2.373948
-28.551544 8.143899 5.771209
-26.083124 7.444734 -1.421549
-26.512548 7.572313 6.365665
-28.308075 8.090482 -0.513904
-26.488188 7.575349 7.382037
-7.614475 2.187730 -2.122834
-26.021788 7.481289 0.472611
-9.200967 2.647028 -2.210369
-26.116066 7.518265 1.424271
-11.540537 3.322277 -2.334357
-15.469449 4.459180 -2.549882
-26.101831 7.528967 3.335564
-20.764072 5.993237 -2.653583
-26.070150 7.529693 4.297881
-25.761246 7.445338 -2.346058
-28.538033 8.247867 5.774262
-25.761511 7.450287 -1.405430
-26.171469 7.573805 6.290082
-28.352652 8.210376 -0.515230
-26.172121 7.583888 7.301285
-7.593422 2.211842 -2.119210
-25.680649 7.480362 0.466887
-9.176704 2.674765 -2.206770
-25.817400 7.529972 1.409407
-11.535822 3.366753 -2.335884
-29.465904 8.605267 2.685617
-15.434042 4.510303 -2.546753
-25.865799 7.558785 3.308753
-20.746834 6.066801 -2.654071
-25.736576 7.530774 4.247196
-25.429161 7.445639 -2.318168
-29.570215 8.663748 5.989495
-25.423538 7.453635 -1.388473
-25.840607 7.580801 6.217197
-25.815544 7.578349 7.209146
-7.593066 2.240522 -2.121281
-25.334700 7.480436 0.461093
-9.172447 2.710038 -2.208120
-25.492153 7.531763 1.393079
-11.527764 3.408114 -2.336647
-29.466255 8.717113 2.688406
-15.418203 4.564151 -2.546753
-25.540997 7.565585 3.270730
-20.709234 6.138284 -2.652121
-25.395739 7.527379 4.195260
-25.120316 7.450512 -2.292370
-28.248661 8.383729 5.727705
-25.098688 7.453629 -1.372144
-25.373137 7.539958 6.111020
-25.492657 7.580317 7.126324
-7.588901 2.268120 -2.122316
-25.010864 7.475079 0.455647
-9.159675 2.739323 -2.207220
-25.155733 7.527935 1.376122
-11.508275 3.446080 -2.335121
-29.500540 8.839361 2.694333
-15.425691 4.622059 -2.550508
-25.230547 7.564725 3.234169
-20.696371 6.209207 -2.653096
-25.055244 7.521698 4.143324
-24.804111 7.451032 -2.265875
-28.228224 8.479619 5.729231
-24.783100 7.449430 -1.356234
-25.049410 7.534245 6.039036
-25.680067 7.728826 -0.468108
-25.140478 7.571207 7.035220
-7.581338 2.293273 -2.122316
-24.743464 7.489345 0.451249
-9.146328 2.770148 -2.206320
-24.832434 7.520999 1.359793
-11.470481 3.476253 -2.329778
-29.467253 8.935985 2.693984
-15.409463 4.675874 -2.550508
-24.934265 7.570854 3.199558
-20.621387 6.265255 -2.646271
-24.746651 7.518606 4.096393
-24.493336 7.446306 -2.239728
-28.190943 8.575811 5.727705
-24.477985 7.450980 -1.340952
-24.747057 7.537610 5.972450
-24.826956 7.566675 6.954468
-7.556662 2.314631 -2.117657
-24.408745 7.476480 0.445595
-9.151997 2.805032 -2.209919
-24.534885 7.524486 1.344930
-11.477044 3.522031 -2.333594
-29.443501 9.041122 2.694681
-15.374989 4.721149 -2.547379
-24.480179 7.521733 3.144473
-20.632753 6.343522 -2.650415
-24.474812 7.529428 4.055720
-24.212027 7.453217 -2.216370
-28.181112 8.675025 5.731521
-24.193546 7.452151 -1.326717
-24.625090 7.589776 5.949056
-32.097118 9.898895 -0.586296
-24.497656 7.559868 6.869576
-7.557353 2.345173 -2.120246
-24.139229 7.495431 0.441197
-9.113244 2.831480 -2.203171
-24.238802 7.535620 1.330275
-11.460309 3.562905 -2.332831
-15.341660 4.775454 -2.544876
-24.163033 7.525947 3.107425
-20.585503 6.415611 -2.647490
-24.140219 7.528085 4.005036
-23.914457 7.457681 -2.191618
-28.158840 8.786678 5.733810
-23.897846 7.461656 -1.312063
-24.603203 7.686603 5.950855
-30.646505 9.580540 -0.560467
-24.247198 7.584669 6.807459
-7.539905 2.368646 -2.117657
-23.822954 7.488495 0.435891
-9.099586 2.862104 -2.202271
-23.926579 7.530252 1.314575
-11.432821 3.598175 -2.329778
-29.495872 9.288689 2.705488
-15.321127 4.827789 -2.544250
-23.856417 7.521900 3.071352
-20.528908 6.476679 -2.643103
-23.868906 7.534993 3.964363
-23.635584 7.461337 -2.168435
-28.139231 8.888466 5.736101
-23.605040 7.460762 -1.297408
-24.553926 7.765386 5.945456
-30.647196 9.698318 -0.561095
-23.922213 7.574788 6.723601
-7.550002 2.400803 -2.122834
-23.560379 7.496425 0.431563
-9.087683 2.893259 -2.201821
-23.646456 7.528357 1.300549
-11.420192 3.638062 -2.329778
-29.470861 9.394012 2.706186
-15.315474 4.884847 -2.546128
-23.572823 7.523048 3.038203
-20.511099 6.545928 -2.643590
-23.572815 7.527573 3.919310
-23.366467 7.466180 -2.146123
-23.605061 7.546957 4.817164
-23.354383 7.471298 -1.285057
-24.509481 7.840824 5.940958
-30.641525 9.808429 -0.561584
-23.635715 7.570400 6.650097
-7.519930 2.418729 -2.116622
-23.318388 7.504674 0.427584
-9.079894 2.923977 -2.202271
-23.393227 7.533266 1.287988
-11.411800 3.677117 -2.330541
-29.458509 9.497805 2.707929
-15.265352 4.924688 -2.540496
-23.328609 7.530442 3.009929
-20.474165 6.609032 -2.641640
-23.303356 7.526775 3.878637
-23.087538 7.461517 -2.122765
-23.366953 7.556330 4.773660
-23.074846 7.466312 -1.271031
-24.509302 7.930458 5.947256
-30.624052 9.914916 -0.561863
-23.393618 7.578484 6.589016
-7.511868 2.443651 -2.116622
-23.072796 7.510163 0.423535
-9.064590 2.952261 -2.200921
-23.135113 7.539385 1.275218
-11.407009 3.717373 -2.332067
-29.457161 9.605325 2.710718
-15.222645 4.966705 -2.536116
-23.084610 7.536299 2.981656
-20.428329 6.673059 -2.638715
-23.047869 7.533202 3.840466
-22.842987 7.466236 -2.102545
-23.058134 7.541017 4.715654
-22.822174 7.468251 -1.258471
-25.377834 8.309461 6.165009
-30.634863 10.036696 -0.562700
-23.216492 7.610745 6.546569
-7.517972 2.474691 -2.120763
-22.871704 7.533105 0.420324
-9.052378 2.983272 -2.200471
-22.881042 7.545035 1.262657
-11.379050 3.752247 -2.329015
-29.476429 9.725571 2.715599
-15.160198 5.004947 -2.528607
-22.986538 7.593168 2.972394
-20.382292 6.736850 -2.635790
-22.792625 7.537943 3.802297
-22.589790 7.470862 -2.081628
-22.804281 7.546208 4.669096
-22.557064 7.468769 -1.245282
-25.393068 8.412710 6.175806
-23.401958 7.757583 -0.430341
-22.969748 7.618757 6.484453
-7.501957 2.498478 -2.118693
-22.625202 7.539557 0.416275
-9.043757 3.015472 -2.200921
-22.615845 7.545216 1.249469
-11.362158 3.790702 -2.328252
-29.502777 9.848593 2.721177
-15.075183 5.035310 -2.517344
-22.952360 7.670844 2.971419
-20.321001 6.795367 -2.630916
-22.515152 7.533463 3.760372
-22.320425 7.472639 -2.059316
-22.580462 7.559697 4.628645
-22.296022 7.468797 -1.232303
-25.533539 8.558268 6.217197
-30.643675 10.277020 -0.564166
-22.668289 7.606709 6.406807
-7.492750 2.525955 -2.118693
-22.367567 7.540553 0.412016
-9.025789 3.044530 -2.199121
-22.335789 7.538529 1.235443
-11.351909 3.833575 -2.329015
-14.936862 5.050038 -2.497320
-22.985620 7.771261 2.979218
-20.274591 6.858626 -2.627991
-22.245478 7.529677 3.719699
-22.079077 7.477649 -2.039444
-22.288568 7.552935 4.574455
-22.086916 7.488898 -1.222254
-25.380201 8.610475 6.187503
-30.630344 10.391636 -0.564585
-22.286711 7.565317 6.306385
-7.476572 2.549602 -2.116622
-22.124023 7.548873 0.408037
-9.021949 3.080108 -2.200921
-22.107666 7.551908 1.224347
-11.319879 3.866834 -2.325199
-29.480564 10.076211 2.725709
-14.769616 5.051007 -2.472291
-22.900637 7.836175 2.971906
-20.253073 6.934176 -2.628478
-22.015902 7.542015 3.685909
-21.837965 7.481059 -2.019573
-22.020632 7.547935 4.524845
-21.818817 7.483016 -1.208856
-25.383169 8.710402 6.195602
-30.629875 10.516820 -0.565283
-22.057858 7.577907 6.249445
-7.458495 2.572536 -2.114034
-21.882046 7.551681 0.404058
-9.014824 3.112856 -2.201821
-21.865965 7.554679 1.212415
-11.321157 3.911453 -2.328252
-29.464045 10.185559 2.727452
-14.595078 5.048294 -2.446010
-22.876896 7.917365 2.972394
-20.209988 6.998331 -2.626041
-21.765459 7.541220 3.648365
-21.593336 7.481584 -1.999353
-21.775267 7.548875 4.479814
-21.603868 7.493674 -1.198389
-25.378384 8.807899 6.201900
-30.653425 10.644666 -0.566400
-21.815943 7.580035 6.188364
-7.440350 2.595372 -2.111446
-21.651649 7.556852 0.400288
-8.978147 3.135310 -2.195522
-21.637150 7.556033 1.201110
-11.300022 3.948355 -2.326725
-29.477211 10.305443 2.731984
-14.431929 5.048336 -2.421606
-23.965813 8.388008 3.117662
-20.186668 7.065311 -2.626041
-21.531523 7.540233 3.613324
-21.364016 7.485759 -1.980527
-21.541285 7.552088 4.437073
-21.347647 7.488390 -1.185619
-25.371101 8.899750 6.207300
-21.619352 7.592170 6.139706
-7.446279 2.625170 -2.115587
-21.411488 7.552776 0.396309
-8.982401 3.170254 -2.199121
-21.370897 7.542659 1.187712
-11.279462 3.983191 -2.325199
-29.499233 10.423051 2.737213
-14.295914 5.054028 -2.401582
